88.0	 62.7409252682	 92.3378880186	 
88.0	 63.505012018	 92.3697530806	 
88.0	 64.320226521	 92.4335485019	 
88.0	 65.200672985	 92.5310373084	 
88.0	 66.1604556177	 92.6639825261	 
88.0	 67.2136786268	 92.834147181	 
88.0	 68.3744462203	 93.0432942991	 
88.0	 69.6568626058	 93.2931869062	 
88.0	 71.0748619462	 93.5855817306	 
88.0	 72.6265070894	 93.9216476735	 
88.0	 74.281289252	 94.3014954281	 
88.0	 76.0057109405	 94.7251249944	 
88.0	 77.7662746614	 95.1925363722	 
88.0	 79.5294829213	 95.7037295617	 
88.0	 81.2618382266	 96.2587045629	 
88.0	 82.929843084	 96.8574613756	 
88.0	 84.5	 97.5	 
90.0	 65.5	 95.0	 
90.0	 67.1719082831	 95.6075418132	 
90.0	 68.8709871787	 96.2813065336	 
90.0	 70.585355004	 97.0094124789	 
90.0	 72.3031300765	 97.7799779662	 
90.0	 74.0124307136	 98.5811213131	 
90.0	 75.7013752328	 99.4009608371	 
90.0	 77.3580819515	 100.227614855	 
90.0	 78.9706691871	 101.049201686	 
90.0	 80.5272746043	 101.85387834	 
90.0	 82.0187580985	 102.635246291	 
90.0	 83.4414850914	 103.397918065	 
90.0	 84.7924851623	 104.147834504	 
90.0	 86.0687878904	 104.890936448	 
90.0	 87.2674228553	 105.633164739	 
90.0	 88.3854196362	 106.380460219	 
90.0	 89.4198078124	 107.138763727	 
90.0	 90.3676169635	 107.914016107	 
90.0	 91.2260572437	 108.712055013	 
90.0	 91.9971272229	 109.535981863	 
90.0	 92.6879958448	 110.385943576	 
90.0	 93.3060891608	 111.261940153	 
90.0	 93.8588332226	 112.163971593	 
90.0	 94.3536540819	 113.092037896	 
90.0	 94.7979777903	 114.046139063	 
90.0	 95.1992303993	 115.026275093	 
90.0	 95.5648379605	 116.032445986	 
90.0	 95.9017041476	 117.064129364	 
90.0	 96.2114492999	 118.115519516	 
90.0	 96.4926259947	 119.177742966	 
90.0	 96.7437490219	 120.241888453	 
90.0	 96.9633331711	 121.299044715	 
90.0	 97.1498932319	 122.34030049	 
90.0	 97.3019439941	 123.356744517	 
90.0	 97.4180002473	 124.339465532	 
90.0	 97.4965767812	 125.279552274	 
90.0	 97.5351565275	 126.171601799	 
90.0	 97.5262966569	 127.026958749	 
90.0	 97.4610861594	 127.861959581	 
90.0	 97.3306137731	 128.692941608	 
90.0	 97.1259682359	 129.536242145	 
90.0	 96.838238286	 130.408198504	 
90.0	 96.4585126615	 131.325148	 
90.0	 95.9778801003	 132.303427945	 
90.0	 95.3874524668	 133.359340284	 
90.0	 94.6851013019	 134.498848632	 
90.0	 93.8848136212	 135.703269408	 
90.0	 93.002926738	 136.950324456	 
90.0	 92.0557779659	 138.217735622	 
90.0	 91.0597046186	 139.483224751	 
90.0	 90.0310440094	 140.724513689	 
90.0	 88.9861334521	 141.91932428	 
90.0	 87.94131026	 143.04537837	 
90.0	 86.9125488331	 144.080726154	 
90.0	 85.9026486402	 145.015338003	 
90.0	 84.8978156354	 145.85419747	 
90.0	 83.8831977156	 146.603245395	 
90.0	 82.8439427774	 147.268422619	 
90.0	 81.7651987178	 147.855669984	 
90.0	 80.6321134334	 148.370928331	 
90.0	 79.4298348211	 148.820138501	 
90.0	 78.1435107776	 149.209241336	 
90.0	 76.7594292314	 149.544043555	 
90.0	 75.2781203701	 149.828676319	 
90.0	 73.7097956569	 150.066131814	 
90.0	 72.0648515641	 150.25938046	 
90.0	 70.3536845641	 150.411392679	 
90.0	 68.586691129	 150.52513889	 
90.0	 66.7742677311	 150.603589515	 
90.0	 64.9268108426	 150.649714974	 
90.0	 63.0547169359	 150.666485688	 
90.0	 61.1677023034	 150.654661494	 
90.0	 59.271600066	 150.602381919	 
90.0	 57.370867467	 150.493314891	 
90.0	 55.4699601374	 150.311123096	 
90.0	 53.5733337082	 150.03946922	 
90.0	 51.6854438102	 149.66201595	 
90.0	 49.8107460746	 149.162425973	 
90.0	 47.9536961322	 148.524361974	 
90.0	 46.1187552569	 147.731496314	 
90.0	 44.3152002948	 146.775756619	 
90.0	 42.5658991921	 145.672369546	 
90.0	 40.8961005243	 144.440642827	 
90.0	 39.3310528669	 143.099884198	 
90.0	 37.8960047953	 141.669401392	 
90.0	 36.6162048851	 140.168502144	 
90.0	 35.5169017116	 138.616494188	 
90.0	 34.6233438504	 137.032685258	 
90.0	 33.9603772106	 135.436263376	 
90.0	 33.531776689	 133.840152211	 
90.0	 33.3103193248	 132.24805985	 
90.0	 33.2663009113	 130.662956714	 
90.0	 33.3700172423	 129.087813224	 
90.0	 33.5917641112	 127.5255998	 
90.0	 33.9018373117	 125.979286863	 
90.0	 34.2705326372	 124.451844834	 
90.0	 34.6681458813	 122.946244133	 
90.0	 35.0660308951	 121.465505565	 
90.0	 35.452135044	 120.0134401	 
90.0	 35.8275806247	 118.59448609	 
90.0	 36.1938528476	 117.213099164	 
90.0	 36.5524369229	 115.873734954	 
90.0	 36.904818061	 114.58084909	 
90.0	 37.2524814722	 113.338897204	 
90.0	 37.5969123667	 112.152334926	 
90.0	 37.9395959551	 111.025617888	 
90.0	 38.2818791946	 109.962648709	 
90.0	 38.6241610738	 108.963538132	 
90.0	 38.966442953	 108.026806389	 
90.0	 39.3087248322	 107.150968269	 
90.0	 39.6510067114	 106.334538562	 
90.0	 39.9932885906	 105.576032057	 
90.0	 40.3355704698	 104.873963545	 
90.0	 40.677852349	 104.226847814	 
90.0	 41.0201344801	 103.633199403	 
90.0	 41.3638852957	 103.090064669	 
90.0	 41.7154989895	 102.589564208	 
90.0	 42.082401613	 102.122786758	 
90.0	 42.472019218	 101.680821057	 
90.0	 42.8917778559	 101.254755842	 
90.0	 43.3491035785	 100.835679853	 
90.0	 43.8514224373	 100.414681827	 
90.0	 44.4061604839	 99.9828505014	 
90.0	 45.0206304067	 99.5313375952	 
90.0	 45.6929416082	 99.056407762	 
90.0	 46.4053534884	 98.5631312131	 
90.0	 47.1385583131	 98.0574487898	 
90.0	 47.8732483481	 97.5453013332	 
90.0	 48.5901158593	 97.0326296848	 
90.0	 49.2698531124	 96.5253746858	 
90.0	 49.8931523733	 96.0294771776	 
90.0	 50.4407059077	 95.5508780012	 
90.0	 50.8944547916	 95.0954812685	 
90.0	 51.2614533457	 94.6684524661	 
90.0	 51.5720139075	 94.2742730213	 
90.0	 51.8573258939	 93.9173985653	 
90.0	 52.1485787215	 93.6022847289	 
90.0	 52.4769618073	 93.3333871431	 
90.0	 52.8736645678	 93.1151614389	 
90.0	 53.3698764199	 92.9520632472	 
90.0	 53.9967867804	 92.8485481991	 
90.0	 54.7821535842	 92.8088505395	 
90.0	 55.7252895475	 92.8353693381	 
90.0	 56.8114425283	 92.9295962544	 
90.0	 58.0257604234	 93.0930164985	 
90.0	 59.3533911295	 93.327115281	 
90.0	 60.7794825434	 93.6333778121	 
90.0	 62.289182562	 94.013289302	 
90.0	 63.8676390819	 94.4683349612	 
90.0	 65.5	 95.0	 
92.0	 71.6666666667	 99.3333333333	 
92.0	 73.1799163167	 100.368345763	 
92.0	 74.6564979287	 101.42758529	 
92.0	 76.092264522	 102.502757953	 
92.0	 77.4830691162	 103.58556979	 
92.0	 78.8247647309	 104.66772684	 
92.0	 80.1132043854	 105.740935143	 
92.0	 81.3442410992	 106.796900738	 
92.0	 82.513727892	 107.827348709	 
92.0	 83.6175177832	 108.831438756	 
92.0	 84.6514637922	 109.827016579	 
92.0	 85.6114189386	 110.834817083	 
92.0	 86.493236242	 111.875575168	 
92.0	 87.2927687216	 112.970025737	 
92.0	 88.0058693972	 114.138903693	 
92.0	 88.6283912882	 115.402943939	 
92.0	 89.1562091798	 116.782707251	 
92.0	 89.5866852844	 118.286854987	 
92.0	 89.9195982163	 119.904717294	 
92.0	 90.1549479753	 121.623853229	 
92.0	 90.2927345615	 123.431821853	 
92.0	 90.3329579749	 125.316182222	 
92.0	 90.2756182154	 127.264493397	 
92.0	 90.1207152831	 129.264314434	 
92.0	 89.8683593671	 131.302947284	 
92.0	 89.5215379681	 133.360980172	 
92.0	 89.0863204058	 135.41181041	 
92.0	 88.5689271509	 137.428482624	 
92.0	 87.9755786743	 139.384041441	 
92.0	 87.3124954466	 141.251531488	 
92.0	 86.5858979386	 143.003997391	 
92.0	 85.802006621	 144.614483778	 
92.0	 84.9662583976	 146.058124788	 
92.0	 84.0737156165	 147.337720039	 
92.0	 83.1120928708	 148.475663168	 
92.0	 82.068949219	 149.494762565	 
92.0	 80.9318437195	 150.417826625	 
92.0	 79.6883354308	 151.26766374	 
92.0	 78.3259834115	 152.067082302	 
92.0	 76.83234672	 152.838890704	 
92.0	 75.1983853137	 153.602666486	 
92.0	 73.4410611631	 154.353285273	 
92.0	 71.5893386405	 155.074220411	 
92.0	 69.6722466096	 155.748883976	 
92.0	 67.7188139337	 156.360688048	 
92.0	 65.7580694765	 156.893044703	 
92.0	 63.8190421013	 157.329366021	 
92.0	 61.9307606717	 157.653064079	 
92.0	 60.1184341617	 157.85195852	 
92.0	 58.3893739998	 157.93452	 
92.0	 56.7456543314	 157.915262196	 
92.0	 55.1893486467	 157.80869954	 
92.0	 53.722530436	 157.629346462	 
92.0	 52.3472731895	 157.391717395	 
92.0	 51.0656503975	 157.110326771	 
92.0	 49.8797299072	 156.799684588	 
92.0	 48.7850696912	 156.469185942	 
92.0	 47.7581798671	 156.113259757	 
92.0	 46.7721050617	 155.723612073	 
92.0	 45.7998899016	 155.291948929	 
92.0	 44.8145790136	 154.809976363	 
92.0	 43.7892170244	 154.269400415	 
92.0	 42.6968485608	 153.661927124	 
92.0	 41.5106945925	 152.979312912	 
92.0	 40.2227728319	 152.2186847	 
92.0	 38.8603145534	 151.387230426	 
92.0	 37.4544221107	 150.493244051	 
92.0	 36.0361978575	 149.545019537	 
92.0	 34.6367441477	 148.550850844	 
92.0	 33.2871633349	 147.519031934	 
92.0	 32.018557773	 146.457856767	 
92.0	 30.8615138867	 145.375361339	 
92.0	 29.8288477745	 144.270696485	 
92.0	 28.9115331988	 143.132091869	 
92.0	 28.0992027084	 141.947106551	 
92.0	 27.3814888521	 140.703299587	 
92.0	 26.7480241785	 139.388230038	 
92.0	 26.1884412365	 137.989456962	 
92.0	 25.6923725749	 136.494539416	 
92.0	 25.2499872277	 134.892511795	 
92.0	 24.8601911638	 133.196435062	 
92.0	 24.5289984821	 131.438917539	 
92.0	 24.2626296536	 129.653135069	 
92.0	 24.0673051489	 127.872263498	 
92.0	 23.9492454388	 126.129478669	 
92.0	 23.914670994	 124.457956426	 
92.0	 23.9698022853	 122.890872612	 
92.0	 24.1201685193	 121.457393741	 
92.0	 24.3650107665	 120.150215133	 
92.0	 24.7002135361	 118.942564058	 
92.0	 25.1216298478	 117.807485142	 
92.0	 25.6251127209	 116.718023011	 
92.0	 26.206515175	 115.647222292	 
92.0	 26.8616902296	 114.568127612	 
92.0	 27.5864909042	 113.453783598	 
92.0	 28.375532543	 112.283670788	 
92.0	 29.2166276848	 111.072644308	 
92.0	 30.0952639133	 109.847649052	 
92.0	 30.9969267966	 108.635640392	 
92.0	 31.9071019031	 107.463573703	 
92.0	 32.811274801	 106.358404357	 
92.0	 33.6949310585	 105.347087727	 
92.0	 34.5435566973	 104.456578079	 
92.0	 35.3462635508	 103.704966582	 
92.0	 36.1045540605	 103.080056252	 
92.0	 36.822575207	 102.563185678	 
92.0	 37.5044739706	 102.135693446	 
92.0	 38.154397332	 101.778918145	 
92.0	 38.7764922716	 101.474198363	 
92.0	 39.3749057699	 101.202872686	 
92.0	 39.953788032	 100.946308725	 
92.0	 40.517889383	 100.691275168	 
92.0	 41.0732602488	 100.436241611	 
92.0	 41.6261211	 100.181208054	 
92.0	 42.1826924075	 99.9261744966	 
92.0	 42.749194642	 99.6711409396	 
92.0	 43.3318482742	 99.4161073826	 
92.0	 43.9368737749	 99.1610738255	 
92.0	 44.57043977	 98.9060402685	 
92.0	 45.2362656337	 98.6510067114	 
92.0	 45.934612555	 98.3959731544	 
92.0	 46.6654805339	 98.1409395973	 
92.0	 47.4288695704	 97.8859060403	 
92.0	 48.2247796646	 97.6308724832	 
92.0	 49.0532108163	 97.3758389262	 
92.0	 49.9141630257	 97.1208053691	 
92.0	 50.8071828395	 96.8657214284	 
92.0	 51.7225713476	 96.6095094473	 
92.0	 52.6419977051	 96.3501326653	 
92.0	 53.5468004998	 96.0855175921	 
92.0	 54.4183183195	 95.8135907375	 
92.0	 55.2378897518	 95.5322786113	 
92.0	 55.9868533846	 95.2395077232	 
92.0	 56.6465478055	 94.9332045829	 
92.0	 57.2014110052	 94.6126240157	 
92.0	 57.6697105971	 94.2915192566	 
92.0	 58.0905381754	 93.9925681039	 
92.0	 58.5032900548	 93.7385789503	 
92.0	 58.94736255	 93.5523601885	 
92.0	 59.4621519759	 93.4567202114	 
92.0	 60.0870546473	 93.4744674117	 
92.0	 60.8614668787	 93.6284101821	 
92.0	 61.8179747229	 93.9374358553	 
92.0	 62.9451186621	 94.3950721933	 
92.0	 64.2139147248	 94.9847571209	 
92.0	 65.5953340474	 95.6899027162	 
92.0	 67.0603477663	 96.493921057	 
92.0	 68.5799270182	 97.3802242215	 
92.0	 70.1250429395	 98.3322242876	 
92.0	 71.6666666667	 99.3333333333	 
97.0	 55.0	 97.3333333333	 
97.0	 56.1786699251	 98.0476558637	 
97.0	 57.3026533964	 98.7791869423	 
97.0	 58.3780720319	 99.5248657602	 
97.0	 59.4110474496	 100.281631508	 
97.0	 60.4077012675	 101.046423378	 
97.0	 61.3741551034	 101.81618056	 
97.0	 62.3165305753	 102.587842245	 
97.0	 63.2409493012	 103.358347625	 
97.0	 64.1535328991	 104.12463589	 
97.0	 65.0604023823	 104.883646785	 
97.0	 65.9652047235	 105.634587927	 
97.0	 66.863477339	 106.384100692	 
97.0	 67.7490986106	 107.140347236	 
97.0	 68.6159469206	 107.911489718	 
97.0	 69.4579006508	 108.705690293	 
97.0	 70.2688381834	 109.531111121	 
97.0	 71.0426379004	 110.395914357	 
97.0	 71.7731781838	 111.308262159	 
97.0	 72.4543374157	 112.276316684	 
97.0	 73.0799955904	 113.308230014	 
97.0	 73.6450163933	 114.406006159	 
97.0	 74.1469165133	 115.555067858	 
97.0	 74.5836554111	 116.738070528	 
97.0	 74.9531925472	 117.937669585	 
97.0	 75.2534873825	 119.136520444	 
97.0	 75.4824993775	 120.317278521	 
97.0	 75.638187993	 121.462599232	 
97.0	 75.7185126897	 122.555137992	 
97.0	 75.7214329282	 123.577550218	 
97.0	 75.6449068088	 124.512534857	 
97.0	 75.4866040357	 125.352019534	 
97.0	 75.2435508629	 126.10852228	 
97.0	 74.9126864814	 126.797347138	 
97.0	 74.4909500822	 127.433798153	 
97.0	 73.9752808563	 128.033179371	 
97.0	 73.3626179948	 128.610794836	 
97.0	 72.6499006887	 129.181948593	 
97.0	 71.834068129	 129.761944687	 
97.0	 70.9120595068	 130.366087164	 
97.0	 69.8808785041	 131.009599453	 
97.0	 68.7441824728	 131.699387899	 
97.0	 67.5179747834	 132.426926322	 
97.0	 66.21960002	 133.182012026	 
97.0	 64.866402767	 133.954442315	 
97.0	 63.4757276085	 134.734014491	 
97.0	 62.0649191286	 135.510525858	 
97.0	 60.6513219118	 136.273773719	 
97.0	 59.252280542	 137.013555378	 
97.0	 57.8851396036	 137.719668139	 
97.0	 56.5669728685	 138.381972284	 
97.0	 55.2986053695	 138.994106872	 
97.0	 54.055676594	 139.555568068	 
97.0	 52.8116595308	 140.06635587	 
97.0	 51.5400271689	 140.526470279	 
97.0	 50.214252497	 140.935911295	 
97.0	 48.8078085041	 141.294678918	 
97.0	 47.2941681789	 141.602773148	 
97.0	 45.6468045104	 141.860193985	 
97.0	 43.8391904873	 142.066941429	 
97.0	 41.8455608999	 142.222993714	 
97.0	 39.6697655657	 142.327482931	 
97.0	 37.3541252702	 142.378441999	 
97.0	 34.9435318783	 142.37383038	 
97.0	 32.4828772552	 142.311607535	 
97.0	 30.0170532657	 142.189732923	 
97.0	 27.5909517751	 142.006166006	 
97.0	 25.2494646481	 141.758866244	 
97.0	 23.03748375	 141.445793098	 
97.0	 20.9999009457	 141.064906029	 
97.0	 19.1805366407	 140.614181778	 
97.0	 17.5942349776	 140.092064448	 
97.0	 16.2242304824	 139.497507972	 
97.0	 15.0521583011	 138.829492081	 
97.0	 14.0596535799	 138.086996504	 
97.0	 13.2283514649	 137.269000973	 
97.0	 12.5398871022	 136.374485217	 
97.0	 11.9758956381	 135.402428967	 
97.0	 11.5180122184	 134.351811954	 
97.0	 11.1478719896	 133.221613906	 
97.0	 10.8475228407	 132.011175706	 
97.0	 10.6071699816	 130.726975889	 
97.0	 10.4244963672	 129.382036019	 
97.0	 10.2974614582	 127.9896196	 
97.0	 10.2240247154	 126.562990139	 
97.0	 10.2021455994	 125.11541114	 
97.0	 10.2297835708	 123.660146111	 
97.0	 10.3048980904	 122.210458555	 
97.0	 10.4254486189	 120.779611979	 
97.0	 10.5893946168	 119.380869888	 
97.0	 10.7948057341	 118.027018302	 
97.0	 11.0414003763	 116.723698632	 
97.0	 11.3301661644	 115.471052355	 
97.0	 11.6621233681	 114.269079471	 
97.0	 12.038292257	 113.11777998	 
97.0	 12.4596931009	 112.017153882	 
97.0	 12.9273461693	 110.967201177	 
97.0	 13.4422717319	 109.967921865	 
97.0	 14.0054900584	 109.019315947	 
97.0	 14.6180214185	 108.121383421	 
97.0	 15.2804830123	 107.273973138	 
97.0	 15.9888063571	 106.475176814	 
97.0	 16.7358999489	 105.721952535	 
97.0	 17.5146219002	 105.011239492	 
97.0	 18.3178303233	 104.339976876	 
97.0	 19.1383833306	 103.705103878	 
97.0	 19.9691390345	 103.103559688	 
97.0	 20.8029555474	 102.532283499	 
97.0	 21.6326909816	 101.9882145	 
97.0	 22.4512034496	 101.468291883	 
97.0	 23.2518204886	 100.969723082	 
97.0	 24.0321907422	 100.492184734	 
97.0	 24.7922916385	 100.036684211	 
97.0	 25.5321231776	 99.6042417824	 
97.0	 26.2516853595	 99.1958777176	 
97.0	 26.9509781842	 98.8126122863	 
97.0	 27.6300016516	 98.4554657584	 
97.0	 28.2887557618	 98.1254584034	 
97.0	 28.9272405147	 97.823610491	 
97.0	 29.5454559104	 97.5509422908	 
97.0	 30.1436631379	 97.3077775685	 
97.0	 30.7240537364	 97.0892924891	 
97.0	 31.2896844339	 96.8883560478	 
97.0	 31.8436160392	 96.6978263571	 
97.0	 32.3889093615	 96.5105615292	 
97.0	 32.9286252096	 96.3194196767	 
97.0	 33.4658243925	 96.1172589118	 
97.0	 34.0035677193	 95.896937347	 
97.0	 34.5449159988	 95.6513130946	 
97.0	 35.0929300401	 95.3732442671	 
97.0	 35.651224117	 95.0580242219	 
97.0	 36.2267287575	 94.7155378353	 
97.0	 36.8276041035	 94.3610802847	 
97.0	 37.4620123124	 94.009955615	 
97.0	 38.1381155413	 93.6774678711	 
97.0	 38.8640759476	 93.3789210978	 
97.0	 39.6480556885	 93.1296193402	 
97.0	 40.4982169213	 92.9448666429	 
97.0	 41.4227218033	 92.8399670511	 
97.0	 42.4297324918	 92.8302246095	 
97.0	 43.5242313288	 92.9276252949	 
97.0	 44.6956573393	 93.1279359708	 
97.0	 45.9287076373	 93.4219754194	 
97.0	 47.2080781777	 93.8005612138	 
97.0	 48.5184649159	 94.2545109271	 
97.0	 49.8445638068	 94.7746421322	 
97.0	 51.1710708055	 95.3517724024	 
97.0	 52.4826818672	 95.9767193106	 
97.0	 53.764092947	 96.6403004299	 
97.0	 55.0	 97.3333333333	 
104.0	 100.666666667	 99.8333333333	 
104.0	 102.041578432	 100.772433362	 
104.0	 103.350839851	 101.796203378	 
104.0	 104.599428024	 102.892200625	 
104.0	 105.792320055	 104.04798235	 
104.0	 106.934493045	 105.251105796	 
104.0	 108.030924096	 106.489128208	 
104.0	 109.086590311	 107.749606831	 
104.0	 110.106468792	 109.020098909	 
104.0	 111.09553664	 110.288161688	 
104.0	 112.058770958	 111.541352411	 
104.0	 113.001054379	 112.767423561	 
104.0	 113.922463688	 113.964059704	 
104.0	 114.816084176	 115.143394492	 
104.0	 115.674450191	 116.318700198	 
104.0	 116.490096079	 117.503249093	 
104.0	 117.255556187	 118.71031345	 
104.0	 117.963364862	 119.953165542	 
104.0	 118.606056452	 121.24507764	 
104.0	 119.176165302	 122.599322017	 
104.0	 119.666225759	 124.029170946	 
104.0	 120.068772171	 125.547896698	 
104.0	 120.377145022	 127.166353129	 
104.0	 120.59260431	 128.871635566	 
104.0	 120.720905058	 130.637354244	 
104.0	 120.767853888	 132.436964617	 
104.0	 120.739257417	 134.24392214	 
104.0	 120.640922265	 136.03168227	 
104.0	 120.478655052	 137.773700461	 
104.0	 120.258262396	 139.443432169	 
104.0	 119.985550916	 141.014332849	 
104.0	 119.666327232	 142.459857956	 
104.0	 119.306397358	 143.753465818	 
104.0	 118.909529188	 144.878295836	 
104.0	 118.472903452	 145.848776437	 
104.0	 117.992372565	 146.685645547	 
104.0	 117.463788942	 147.40964109	 
104.0	 116.883004998	 148.041500993	 
104.0	 116.245873148	 148.60196318	 
104.0	 115.548245806	 149.111765578	 
104.0	 114.785975388	 149.591646113	 
104.0	 113.954914309	 150.062342708	 
104.0	 113.050914983	 150.544593291	 
104.0	 112.069851591	 151.058722237	 
104.0	 111.008317389	 151.61139148	 
104.0	 109.863772235	 152.192797561	 
104.0	 108.633727576	 152.792156761	 
104.0	 107.315694861	 153.398685359	 
104.0	 105.90718554	 154.001599632	 
104.0	 104.405711061	 154.590115859	 
104.0	 102.808782874	 155.15345032	 
104.0	 101.113912427	 155.680819293	 
104.0	 99.3186111696	 156.161439057	 
104.0	 97.4203905502	 156.58452589	 
104.0	 95.4183714743	 156.9401008	 
104.0	 93.3241309041	 157.224412821	 
104.0	 91.1550560483	 157.436616113	 
104.0	 88.9285667645	 157.575881158	 
104.0	 86.66208291	 157.641378439	 
104.0	 84.3730243423	 157.63227844	 
104.0	 82.0788109188	 157.547751643	 
104.0	 79.796862497	 157.386968531	 
104.0	 77.5445989343	 157.149099588	 
104.0	 75.3394400881	 156.833315296	 
104.0	 73.1987993668	 156.43878775	 
104.0	 71.1368140299	 155.965508084	 
104.0	 69.1590246706	 155.415616595	 
104.0	 67.269578874	 154.791601835	 
104.0	 65.4726242253	 154.095952356	 
104.0	 63.7723083095	 153.331156708	 
104.0	 62.1727787117	 152.499703442	 
104.0	 60.6781830171	 151.604081109	 
104.0	 59.2926688108	 150.64677826	 
104.0	 58.0203836778	 149.630283448	 
104.0	 56.8654752033	 148.557085221	 
104.0	 55.8318317483	 147.429723977	 
104.0	 54.9173795203	 146.251932542	 
104.0	 54.114082573	 145.028636173	 
104.0	 53.4136457364	 143.764811973	 
104.0	 52.8077738401	 142.465437043	 
104.0	 52.2881717141	 141.135488485	 
104.0	 51.846544188	 139.779943403	 
104.0	 51.4745960916	 138.403778897	 
104.0	 51.1640322548	 137.011972071	 
104.0	 50.9065575074	 135.609500026	 
104.0	 50.6938766791	 134.201339863	 
104.0	 50.5186522928	 132.792120435	 
104.0	 50.3794570795	 131.384321423	 
104.0	 50.2771161224	 129.979603474	 
104.0	 50.2124589386	 128.579625623	 
104.0	 50.186315045	 127.186046903	 
104.0	 50.1995139586	 125.800526348	 
104.0	 50.2528851966	 124.424722993	 
104.0	 50.3472582759	 123.060295871	 
104.0	 50.4834627136	 121.708904017	 
104.0	 50.6623280266	 120.372206464	 
104.0	 50.8846823717	 119.051859526	 
104.0	 51.1511118118	 117.749035329	 
104.0	 51.4616834077	 116.463867994	 
104.0	 51.8163971593	 115.196357521	 
104.0	 52.2152530667	 113.946503911	 
104.0	 52.6582511298	 112.714307163	 
104.0	 53.1453913487	 111.499767278	 
104.0	 53.6766737234	 110.302884254	 
104.0	 54.2520982538	 109.123658093	 
104.0	 54.87166494	 107.962088795	 
104.0	 55.535373782	 106.818176358	 
104.0	 56.243070001	 105.692101359	 
104.0	 56.9919990201	 104.587077471	 
104.0	 57.7772490346	 103.508835132	 
104.0	 58.5938429422	 102.463180962	 
104.0	 59.4368036408	 101.45592158	 
104.0	 60.3011540283	 100.492863604	 
104.0	 61.1819170025	 99.5798136549	 
104.0	 62.0741154615	 98.7225783509	 
104.0	 62.9727723029	 97.9269643113	 
104.0	 63.8729104248	 97.1987781553	 
104.0	 64.7695527249	 96.543826502	 
104.0	 65.6584969518	 95.966476962	 
104.0	 66.5393833661	 95.4639610526	 
104.0	 67.4130411321	 95.0313023266	 
104.0	 68.2802997668	 94.6635236819	 
104.0	 69.1419887872	 94.3556480163	 
104.0	 69.9989377103	 94.1026982278	 
104.0	 70.8519760532	 93.8996972142	 
104.0	 71.7019333329	 93.7416678734	 
104.0	 72.5496390664	 93.6236331032	 
104.0	 73.3959227707	 93.5406158015	 
104.0	 74.2416429838	 93.4876582136	 
104.0	 75.0901866988	 93.4614882213	 
104.0	 75.9493956326	 93.4618035224	 
104.0	 76.8275649554	 93.4886041169	 
104.0	 77.7329898375	 93.541890005	 
104.0	 78.6739654491	 93.6216611864	 
104.0	 79.6587869603	 93.7279176614	 
104.0	 80.6957495415	 93.8606594298	 
104.0	 81.7931483627	 94.0198864916	 
104.0	 82.9592785943	 94.2055988469	 
104.0	 84.2024354063	 94.4177964957	 
104.0	 85.5298855373	 94.6567732755	 
104.0	 86.93584494	 94.9265518201	 
104.0	 88.4055586508	 95.2337178818	 
104.0	 89.9240953634	 95.5849075968	 
104.0	 91.4765237715	 95.9867571014	 
104.0	 93.0479125686	 96.4459025315	 
104.0	 94.6233304484	 96.9689800236	 
104.0	 96.1878461044	 97.5626257136	 
104.0	 97.7265282304	 98.2334757378	 
104.0	 99.22444552	 98.9881662323	 
104.0	 100.666666667	 99.8333333333	 
106.0	 126.166666667	 111.5	 
106.0	 127.902056481	 112.720722871	 
106.0	 129.455577711	 113.866386543	 
106.0	 130.885170791	 114.927334279	 
106.0	 132.248776155	 115.893909338	 
106.0	 133.604334237	 116.756454982	 
106.0	 135.009785469	 117.505314471	 
106.0	 136.522912838	 118.130887749	 
106.0	 138.177336571	 118.632273351	 
106.0	 139.956712654	 119.026556939	 
106.0	 141.838508695	 119.333051991	 
106.0	 143.800192304	 119.571071984	 
106.0	 145.819231091	 119.759930398	 
106.0	 147.873092663	 119.918940709	 
106.0	 149.939546932	 120.067013327	 
106.0	 152.005060437	 120.211463155	 
106.0	 154.065891886	 120.346548874	 
106.0	 156.118822368	 120.465832655	 
106.0	 158.160632968	 120.562876675	 
106.0	 160.188104774	 120.631243106	 
106.0	 162.198018873	 120.664494122	 
106.0	 164.187156352	 120.656872078	 
106.0	 166.152298297	 120.610106947	 
106.0	 168.090225797	 120.53056743	 
106.0	 169.997719937	 120.424691352	 
106.0	 171.871561805	 120.298916539	 
106.0	 173.708532487	 120.159680817	 
106.0	 175.505413072	 120.013422013	 
106.0	 177.263015341	 119.869802507	 
106.0	 179.003356561	 119.755449071	 
106.0	 180.75540292	 119.702547611	 
106.0	 182.548124634	 119.743287255	 
106.0	 184.410491919	 119.909857135	 
106.0	 186.371474994	 120.23444638	 
106.0	 188.460000542	 120.749215551	 
106.0	 190.679977533	 121.469907335	 
106.0	 192.968429582	 122.368370905	 
106.0	 195.25132169	 123.409198217	 
106.0	 197.454618859	 124.556981229	 
106.0	 199.50428609	 125.776311898	 
106.0	 201.326288384	 127.031782181	 
106.0	 202.847106671	 128.288499964	 
106.0	 204.018365358	 129.536716608	 
106.0	 204.827642647	 130.802637274	 
106.0	 205.2652818	 132.115232178	 
106.0	 205.321626079	 133.503471537	 
106.0	 204.987018744	 134.996325568	 
106.0	 204.251803056	 136.622764488	 
106.0	 203.109643065	 138.408659112	 
106.0	 201.605725683	 140.331792248	 
106.0	 199.825859669	 142.332032981	 
106.0	 197.856955675	 144.348221965	 
106.0	 195.78592435	 146.319199853	 
106.0	 193.699676345	 148.183807298	 
106.0	 191.685122312	 149.880884953	 
106.0	 189.816831719	 151.355737901	 
106.0	 188.083307411	 152.598753739	 
106.0	 186.436401125	 153.619518267	 
106.0	 184.827829167	 154.427688224	 
106.0	 183.209307842	 155.032920348	 
106.0	 181.532553454	 155.444871379	 
106.0	 179.749283569	 155.673198206	 
106.0	 177.826536171	 155.729396171	 
106.0	 175.784835306	 155.63137894	 
106.0	 173.656370105	 155.398459992	 
106.0	 171.473329698	 155.049952806	 
106.0	 169.267903213	 154.605170858	 
106.0	 167.072279782	 154.083427626	 
106.0	 164.918365579	 153.504091004	 
106.0	 162.810442009	 152.891841339	 
106.0	 160.702372124	 152.281054817	 
106.0	 158.542653318	 151.707139479	 
106.0	 156.279782981	 151.20550337	 
106.0	 153.862258507	 150.811554531	 
106.0	 151.238577288	 150.560701006	 
106.0	 148.359986203	 150.487009624	 
106.0	 145.240970362	 150.593699298	 
106.0	 141.9592531	 150.853141025	 
106.0	 138.595307243	 151.236364587	 
106.0	 135.229605616	 151.714399769	 
106.0	 131.942621042	 152.258276352	 
106.0	 128.814826347	 152.83902412	 
106.0	 125.917201263	 153.427879229	 
106.0	 123.231523823	 153.998016999	 
106.0	 120.690697468	 154.523675244	 
106.0	 118.227125025	 154.97910266	 
106.0	 115.773209321	 155.338547944	 
106.0	 113.261353183	 155.576259791	 
106.0	 110.623959438	 155.666486898	 
106.0	 107.812561651	 155.587210786	 
106.0	 104.866410526	 155.33352852	 
106.0	 101.849882258	 154.905439695	 
106.0	 98.8273551073	 154.302944312	 
106.0	 95.8632073328	 153.52604237	 
106.0	 93.0218171945	 152.574733871	 
106.0	 90.3674920119	 151.449034936	 
106.0	 87.9453409046	 150.153324915	 
106.0	 85.7553904751	 148.702229186	 
106.0	 83.7912028974	 147.111842313	 
106.0	 82.0463403456	 145.398258861	 
106.0	 80.5143649937	 143.577573395	 
106.0	 79.1888390158	 141.66588048	 
106.0	 78.063287856	 139.679237951	 
106.0	 77.1298828972	 137.632349582	 
106.0	 76.3790780934	 135.538201718	 
106.0	 75.8012167056	 133.40967001	 
106.0	 75.3866419948	 131.259630111	 
106.0	 75.1256972221	 129.100957673	 
106.0	 75.0087256484	 126.946528347	 
106.0	 75.0255175236	 124.809079533	 
106.0	 75.1586723375	 122.69955094	 
106.0	 75.3857608849	 120.627625103	 
106.0	 75.6842507749	 118.602958762	 
106.0	 76.0316096167	 116.635208654	 
106.0	 76.4053050193	 114.73403152	 
106.0	 76.7828045918	 112.909084098	 
106.0	 77.1471052506	 111.170714291	 
106.0	 77.5146465882	 109.533450334	 
106.0	 77.9143770556	 108.013384074	 
106.0	 78.3752668698	 106.626610074	 
106.0	 78.9262862477	 105.389222899	 
106.0	 79.5964054061	 104.317317115	 
106.0	 80.4145897251	 103.426982853	 
106.0	 81.4014658831	 102.726666433	 
106.0	 82.5522139751	 102.201488143	 
106.0	 83.857177262	 101.832134504	 
106.0	 85.3066990049	 101.599292039	 
106.0	 86.8911224649	 101.483647269	 
106.0	 88.600790903	 101.465886717	 
106.0	 90.4258574825	 101.526696905	 
106.0	 92.3437188723	 101.646764355	 
106.0	 94.311180785	 101.806775588	 
106.0	 96.2831784388	 101.987417128	 
106.0	 98.2146470517	 102.169375495	 
106.0	 100.060521842	 102.333337213	 
106.0	 101.775738028	 102.459988803	 
106.0	 103.318278033	 102.531758047	 
106.0	 104.703245274	 102.563713296	 
106.0	 105.996473495	 102.599911657	 
106.0	 107.265559868	 102.685417913	 
106.0	 108.578101567	 102.865296845	 
106.0	 110.001695764	 103.184613235	 
106.0	 111.603939631	 103.688431865	 
106.0	 113.4415388	 104.414886535	 
106.0	 115.483261834	 105.346151094	 
106.0	 117.655350843	 106.437337103	 
106.0	 119.88377083	 107.64337978	 
106.0	 122.094486795	 108.919214343	 
106.0	 124.21346374	 110.21977601	 
106.0	 126.166666667	 111.5	 
108.0	 127.833333333	 104.833333333	 
108.0	 129.904055504	 105.211931472	 
108.0	 131.951923634	 105.668523557	 
108.0	 133.97210089	 106.191017506	 
108.0	 135.959750438	 106.767321231	 
108.0	 137.910035443	 107.38534265	 
108.0	 139.818119072	 108.032989676	 
108.0	 141.679164491	 108.698170226	 
108.0	 143.488938413	 109.368993395	 
108.0	 145.254302187	 110.037266496	 
108.0	 146.991854167	 110.698042503	 
108.0	 148.71852327	 111.346484584	 
108.0	 150.451238416	 111.977755905	 
108.0	 152.206928523	 112.587019631	 
108.0	 154.00252251	 113.169438928	 
108.0	 155.85494204	 113.720176561	 
108.0	 157.77148106	 114.233860417	 
108.0	 159.73082606	 114.703529085	 
108.0	 161.706374453	 115.121927313	 
108.0	 163.671523654	 115.48179985	 
108.0	 165.599671075	 115.775891446	 
108.0	 167.46421413	 115.996946849	 
108.0	 169.238550232	 116.137710809	 
108.0	 170.898622732	 116.191924311	 
108.0	 172.451835916	 116.165639142	 
108.0	 173.926813311	 116.073210268	 
108.0	 175.352575921	 115.929148192	 
108.0	 176.75814475	 115.747963416	 
108.0	 178.1725408	 115.544166441	 
108.0	 179.624785076	 115.332267769	 
108.0	 181.143843763	 115.126758554	 
108.0	 182.747061749	 114.938028317	 
108.0	 184.425855266	 114.767315286	 
108.0	 186.168132227	 114.614619462	 
108.0	 187.96180055	 114.479940844	 
108.0	 189.794768148	 114.363279432	 
108.0	 191.654942937	 114.264635227	 
108.0	 193.530232832	 114.184008228	 
108.0	 195.409395973	 114.121738525	 
108.0	 197.288590604	 114.081126251	 
108.0	 199.167785235	 114.066995642	 
108.0	 201.046979866	 114.084183533	 
108.0	 202.926174497	 114.137526758	 
108.0	 204.805369128	 114.23186215	 
108.0	 206.684563758	 114.372026544	 
108.0	 208.563660443	 114.562987368	 
108.0	 210.434983127	 114.819816196	 
108.0	 212.278010332	 115.174711833	 
108.0	 214.070976306	 115.661532116	 
108.0	 215.792115296	 116.314134881	 
108.0	 217.419661549	 117.166377968	 
108.0	 218.931849312	 118.252119213	 
108.0	 220.306912833	 119.605216455	 
108.0	 221.5240765	 121.249873663	 
108.0	 222.568812478	 123.149378966	 
108.0	 223.429023241	 125.243324993	 
108.0	 224.092616704	 127.47125132	 
108.0	 224.547500783	 129.772697523	 
108.0	 224.781583392	 132.087203178	 
108.0	 224.782772447	 134.354307861	 
108.0	 224.539053252	 136.514273447	 
108.0	 224.041419623	 138.535441246	 
108.0	 223.284773536	 140.422628745	 
108.0	 222.264278157	 142.183091194	 
108.0	 220.975096654	 143.824083846	 
108.0	 219.41239219	 145.35286195	 
108.0	 217.571327934	 146.776680757	 
108.0	 215.44706705	 148.102795519	 
108.0	 213.043066666	 149.337424741	 
108.0	 210.401337102	 150.481967779	 
108.0	 207.575082324	 151.536424786	 
108.0	 204.617507505	 152.50079576	 
108.0	 201.581817817	 153.375080702	 
108.0	 198.521218435	 154.159279612	 
108.0	 195.488914531	 154.85339249	 
108.0	 192.536650152	 155.457419335	 
108.0	 189.682563425	 155.971360149	 
108.0	 186.911186559	 156.39521493	 
108.0	 184.205590634	 156.728983679	 
108.0	 181.548846733	 156.972666396	 
108.0	 178.924025935	 157.126263081	 
108.0	 176.314199322	 157.189773734	 
108.0	 173.702437825	 157.16319906	 
108.0	 171.070413167	 157.053069389	 
108.0	 168.394977925	 156.888404416	 
108.0	 165.651947929	 156.703061978	 
108.0	 162.817139009	 156.530899912	 
108.0	 159.866366995	 156.405776056	 
108.0	 156.775447717	 156.361548248	 
108.0	 153.520197006	 156.432074326	 
108.0	 150.079216709	 156.648774361	 
108.0	 146.472795731	 157.006592252	 
108.0	 142.75331376	 157.47239246	 
108.0	 138.973975969	 158.012317149	 
108.0	 135.187987531	 158.59250848	 
108.0	 131.44855362	 159.179108616	 
108.0	 127.808879409	 159.738259719	 
108.0	 124.322129261	 160.23609443	 
108.0	 121.023240231	 160.63449235	 
108.0	 117.900291036	 160.884399467	 
108.0	 114.93393434	 160.935029027	 
108.0	 112.104822807	 160.735594271	 
108.0	 109.393609101	 160.235308444	 
108.0	 106.780945887	 159.38338479	 
108.0	 104.247485829	 158.129036552	 
108.0	 101.777061406	 156.429219132	 
108.0	 99.3863322863	 154.320815002	 
108.0	 97.1113244188	 151.887859315	 
108.0	 94.988314058	 149.214996664	 
108.0	 93.0535774584	 146.386871644	 
108.0	 91.3433908745	 143.488128848	 
108.0	 89.8940305609	 140.60341287	 
108.0	 88.7415901313	 137.817110088	 
108.0	 87.9000636548	 135.182362697	 
108.0	 87.340524597	 132.691632035	 
108.0	 87.0291151204	 130.330407603	 
108.0	 86.9319773874	 128.084178898	 
108.0	 87.0152535604	 125.938435417	 
108.0	 87.2450858019	 123.87866666	 
108.0	 87.5876162742	 121.890362125	 
108.0	 88.0106381124	 119.962106883	 
108.0	 88.4941461713	 118.10536423	 
108.0	 89.0236041527	 116.341851552	 
108.0	 89.5845015547	 114.693334601	 
108.0	 90.1623278755	 113.18157913	 
108.0	 90.7425726132	 111.828350891	 
108.0	 91.3107252661	 110.655415637	 
108.0	 91.8526555276	 109.684141644	 
108.0	 92.3745297565	 108.914677947	 
108.0	 92.912607379	 108.315712647	 
108.0	 93.5055830667	 107.853387905	 
108.0	 94.1921514913	 107.493845885	 
108.0	 95.0110073241	 107.203228748	 
108.0	 96.0008452367	 106.947678657	 
108.0	 97.2003599008	 106.693337775	 
108.0	 98.6391370201	 106.41193118	 
108.0	 100.297493905	 106.105380706	 
108.0	 102.139166797	 105.78577078	 
108.0	 104.12787944	 105.465193488	 
108.0	 106.227355581	 105.155740914	 
108.0	 108.401318964	 104.869505143	 
108.0	 110.613493336	 104.618578259	 
108.0	 112.828153386	 104.414942159	 
108.0	 115.025802141	 104.267333072	 
108.0	 117.205433689	 104.180789013	 
108.0	 119.367048031	 104.160146816	 
108.0	 121.510645166	 104.210243316	 
108.0	 123.636225095	 104.335915346	 
108.0	 125.743787817	 104.541999741	 
108.0	 127.833333333	 104.833333333	 
113.0	 165.833333333	 106.333333333	 
113.0	 167.447816205	 107.177667693	 
113.0	 168.880046266	 107.914457468	 
113.0	 170.177625219	 108.567503509	 
113.0	 171.388154765	 109.160606668	 
113.0	 172.559236605	 109.717567794	 
113.0	 173.73736551	 110.261523581	 
113.0	 174.941218411	 110.798920016	 
113.0	 176.160277411	 111.318686191	 
113.0	 177.382642084	 111.808921681	 
113.0	 178.596412006	 112.257726061	 
113.0	 179.789686752	 112.653198906	 
113.0	 180.960306875	 112.985210876	 
113.0	 182.149659704	 113.25155023	 
113.0	 183.411296597	 113.452216867	 
113.0	 184.798769469	 113.587210786	 
113.0	 186.365630234	 113.656531988	 
113.0	 188.163689545	 113.660180472	 
113.0	 190.191948898	 113.598156239	 
113.0	 192.388356854	 113.470459289	 
113.0	 194.687461072	 113.277089621	 
113.0	 197.023809214	 113.018047235	 
113.0	 199.331948941	 112.693332132	 
113.0	 201.556662099	 112.306880537	 
113.0	 203.693890333	 111.882305521	 
113.0	 205.755528829	 111.449356132	 
113.0	 207.753478011	 111.037783432	 
113.0	 209.699638306	 110.677338486	 
113.0	 211.605910137	 110.397504113	 
113.0	 213.484193932	 110.217777491	 
113.0	 215.346390115	 110.144934318	 
113.0	 217.204399111	 110.184924808	 
113.0	 219.070121345	 110.343699172	 
113.0	 220.955457244	 110.627207624	 
113.0	 222.868128207	 111.033042327	 
113.0	 224.792471055	 111.512026284	 
113.0	 226.704693099	 111.998723479	 
113.0	 228.58099349	 112.427681573	 
113.0	 230.397571375	 112.733448228	 
113.0	 232.130928208	 112.851629162	 
113.0	 233.771668739	 112.767191645	 
113.0	 235.330208184	 112.534439568	 
113.0	 236.818446969	 112.212875057	 
113.0	 238.248285519	 111.86200024	 
113.0	 239.631624258	 111.541317243	 
113.0	 240.976685503	 111.316458375	 
113.0	 242.268616243	 111.291514823	 
113.0	 243.483634975	 111.585458593	 
113.0	 244.597940849	 112.317293939	 
113.0	 245.587733013	 113.606025113	 
113.0	 246.429504455	 115.568452587	 
113.0	 247.117378422	 118.189149883	 
113.0	 247.672805062	 121.247738755	 
113.0	 248.119585227	 124.506210696	 
113.0	 248.481519767	 127.726557201	 
113.0	 248.782409533	 130.670769763	 
113.0	 249.037471608	 133.136247919	 
113.0	 249.201416699	 135.169979999	 
113.0	 249.202943022	 136.926255866	 
113.0	 248.970648026	 138.559781051	 
113.0	 248.433129158	 140.225261081	 
113.0	 247.519370815	 142.076395424	 
113.0	 246.189212611	 144.186659972	 
113.0	 244.45532146	 146.492179646	 
113.0	 242.335547999	 148.915601681	 
113.0	 239.847742866	 151.379573315	 
113.0	 237.0097567	 153.806741781	 
113.0	 233.842706362	 156.121154125	 
113.0	 230.393648048	 158.257974251	 
113.0	 226.722007705	 160.157667384	 
113.0	 222.88728746	 161.760731398	 
113.0	 218.948989439	 163.007664165	 
113.0	 214.966598487	 163.839257346	 
113.0	 210.997688296	 164.228792221	 
113.0	 207.096213847	 164.211068097	 
113.0	 203.315727056	 163.827736461	 
113.0	 199.709779836	 163.120448804	 
113.0	 196.331924102	 162.130856612	 
113.0	 193.225635028	 160.90504514	 
113.0	 190.343920105	 159.528905423	 
113.0	 187.592007968	 158.109351192	 
113.0	 184.874695216	 156.753486274	 
113.0	 182.096778447	 155.568414497	 
113.0	 179.163435158	 154.660945851	 
113.0	 176.041691594	 154.090178436	 
113.0	 172.82827068	 153.815158627	 
113.0	 169.636226455	 153.782334512	 
113.0	 166.578612961	 153.938154175	 
113.0	 163.768484238	 154.229065704	 
113.0	 161.302306404	 154.601862766	 
113.0	 159.107498231	 155.006860847	 
113.0	 157.012741782	 155.396432452	 
113.0	 154.845480891	 155.722975878	 
113.0	 152.433159389	 155.938889425	 
113.0	 149.603617881	 155.99660288	 
113.0	 146.287121164	 155.856674937	 
113.0	 142.65217788	 155.498572529	 
113.0	 138.901095261	 154.90444502	 
113.0	 135.236180536	 154.056441771	 
113.0	 131.859740935	 152.936712144	 
113.0	 128.96144867	 151.530343878	 
113.0	 126.58409385	 149.856583339	 
113.0	 124.675703938	 147.95671472	 
113.0	 123.182727021	 145.872389508	 
113.0	 122.051611185	 143.645259192	 
113.0	 121.228810964	 141.316978486	 
113.0	 120.663757059	 138.930690185	 
113.0	 120.313571944	 136.533382971	 
113.0	 120.136604131	 134.172658547	 
113.0	 120.091202132	 131.896118612	 
113.0	 120.135714456	 129.751364869	 
113.0	 120.231212503	 127.782038457	 
113.0	 120.375086849	 125.978952618	 
113.0	 120.590584125	 124.295311788	 
113.0	 120.901505182	 122.683514266	 
113.0	 121.331650871	 121.095958352	 
113.0	 121.904811158	 119.485062748	 
113.0	 122.633936668	 117.823569932	 
113.0	 123.500798581	 116.14268383	 
113.0	 124.481596048	 114.484055931	 
113.0	 125.552528218	 112.889337724	 
113.0	 126.68979424	 111.400180696	 
113.0	 127.870625121	 110.056378993	 
113.0	 129.088153717	 108.869103433	 
113.0	 130.347994936	 107.827057138	 
113.0	 131.656098991	 106.918339682	 
113.0	 133.018416094	 106.13105064	 
113.0	 134.440894847	 105.453289586	 
113.0	 135.924575067	 104.873156096	 
113.0	 137.454755096	 104.378749743	 
113.0	 139.013584299	 103.958170103	 
113.0	 140.583212035	 103.59951675	 
113.0	 142.145787667	 103.290889259	 
113.0	 143.683290512	 103.020387205	 
113.0	 145.174647241	 102.776110162	 
113.0	 146.596144066	 102.546157705	 
113.0	 147.923980136	 102.318629409	 
113.0	 149.134354601	 102.081624848	 
113.0	 150.203467567	 101.823244202	 
113.0	 151.128529743	 101.544857503	 
113.0	 151.981968988	 101.295340355	 
113.0	 152.853038494	 101.134194884	 
113.0	 153.830991449	 101.120923217	 
113.0	 155.005081044	 101.315027479	 
113.0	 156.460136377	 101.772829982	 
113.0	 158.187563099	 102.483504935	 
113.0	 160.089749771	 103.372245511	 
113.0	 162.065542778	 104.361698946	 
113.0	 164.013788504	 105.374512475	 
113.0	 165.833333333	 106.333333333	 
118.0	 173.333333333	 106.333333333	 
118.0	 176.2142726	 107.432180837	 
118.0	 178.974154076	 108.545580862	 
118.0	 181.58723099	 109.64043042	 
118.0	 184.027756575	 110.683626521	 
118.0	 186.26998406	 111.642066177	 
118.0	 188.288166676	 112.482646397	 
118.0	 190.058647166	 113.173657202	 
118.0	 191.601255037	 113.712379786	 
118.0	 192.976908703	 114.123487948	 
118.0	 194.24813603	 114.432728457	 
118.0	 195.477464888	 114.665848083	 
118.0	 196.727423145	 114.848593595	 
118.0	 198.060537259	 115.006711208	 
118.0	 199.519837216	 115.158287809	 
118.0	 201.079885401	 115.2945123	 
118.0	 202.700222605	 115.400672239	 
118.0	 204.340389619	 115.462055189	 
118.0	 205.959927234	 115.463948709	 
118.0	 207.518376241	 115.391640359	 
118.0	 208.977159211	 115.231081858	 
118.0	 210.330133516	 114.9796725	 
118.0	 211.598511293	 114.644466203	 
118.0	 212.804361202	 114.232819188	 
118.0	 213.969751902	 113.752087673	 
118.0	 215.116752052	 113.209627879	 
118.0	 216.267428297	 112.612797235	 
118.0	 217.439919116	 111.971310068	 
118.0	 218.640235636	 111.302157117	 
118.0	 219.872055968	 110.623728933	 
118.0	 221.13905822	 109.954416065	 
118.0	 222.444920503	 109.312609062	 
118.0	 223.793320927	 108.716698474	 
118.0	 225.187799348	 108.184798345	 
118.0	 226.629896551	 107.731024571	 
118.0	 228.119649265	 107.366484943	 
118.0	 229.65705749	 107.102213789	 
118.0	 231.242121226	 106.949245439	 
118.0	 232.874840473	 106.918614223	 
118.0	 234.555215231	 107.021363993	 
118.0	 236.283245499	 107.274699318	 
118.0	 238.058931279	 107.712579809	 
118.0	 239.88227257	 108.371786566	 
118.0	 241.753269372	 109.289100688	 
118.0	 243.671921685	 110.501303275	 
118.0	 245.638229509	 112.045175424	 
118.0	 247.64930208	 113.952056798	 
118.0	 249.666812578	 116.186583892	 
118.0	 251.628671673	 118.668663775	 
118.0	 253.472351498	 121.317378029	 
118.0	 255.135324184	 124.051808235	 
118.0	 256.555061863	 126.791035976	 
118.0	 257.669094707	 129.454249244	 
118.0	 258.432571361	 131.99293656	 
118.0	 258.842949463	 134.436152935	 
118.0	 258.903907124	 136.82435758	 
118.0	 258.619122453	 139.198009703	 
118.0	 257.992273561	 141.597568514	 
118.0	 257.027038557	 144.06349322	 
118.0	 255.729159267	 146.630670999	 
118.0	 254.126009752	 149.27558199	 
118.0	 252.257876406	 151.939843037	 
118.0	 250.165218438	 154.564604382	 
118.0	 247.888495056	 157.091016266	 
118.0	 245.468165471	 159.460228931	 
118.0	 242.944613314	 161.613474492	 
118.0	 240.345252249	 163.506035865	 
118.0	 237.66993022	 165.12305883	 
118.0	 234.914969114	 166.453509058	 
118.0	 232.076690824	 167.486352218	 
118.0	 229.151417238	 168.210553982	 
118.0	 226.135470247	 168.615080019	 
118.0	 223.028142161	 168.693104096	 
118.0	 219.855538281	 168.475785046	 
118.0	 216.65798722	 168.014431399	 
118.0	 213.475948188	 167.360536695	 
118.0	 210.349880394	 166.565594472	 
118.0	 207.320243047	 165.681098268	 
118.0	 204.427288581	 164.758476325	 
118.0	 201.688749182	 163.842045227	 
118.0	 199.079903136	 162.962715064	 
118.0	 196.571325566	 162.149910715	 
118.0	 194.13359159	 161.433057059	 
118.0	 191.73727633	 160.841578976	 
118.0	 189.352954908	 160.404901345	 
118.0	 186.95149628	 160.146572292	 
118.0	 184.506066549	 160.044197074	 
118.0	 181.990912647	 160.053764332	 
118.0	 179.380287806	 160.131136746	 
118.0	 176.648445255	 160.232176997	 
118.0	 173.769638226	 160.312747768	 
118.0	 170.718534707	 160.328884555	 
118.0	 167.500792283	 160.249535185	 
118.0	 164.173985905	 160.065279725	 
118.0	 160.80064344	 159.768761953	 
118.0	 157.443292757	 159.35262565	 
118.0	 154.164461725	 158.809514597	 
118.0	 151.026678213	 158.132072572	 
118.0	 148.087631944	 157.314325684	 
118.0	 145.372105646	 156.359702039	 
118.0	 142.891178794	 155.275544958	 
118.0	 140.655885716	 154.06921066	 
118.0	 138.677260744	 152.748055366	 
118.0	 136.966338205	 151.319435296	 
118.0	 135.53386867	 149.790706668	 
118.0	 134.375226966	 148.169225705	 
118.0	 133.462858708	 146.462348623	 
118.0	 132.767339017	 144.677431645	 
118.0	 132.259243013	 142.82183099	 
118.0	 131.909145818	 140.902902876	 
118.0	 131.687622552	 138.928003525	 
118.0	 131.568875961	 136.906101434	 
118.0	 131.548650992	 134.855739412	 
118.0	 131.630613511	 132.798980678	 
118.0	 131.818441629	 130.757893889	 
118.0	 132.115813454	 128.754547707	 
118.0	 132.526407098	 126.81101079	 
118.0	 133.053680292	 124.948874313	 
118.0	 133.692066444	 123.170176747	 
118.0	 134.424004522	 121.450968611	 
118.0	 135.231103976	 119.765503136	 
118.0	 136.094974257	 118.088033552	 
118.0	 136.997224816	 116.39281309	 
118.0	 137.919465103	 114.654094979	 
118.0	 138.843771171	 112.856397726	 
118.0	 139.754644545	 111.037600187	 
118.0	 140.637372382	 109.252865144	 
118.0	 141.477242243	 107.557364246	 
118.0	 142.259541688	 106.006269141	 
118.0	 142.969558277	 104.654751479	 
118.0	 143.593234559	 103.556622548	 
118.0	 144.137431432	 102.722247834	 
118.0	 144.633812875	 102.110478729	 
118.0	 145.115481879	 101.677177913	 
118.0	 145.615541433	 101.378208068	 
118.0	 146.167094525	 101.169431875	 
118.0	 146.803244145	 101.006712014	 
118.0	 147.557093282	 100.856104392	 
118.0	 148.461744926	 100.730125071	 
118.0	 149.550302065	 100.654519865	 
118.0	 150.855867689	 100.655035542	 
118.0	 152.411544787	 100.757418872	 
118.0	 154.250436348	 100.987416624	 
118.0	 156.403834723	 101.369970839	 
118.0	 158.856807244	 101.909479106	 
118.0	 161.545498636	 102.588595632	 
118.0	 164.403702919	 103.388929868	 
118.0	 167.365214115	 104.292091263	 
118.0	 170.363826246	 105.279689268	 
118.0	 173.333333333	 106.333333333	 
122.0	 184.666666667	 105.666666667	 
122.0	 187.35492622	 106.988895335	 
122.0	 189.995363693	 108.371066886	 
122.0	 192.605829725	 109.741778768	 
122.0	 195.204174954	 111.029628429	 
122.0	 197.808250016	 112.163213318	 
122.0	 200.434798622	 113.073012663	 
122.0	 203.072746637	 113.736796023	 
122.0	 205.681825103	 114.181964162	 
122.0	 208.220382529	 114.438268143	 
122.0	 210.646767428	 114.535459031	 
122.0	 212.919328311	 114.503287888	 
122.0	 215.007925757	 114.371505778	 
122.0	 216.933884712	 114.169863764	 
122.0	 218.732905798	 113.928112908	 
122.0	 220.440690289	 113.676004275	 
122.0	 222.092939462	 113.443288928	 
122.0	 223.725180467	 113.258934363	 
122.0	 225.367659538	 113.128143955	 
122.0	 227.044517615	 113.028647257	 
122.0	 228.779555549	 112.936643421	 
122.0	 230.596574191	 112.828331594	 
122.0	 232.519374392	 112.679910926	 
122.0	 234.56231006	 112.473878527	 
122.0	 236.692510677	 112.22421446	 
122.0	 238.862379378	 111.954716351	 
122.0	 241.024314462	 111.689185051	 
122.0	 243.130714228	 111.451421409	 
122.0	 245.134714642	 111.264756853	 
122.0	 247.016912191	 111.135047931	 
122.0	 248.792887426	 111.045888605	 
122.0	 250.480490983	 110.97942824	 
122.0	 252.097573501	 110.917816196	 
122.0	 253.661985619	 110.843201835	 
122.0	 255.188791957	 110.748878585	 
122.0	 256.677467418	 110.690498755	 
122.0	 258.122067229	 110.745393344	 
122.0	 259.516641178	 110.990915116	 
122.0	 260.855239052	 111.504416836	 
122.0	 262.131709104	 112.361840524	 
122.0	 263.330497387	 113.573312799	 
122.0	 264.422842976	 115.056511452	 
122.0	 265.378994809	 116.722183292	 
122.0	 266.169201823	 118.481075131	 
122.0	 266.763712953	 120.243933779	 
122.0	 267.137068266	 121.936831503	 
122.0	 267.290729039	 123.581987761	 
122.0	 267.236573125	 125.238824067	 
122.0	 266.986500951	 126.966842546	 
122.0	 266.55241294	 128.825545325	 
122.0	 265.946282979	 130.873736667	 
122.0	 265.184492516	 133.128348966	 
122.0	 264.290254727	 135.541413224	 
122.0	 263.287370462	 138.059377528	 
122.0	 262.199640573	 140.628689963	 
122.0	 261.050865909	 143.195798615	 
122.0	 259.86270138	 145.71090697	 
122.0	 258.6416753	 148.15069005	 
122.0	 257.387812861	 150.503203344	 
122.0	 256.101114064	 152.756546428	 
122.0	 254.781578908	 154.898818875	 
122.0	 253.429078411	 156.918197651	 
122.0	 252.033198517	 158.809030762	 
122.0	 250.565916071	 160.576231677	 
122.0	 248.99748001	 162.225750609	 
122.0	 247.29813927	 163.763537769	 
122.0	 245.438142789	 165.195543371	 
122.0	 243.387272899	 166.523051595	 
