ply
format ascii 1.0
element vertex 1585
property float x
property float y
property float z
end_header
35.140213 89.359779 88.713211
34.975456 90.763916 88.677803
35.540932 91.535065 88.385300
35.376183 92.939209 88.349884
36.671890 93.077377 87.800301
37.237373 93.848526 87.507805
37.802849 94.619690 87.215302
38.368332 95.390839 86.922806
38.933807 96.161987 86.630310
38.769051 97.566132 86.594894
38.933807 96.161987 86.630310
38.368332 95.390839 86.922806
38.533081 93.986702 86.958221
37.237373 93.848526 87.507805
37.402122 92.444397 87.543221
37.566879 91.040253 87.578629
37.731628 89.636124 87.614044
38.461861 89.003136 87.356956
38.626617 87.598999 87.392372
38.791367 86.194855 87.427780
39.521599 85.561874 87.170700
39.686356 84.157738 87.206108
40.416588 83.524757 86.949020
39.851105 82.753601 87.241524
40.015862 81.349464 87.276939
40.746094 80.716476 87.019852
41.476326 80.083496 86.762764
42.206558 79.450516 86.505676
42.936783 78.817528 86.248596
43.667015 78.184540 85.991508
44.397247 77.551559 85.734421
44.562004 76.147423 85.769836
45.292236 75.514442 85.512749
46.022469 74.881454 85.255661
46.752701 74.248474 84.998573
47.482933 73.615486 84.741493
48.213165 72.982506 84.484406
48.943398 72.349525 84.227318
49.673630 71.716537 83.970230
50.403862 71.083557 83.713150
51.134094 70.450569 83.456062
52.429802 70.588745 82.906479
53.160034 69.955757 82.649391
53.890266 69.322769 82.392303
54.718307 101.399467 79.671967
53.422592 101.261299 80.221550
52.692360 101.894279 80.478638
51.396652 101.756104 81.028221
50.100937 101.617935 81.577805
49.535461 100.846786 81.870300
48.239746 100.708618 82.419891
46.944038 100.570450 82.969475
46.213814 101.203430 83.226562
44.918098 101.065262 83.776146
44.352623 100.294098 84.068642
43.787140 99.522949 84.361145
43.221664 98.751793 84.653641
41.925957 98.613625 85.203224
40.630241 98.475456 85.752808
41.195724 99.246613 85.460312
41.761200 100.017761 85.167809
42.326675 100.788918 84.875313
43.622391 100.927086 84.325729
44.187866 101.698242 84.033226
45.483582 101.836411 83.483643
46.049057 102.607559 83.191147
46.614532 103.378723 82.898643
47.910248 103.516891 82.349060
48.475723 104.288040 82.056564
49.041206 105.059204 81.764061
50.336914 105.197372 81.214478
50.902390 105.968521 80.921982
52.198097 106.106689 80.372398
52.763580 106.877846 80.079895
53.329056 107.649002 79.787399
53.894539 108.420151 79.494896
54.624771 107.787170 79.237816
54.714035 62.302086 82.569366
53.983803 62.935070 82.826454
53.253571 63.568054 83.083542
53.088814 64.972191 83.048126
51.793106 64.834023 83.597710
51.062874 65.467003 83.854797
50.332642 66.099983 84.111885
49.602409 66.732971 84.368973
48.872177 67.365952 84.626060
48.141945 67.998940 84.883141
47.411713 68.631920 85.140228
46.681480 69.264908 85.397316
45.951248 69.897888 85.654404
45.221016 70.530869 85.911484
44.490784 71.163857 86.168571
43.760551 71.796844 86.425659
43.030319 72.429825 86.682747
47.229637 67.928986 86.353790
47.064880 69.333122 86.318375
46.334648 69.966103 86.575462
45.604416 70.599091 86.832550
44.874184 71.232071 87.089630
44.143951 71.865059 87.346718
43.413719 72.498039 87.603806
42.683487 73.131027 87.860886
41.953255 73.764008 88.117981
41.223022 74.396988 88.375061
41.058273 75.801125 88.339645
40.328041 76.434113 88.596741
39.597809 77.067093 88.853821
38.867577 77.700081 89.110909
38.137344 78.333061 89.367996
37.972595 79.737198 89.332581
37.242363 80.370178 89.589661
36.512131 81.003166 89.846756
35.781898 81.636147 90.103836
35.051666 82.269135 90.360924
34.886909 83.673271 90.325516
34.156685 84.306259 90.582596
34.722160 85.077408 90.290100
34.557404 86.481544 90.254684
34.392654 87.885681 90.219269
33.662422 88.518669 90.476357
34.958130 88.656837 89.926773
34.793381 90.060974 89.891357
35.358856 90.832130 89.598862
35.194099 92.236267 89.563446
35.759583 93.007423 89.270950
36.325058 93.778580 88.978455
37.620773 93.916748 88.428864
38.186249 94.687904 88.136368
38.751732 95.459061 87.843872
39.317207 96.230209 87.551369
39.152451 97.634346 87.515953
40.448166 97.772522 86.966370
41.013641 98.543671 86.673874
41.579124 99.314827 86.381371
42.144600 100.085983 86.088867
42.710075 100.857132 85.796371
44.005791 100.995300 85.246788
44.571266 101.766464 84.954285
45.866982 101.904633 84.404709
46.432457 102.675781 84.112206
47.728165 102.813950 83.562622
48.293648 103.585114 83.270126
48.859123 104.356262 82.977623
49.424606 105.127419 82.685120
50.720314 105.265587 82.135544
51.285789 106.036743 81.843040
52.581497 106.174911 81.293457
53.146980 106.946060 81.000961
53.712456 107.717224 80.708458
54.277939 108.488373 80.415955
54.367203 63.003284 83.747513
53.636971 63.636269 84.004601
53.472214 65.040405 83.969193
52.176506 64.902237 84.518768
51.446274 65.535217 84.775864
50.716042 66.168198 85.032944
49.985809 66.801186 85.290031
49.255577 67.434174 85.547119
48.525345 68.067154 85.804199
44.780647 77.619781 86.655479
44.945404 76.215637 86.690895
45.675636 75.582657 86.433807
46.405869 74.949669 86.176727
47.136101 74.316689 85.919632
47.866333 73.683701 85.662552
48.596565 73.050720 85.405464
49.326797 72.417740 85.148376
50.057030 71.784752 84.891296
50.787262 71.151772 84.634209
51.517494 70.518784 84.377121
52.247726 69.885803 84.120041
52.977959 69.252815 83.862946
54.273666 69.390991 83.313362
53.805992 101.329514 81.142609
53.075760 101.962494 81.399696
51.780052 101.824326 81.949280
50.484337 101.686157 82.498871
49.918861 100.915001 82.791367
48.623146 100.776833 83.340950
47.327438 100.638664 83.890533
46.597214 101.271652 84.147621
45.301498 101.133476 84.697205
44.736023 100.362320 84.989700
44.170540 99.591171 85.282204
43.605064 98.820007 85.574699
42.309357 98.681839 86.124283
41.013641 98.543671 86.673874
40.448166 97.772522 86.966370
39.882683 97.001366 87.258865
39.317207 96.230209 87.551369
39.481956 94.826073 87.586777
38.916481 94.054916 87.879280
37.620773 93.916748 88.428864
37.785522 92.512611 88.464279
37.950279 91.108475 88.499695
38.680511 90.475494 88.242599
38.845261 89.071350 88.278015
39.010017 87.667213 88.313431
39.174767 86.263077 88.348846
39.904999 85.630089 88.091759
40.069756 84.225952 88.127167
40.799988 83.592972 87.870087
40.234505 82.821815 88.162582
40.399261 81.417679 88.197998
41.129494 80.784698 87.940910
41.859726 80.151711 87.683823
42.589958 79.518723 87.426743
43.320183 78.885742 87.169655
44.050415 78.252762 86.912567
42.501411 72.428085 89.074448
42.336655 73.832222 89.039032
41.606422 74.465202 89.296120
40.876190 75.098190 89.553207
40.145966 75.731171 89.810287
39.981209 77.135315 89.774879
39.250977 77.768295 90.031967
38.520744 78.401276 90.289047
38.355995 79.805420 90.253639
37.625763 80.438400 90.510727
36.895531 81.071381 90.767807
36.165298 81.704361 91.024895
35.435066 82.337349 91.281982
35.270309 83.741486 91.246567
34.540085 84.374474 91.503654
34.375328 85.778610 91.468246
34.940804 86.549759 91.175743
34.776054 87.953903 91.140335
34.045822 88.586884 91.397415
34.611298 89.358040 91.104919
35.176781 90.129196 90.812416
35.742256 90.900345 90.519920
35.577499 92.304489 90.484505
36.142982 93.075638 90.192001
36.708458 93.846794 89.899506
38.004173 93.984962 89.349922
38.569649 94.756119 89.057419
39.135132 95.527267 88.764923
39.700607 96.298424 88.472427
40.266083 97.069580 88.179932
40.101334 98.473717 88.144516
41.397041 98.611893 87.594925
41.962524 99.383041 87.302429
42.528000 100.154190 87.009933
43.093475 100.925354 86.717438
44.389191 101.063522 86.167847
44.954666 101.834671 85.875351
45.520149 102.605827 85.582855
46.815857 102.743996 85.033264
48.111565 102.882172 84.483681
48.677048 103.653320 84.191177
49.242523 104.424477 83.898682
49.808006 105.195633 83.606186
51.103714 105.333801 83.056595
51.669189 106.104950 82.764099
52.964897 106.243126 82.214516
53.530380 107.014282 81.922012
54.095856 107.785431 81.629517
54.661339 108.556587 81.337021
54.750603 63.071499 84.668579
54.020370 63.704483 84.925659
53.290138 64.337471 85.182747
52.559906 64.970451 85.439835
51.829674 65.603432 85.696915
51.099442 66.236420 85.954002
50.369209 66.869400 86.211090
49.073502 66.731232 86.760681
48.343262 67.364212 87.017761
47.613037 67.997200 87.274841
47.448280 69.401337 87.239433
46.718048 70.034317 87.496521
45.987816 70.667305 87.753601
45.257584 71.300285 88.010696
43.961876 71.162117 88.560272
43.231644 71.795105 88.817368
45.164047 77.687996 87.576538
45.328804 76.283859 87.611954
46.059036 75.650871 87.354866
46.789268 75.017883 87.097778
47.519501 74.384903 86.840698
48.249733 73.751923 86.583611
48.979965 73.118935 86.326523
49.710197 72.485954 86.069443
50.440430 71.852966 85.812347
51.170662 71.219986 85.555267
51.900894 70.587006 85.298180
52.631126 69.954018 85.041092
53.361359 69.321030 84.784012
54.657066 69.459206 84.234421
54.189392 101.397736 82.063667
53.459160 102.030716 82.320755
52.163452 101.892540 82.870338
50.867737 101.754372 83.419922
50.302261 100.983215 83.712418
49.006546 100.845047 84.262009
47.710838 100.706879 84.811592
46.980614 101.339859 85.068680
45.684898 101.201691 85.618263
45.119423 100.430534 85.910767
44.553940 99.659378 86.203262
43.988464 98.888229 86.495758
42.692757 98.750061 87.045349
41.397041 98.611893 87.594925
40.831566 97.840729 87.887428
40.266083 97.069580 88.179932
39.700607 96.298424 88.472427
39.865356 94.894287 88.507843
39.299881 94.123138 88.800339
38.734406 93.351974 89.092834
38.899155 91.947845 89.128250
39.063911 90.543701 89.163666
39.794136 89.910721 88.906578
39.228661 89.139565 89.199081
39.393417 87.735428 89.234489
39.558167 86.331291 89.269897
40.288399 85.698303 89.012817
40.453156 84.294167 89.048233
40.617905 82.890030 89.083641
40.782661 81.485893 89.119057
41.512894 80.852913 88.861969
42.243126 80.219925 88.604889
42.973358 79.586945 88.347794
43.703583 78.953957 88.090714
44.433815 78.320976 87.833626
42.884811 72.496300 89.995506
42.720055 73.900436 89.960098
41.989822 74.533417 90.217178
41.259590 75.166405 90.474266
40.529366 75.799393 90.731354
39.799133 76.432373 90.988441
39.068901 77.065353 91.245522
38.904144 78.469498 91.210114
38.173912 79.102478 91.467201
38.009163 80.506615 91.431786
37.278931 81.139595 91.688873
36.548698 81.772583 91.945953
35.818466 82.405563 92.203049
35.653709 83.809708 92.167633
34.923485 84.442688 92.424713
34.758728 85.846825 92.389305
35.324203 86.617981 92.096802
35.159454 88.022118 92.061394
34.429222 88.655106 92.318481
34.994698 89.426254 92.025978
35.560181 90.197403 91.733475
35.395424 91.601547 91.698067
35.960899 92.372696 91.405563
36.526382 93.143852 91.113068
37.091858 93.915009 90.820572
38.387573 94.053177 90.270981
38.953049 94.824333 89.978485
39.518532 95.595490 89.685989
40.084007 96.366638 89.393486
39.919250 97.770775 89.358070
40.484734 98.541931 89.065575
41.780441 98.680099 88.515991
42.345924 99.451256 88.223488
42.911400 100.222412 87.930992
43.476875 100.993561 87.638496
44.772591 101.131729 87.088905
45.338066 101.902893 86.796410
45.903549 102.674042 86.503914
47.199257 102.812210 85.954323
48.494965 102.950378 85.404739
49.060448 103.721542 85.112244
49.625923 104.492691 84.819740
50.191406 105.263847 84.527245
51.487114 105.402016 83.977661
52.052589 106.173172 83.685158
52.618065 106.944321 83.392662
53.913780 107.082489 82.843079
54.479256 107.853653 82.550575
53.838295 63.001545 86.139221
53.673538 64.405685 86.103806
52.943306 65.038666 86.360893
52.213074 65.671646 86.617981
51.482841 66.304634 86.875061
50.187126 66.166466 87.424652
49.456902 66.799446 87.681740
48.726662 67.432434 87.938820
47.996437 68.065414 88.195908
47.831680 69.469551 88.160492
46.535973 69.331383 88.710083
45.805740 69.964363 88.967163
45.075508 70.597351 89.224251
44.345276 71.230331 89.481339
43.615044 71.863319 89.738426
45.547447 77.756210 88.497597
45.712204 76.352074 88.533012
46.442436 75.719086 88.275925
47.172668 75.086105 88.018845
47.902901 74.453117 87.761757
48.633133 73.820137 87.504669
49.363365 73.187149 87.247581
50.093597 72.554169 86.990501
50.823830 71.921188 86.733414
51.554062 71.288200 86.476326
52.284294 70.655220 86.219238
53.014526 70.022232 85.962158
53.744759 69.389252 85.705070
54.572792 101.465942 82.984726
53.842560 102.098923 83.241814
52.546852 101.960754 83.791397
51.981369 101.189606 84.083900
50.685661 101.051430 84.633484
49.389946 100.913261 85.183067
48.094238 100.775093 85.732651
47.364014 101.408081 85.989738
46.068298 101.269905 86.539322
45.502823 100.498749 86.831825
44.937340 99.727600 87.124321
44.371864 98.956436 87.416817
43.076157 98.818268 87.966408
41.780441 98.680099 88.515991
41.214966 97.908951 88.808487
40.649483 97.137794 89.100990
40.814240 95.733658 89.136398
40.248756 94.962502 89.428902
39.683281 94.191345 89.721397
39.117805 93.420197 90.013901
39.282555 92.016052 90.049309
40.012787 91.383072 89.792229
40.177536 89.978935 89.827637
40.907768 89.345955 89.570549
39.612061 89.207779 90.120140
39.776817 87.803642 90.155548
39.941566 86.399506 90.190964
40.671799 85.766525 89.933876
40.836555 84.362381 89.969292
41.001305 82.958252 90.004700
41.731537 82.325264 89.747620
42.461769 81.692284 89.490532
43.192001 81.059296 89.233444
43.922234 80.426315 88.976357
44.652466 79.793327 88.719276
44.817215 78.389191 88.754684
43.268211 72.564514 90.916565
43.103455 73.968658 90.881157
42.373222 74.601639 91.138245
41.642990 75.234619 91.395325
40.912766 75.867599 91.652412
40.182533 76.500587 91.909500
39.452301 77.133575 92.166580
38.722069 77.766556 92.423676
37.991837 78.399536 92.680756
38.557312 79.170692 92.388260
38.392563 80.574829 92.352844
37.662331 81.207809 92.609932
36.932098 81.840797 92.867020
36.767342 83.244934 92.831604
36.037109 83.877914 93.088692
35.306885 84.510902 93.345779
35.142128 85.915039 93.310364
35.707603 86.686195 93.017868
35.542854 88.090332 92.982452
34.812622 88.723312 93.239532
34.647865 90.127457 93.204124
35.943581 90.265625 92.654541
35.778824 91.669762 92.619125
36.344299 92.440918 92.326630
36.179550 93.845055 92.291214
36.745026 94.616211 91.998718
38.040741 94.754379 91.449127
38.606216 95.525528 91.156631
39.171692 96.296684 90.864136
39.737175 97.067841 90.571632
40.302650 97.838989 90.279129
40.868134 98.610153 89.986633
42.163841 98.748322 89.437050
42.729324 99.519470 89.144547
43.294800 100.290627 88.852051
43.860275 101.061783 88.559555
45.155991 101.199951 88.009964
45.721466 101.971107 87.717468
46.286949 102.742264 87.424973
47.582657 102.880432 86.875381
48.878365 103.018600 86.325806
49.443848 103.789757 86.033302
50.009323 104.560913 85.740799
51.305031 104.699081 85.191223
51.870514 105.470230 84.898720
52.435989 106.241386 84.606216
53.001465 107.012543 84.313721
54.297180 107.150711 83.764137
54.862656 107.921867 83.471634
54.951920 62.436775 86.803192
54.221695 63.069763 87.060280
54.056938 64.473900 87.024872
53.326706 65.106880 87.281952
52.596474 65.739868 87.539040
51.866241 66.372849 87.796127
50.570526 66.234680 88.345711
49.840302 66.867661 88.602798
49.110062 67.500648 88.859879
48.379837 68.133629 89.116966
47.649605 68.766617 89.374054
46.919373 69.399597 89.631142
46.189140 70.032578 89.888229
45.458908 70.665565 90.145309
44.728676 71.298546 90.402397
43.998444 71.931534 90.659485
45.930847 77.824425 89.418655
46.095604 76.420288 89.454071
46.825836 75.787300 89.196991
47.556068 75.154320 88.939903
48.286301 74.521332 88.682816
49.016533 73.888351 88.425735
49.746765 73.255363 88.168640
51.042473 73.393539 87.619064
51.207230 71.989403 87.654472
51.937462 71.356415 87.397385
52.667694 70.723434 87.140305
53.397926 70.090446 86.883217
54.128159 69.457466 86.626129
54.956192 101.534164 83.905792
54.225960 102.167145 84.162872
52.930252 102.028976 84.712463
52.364769 101.257820 85.004959
51.069061 101.119644 85.554543
49.773346 100.981476 86.104126
49.207870 100.210327 86.396629
47.912163 100.072159 86.946213
47.181931 100.705139 87.203293
45.886223 100.566971 87.752884
45.320740 99.795815 88.045380
44.755264 99.024658 88.337875
43.459557 98.886490 88.887466
42.894073 98.115341 89.179962
41.598366 97.977165 89.729553
41.763115 96.573029 89.764961
41.197639 95.801872 90.057465
40.632156 95.030716 90.349960
40.066681 94.259567 90.642456
40.231438 92.855423 90.677872
40.396187 91.451294 90.713287
40.560936 90.047150 90.748703
41.291168 89.414169 90.491608
39.995461 89.276001 91.041199
40.160217 87.871857 91.076614
40.324966 86.467720 91.112022
41.055199 85.834732 90.854935
41.219955 84.430595 90.890350
41.384705 83.026466 90.925766
42.114937 82.393478 90.668678
42.845169 81.760498 90.411591
43.575401 81.127510 90.154510
44.305634 80.494530 89.897415
45.035866 79.861542 89.640335
45.200615 78.457405 89.675751
48.197762 67.430695 90.330521
48.033005 68.834831 90.295113
47.302773 69.467812 90.552200
46.572540 70.100792 90.809280
45.842308 70.733780 91.066368
45.112076 71.366760 91.323456
44.381844 71.999748 91.580544
43.651611 72.632729 91.837631
43.486855 74.036873 91.802216
42.756622 74.669853 92.059296
42.026390 75.302834 92.316391
41.296165 75.935822 92.573471
40.565933 76.568802 92.830559
39.835701 77.201790 93.087646
39.105469 77.834770 93.344727
38.375237 78.467758 93.601814
38.940712 79.238907 93.309319
38.775963 80.643044 93.273903
38.045731 81.276031 93.530991
37.315498 81.909012 93.788071
37.150742 83.313148 93.752663
36.985992 84.717285 93.717255
36.255760 85.350273 93.974335
35.525528 85.983253 94.231422
36.091003 86.754410 93.938919
35.926254 88.158546 93.903511
35.196022 88.791534 94.160599
35.031265 90.195663 94.125183
35.596748 90.966820 93.832687
36.162224 91.737976 93.540184
36.727699 92.509125 93.247681
36.562950 93.913269 93.212273
37.128426 94.684418 92.919769
38.424141 94.822594 92.370193
38.989616 95.593750 92.077690
39.555092 96.364899 91.785187
40.120575 97.136055 91.492691
40.686050 97.907211 91.200195
41.251534 98.678360 90.907692
42.547241 98.816536 90.358109
43.112724 99.587692 90.065613
43.678200 100.358841 89.773109
44.243675 101.129997 89.480614
45.539391 101.268166 88.931030
46.104866 102.039322 88.638527
46.670349 102.810471 88.346031
47.966057 102.948639 87.796448
49.261765 103.086815 87.246857
49.827248 103.857971 86.954361
51.122955 103.996140 86.404778
51.688431 104.767296 86.112274
52.253914 105.538452 85.819778
52.819389 106.309601 85.527283
53.384865 107.080757 85.234779
54.680580 107.218925 84.685196
54.605095 63.137978 87.981339
53.874855 63.770962 88.238426
53.710106 65.175102 88.203011
52.979874 65.808083 88.460098
51.684166 65.669907 89.009682
50.953926 66.302895 89.266769
50.223701 66.935875 89.523857
49.493462 67.568863 89.780945
46.314247 77.892639 90.339722
46.479004 76.488503 90.375137
47.209236 75.855515 90.118042
47.939468 75.222534 89.860962
48.669701 74.589554 89.603874
49.399933 73.956566 89.346786
50.130165 73.323578 89.089706
51.425873 73.461754 88.540115
51.590630 72.057617 88.575531
52.320862 71.424629 88.318451
53.051094 70.791649 88.061356
53.781326 70.158661 87.804276
54.609360 102.235359 85.083939
53.313652 102.097183 85.633514
52.748169 101.326035 85.926018
51.452461 101.187866 86.475601
50.886978 100.416710 86.768097
49.591270 100.278542 87.317688
48.295563 100.140366 87.867271
47.730080 99.369217 88.159775
46.434372 99.231049 88.709351
45.138664 99.092873 89.258942
43.842957 98.954704 89.808525
43.277473 98.183548 90.101028
41.981766 98.045380 90.650604
42.146515 96.641243 90.686020
41.581039 95.870087 90.978516
41.015556 95.098938 91.271019
40.450081 94.327774 91.563522
40.614838 92.923645 91.598930
40.779587 91.519501 91.634346
40.944336 90.115372 91.669754
41.109093 88.711227 91.705170
41.273849 87.307091 91.740585
41.438599 85.902954 91.776001
41.603355 84.498810 91.811409
41.768105 83.094681 91.846817
42.498337 82.461700 91.589737
43.228569 81.828712 91.332649
43.958801 81.195724 91.075562
44.689034 80.562744 90.818481
45.419266 79.929764 90.561394
46.149498 79.296776 90.304306
46.879730 78.663795 90.047226
46.390465 69.397858 92.022842
46.225708 70.801994 91.987427
45.495476 71.434982 92.244522
44.765244 72.067963 92.501602
44.035011 72.700943 92.758690
43.870255 74.105087 92.723282
43.140022 74.738068 92.980362
42.409790 75.371048 93.237450
41.679565 76.004036 93.494537
40.949333 76.637016 93.751617
40.219101 77.270004 94.008705
40.054344 78.674141 93.973297
39.324112 79.307129 94.230377
39.159363 80.711258 94.194962
38.429131 81.344238 94.452057
38.264374 82.748383 94.416641
37.534142 83.381363 94.673721
37.369392 84.785507 94.638313
36.639160 85.418488 94.895401
36.474403 86.822624 94.859985
36.309654 88.226761 94.824570
35.579422 88.859749 95.081657
36.144897 89.630905 94.789154
35.980148 91.035034 94.753746
36.545624 91.806190 94.461243
37.111099 92.577347 94.168747
36.946350 93.981483 94.133331
37.511826 94.752640 93.840836
38.077309 95.523788 93.548340
38.642784 96.294945 93.255844
39.208267 97.066101 92.963341
40.503975 97.204269 92.413757
41.069450 97.975418 92.121254
41.634933 98.746582 91.828751
42.930641 98.884750 91.279175
44.226357 99.022919 90.729584
44.791832 99.794067 90.437088
45.357307 100.565231 90.144585
45.922791 101.336380 89.852089
46.488266 102.107536 89.559586
47.053749 102.878693 89.267090
48.349457 103.016861 88.717506
49.645164 103.155029 88.167923
50.210648 103.926186 87.875420
51.506355 104.064354 87.325836
52.071831 104.835510 87.033340
52.637314 105.606659 86.740837
53.202789 106.377815 86.448341
53.768265 107.148972 86.155838
54.988495 63.206192 88.902397
54.258255 63.839176 89.159485
54.093506 65.243317 89.124069
52.797791 65.105141 89.673653
52.067566 65.738129 89.930740
51.337326 66.371109 90.187828
50.607101 67.004089 90.444916
49.311386 66.865921 90.994499
48.581161 67.498909 91.251587
48.416405 68.903046 91.216171
47.120697 68.764870 91.765762
50.348808 74.795937 89.975349
50.513565 73.391800 90.010765
51.809273 73.529968 89.461182
51.974030 72.125832 89.496590
52.704262 71.492844 89.239510
53.434494 70.859863 88.982422
54.164726 70.226883 88.725334
54.427284 101.532417 86.297493
53.131569 101.394249 86.847076
52.566093 100.623093 87.139580
51.270378 100.484924 87.689163
49.974670 100.346756 88.238747
49.409195 99.575600 88.531242
48.113480 99.437431 89.080833
46.817772 99.299255 89.630417
46.087540 99.932243 89.887505
44.791832 99.794067 90.437088
44.226357 99.022919 90.729584
43.660873 98.251770 91.022087
43.095398 97.480606 91.314583
42.529915 96.709457 91.607086
41.964439 95.938301 91.899582
41.398956 95.167145 92.192078
40.833481 94.395996 92.484581
40.998238 92.991852 92.519989
41.728470 92.358871 92.262909
41.893219 90.954742 92.298325
41.327736 90.183578 92.590820
41.492493 88.779442 92.626236
41.657249 87.375305 92.661652
41.821999 85.971169 92.697060
42.552231 85.338181 92.439972
41.986755 84.567032 92.732468
42.151505 83.162895 92.767883
42.881737 82.529907 92.510803
43.611969 81.896927 92.253708
44.342201 81.263947 91.996628
45.072433 80.630959 91.739540
45.802666 79.997971 91.482452
46.532898 79.364990 91.225365
46.697647 77.960854 91.260780
47.427879 77.327873 91.003693
48.158112 76.694885 90.746605
48.888344 76.061905 90.489525
49.618576 75.428917 90.232437
46.043633 70.099060 93.200989
45.878876 71.503197 93.165573
45.148643 72.136177 93.422668
44.418411 72.769165 93.679749
43.688179 73.402145 93.936829
43.523422 74.806282 93.901421
42.793190 75.439270 94.158508
42.062965 76.072250 94.415588
41.898209 77.476387 94.380180
41.167976 78.109375 94.637268
40.437744 78.742355 94.894348
39.707512 79.375343 95.151443
39.542763 80.779472 95.116028
39.378006 82.183609 95.080612
38.647774 82.816597 95.337700
38.483025 84.220734 95.302284
37.752792 84.853722 95.559372
37.022560 85.486702 95.816452
36.857803 86.890839 95.781044
36.693054 88.294983 95.745636
36.528297 89.699112 95.710220
37.093781 90.470268 95.417717
36.929024 91.874405 95.382309
37.494499 92.645561 95.089806
37.329750 94.049698 95.054398
37.895226 94.820847 94.761894
39.190941 94.959023 94.212311
39.026184 96.363159 94.176895
39.591667 97.134315 93.884399
40.887375 97.272484 93.334808
41.452850 98.043640 93.042313
42.018333 98.814789 92.749817
43.314041 98.952965 92.200226
44.609756 99.091133 91.650650
45.175232 99.862289 91.358147
45.740707 100.633438 91.065643
46.306190 101.404594 90.773148
46.871666 102.175751 90.480652
48.167381 102.313919 89.931061
48.732857 103.085068 89.638565
49.298332 103.856232 89.346069
50.594048 103.994400 88.796478
51.889755 104.132568 88.246902
52.455231 104.903725 87.954399
53.020714 105.674881 87.661896
53.586189 106.446030 87.369400
54.151665 107.217186 87.076904
54.717148 107.988342 86.784401
54.641655 63.907391 90.080551
54.476906 65.311531 90.045135
53.181190 65.173355 90.594711
52.450966 65.806343 90.851807
51.155251 65.668167 91.401390
50.425018 66.301155 91.658478
49.694786 66.934143 91.915558
48.964561 67.567123 92.172646
48.799805 68.971260 92.137238
47.504097 68.833084 92.686813
46.773865 69.466072 92.943909
52.192673 73.598190 90.382240
52.357430 72.194046 90.417648
53.653137 72.332214 89.868073
54.383369 71.699234 89.610977
54.245201 100.829483 87.511047
52.949493 100.691307 88.060638
52.384010 99.920151 88.353134
51.088303 99.781982 88.902725
49.792595 99.643814 89.452301
48.496880 99.505646 90.001892
47.931404 98.734489 90.294388
46.635696 98.596321 90.843979
46.070221 97.825165 91.136475
45.504738 97.054016 91.428970
44.939262 96.282860 91.721466
44.209030 96.915840 91.978561
42.913315 96.777672 92.528137
42.347839 96.006516 92.820641
42.512596 94.602379 92.856049
41.947113 93.831223 93.148552
42.111870 92.427094 93.183968
42.842094 91.794106 92.926880
43.006851 90.389969 92.962296
42.441368 89.618813 93.254791
42.606125 88.214676 93.290207
42.770882 86.810539 93.325623
42.935631 85.406403 93.361031
42.370155 84.635246 93.653534
42.534904 83.231110 93.688942
43.265137 82.598129 93.431854
43.995369 81.965141 93.174774
44.725601 81.332161 92.917686
45.455833 80.699173 92.660599
46.186066 80.066193 92.403519
46.916298 79.433205 92.146423
47.081047 78.029068 92.181839
47.811279 77.396088 91.924759
48.541512 76.763107 91.667664
49.271744 76.130119 91.410583
50.001976 75.497131 91.153496
50.732208 74.864151 90.896408
51.462440 74.231171 90.639328
46.427032 70.167274 94.122047
46.262276 71.571411 94.086639
45.532043 72.204391 94.343719
44.801811 72.837379 94.600807
44.071579 73.470360 94.857895
43.906822 74.874496 94.822479
43.742073 76.278633 94.787064
43.011841 76.911621 95.044159
42.281609 77.544601 95.301239
41.551376 78.177589 95.558327
41.386627 79.581726 95.522911
40.656395 80.214706 95.779999
40.491638 81.618843 95.744583
40.326889 83.022980 95.709167
39.596657 83.655968 95.966263
39.431900 85.060104 95.930847
38.701668 85.693085 96.187927
37.971436 86.326073 96.445015
37.806686 87.730209 96.409607
37.076454 88.363190 96.666687
36.911697 89.767334 96.631271
37.477180 90.538483 96.338776
37.312424 91.942627 96.303360
37.877899 92.713776 96.010864
37.713150 94.117920 95.975449
38.278625 94.889069 95.682953
38.844109 95.660225 95.390457
39.409584 96.431381 95.097961
39.975067 97.202530 94.805458
40.540543 97.973686 94.512955
41.836250 98.111855 93.963371
42.401733 98.883011 93.670868
43.697441 99.021179 93.121292
44.262924 99.792336 92.828789
45.558632 99.930504 92.279205
46.124107 100.701660 91.986710
46.689590 101.472809 91.694206
47.985298 101.610985 91.144623
48.550781 102.382141 90.852127
49.116257 103.153290 90.559624
49.681732 103.924446 90.267128
50.977448 104.062622 89.717545
52.273155 104.200790 89.167961
52.838631 104.971939 88.875458
53.404114 105.743095 88.582962
53.969589 106.514252 88.290459
54.535065 107.285400 87.997963
54.860306 65.379745 90.966194
53.564590 65.241570 91.515778
52.268883 65.103401 92.065361
51.538651 65.736389 92.322449
50.808418 66.369370 92.579529
50.078186 67.002357 92.836624
49.347961 67.635338 93.093704
49.183205 69.039474 93.058289
48.452972 69.672455 93.315384
47.157265 69.534286 93.864960
52.576073 73.666397 91.303299
52.740829 72.262260 91.338715
54.036537 72.400436 90.789131
54.766769 71.767448 90.532043
54.628601 100.897697 88.432114
54.063126 100.126541 88.724609
52.767410 99.988373 89.274200
51.471703 99.850204 89.823784
50.175995 99.712036 90.373367
48.880280 99.573868 90.922951
48.314804 98.802704 91.215454
47.019096 98.664536 91.765030
46.453621 97.893387 92.057533
46.618370 96.489243 92.092941
45.322662 96.351074 92.642532
44.757179 95.579926 92.935028
43.461472 95.441750 93.484619
43.626221 94.037613 93.520027
43.790977 92.633476 93.555435
43.955727 91.229340 93.590851
43.390251 90.458183 93.883354
42.824768 89.687027 94.175850
42.989525 88.282890 94.211266
43.719757 87.649902 93.954178
43.154282 86.878754 94.246674
43.319031 85.474609 94.282089
42.753555 84.703461 94.574585
42.918304 83.299324 94.610001
43.648537 82.666344 94.352921
44.378769 82.033356 94.095825
45.109001 81.400375 93.838745
45.839233 80.767387 93.581657
46.569466 80.134407 93.324570
47.299698 79.501419 93.067490
47.464447 78.097290 93.102898
48.194679 77.464302 92.845810
48.924911 76.831314 92.588730
49.655144 76.198334 92.331642
50.385376 75.565353 92.074554
51.115608 74.932365 91.817474
51.845840 74.299377 91.560379
46.810425 70.235489 95.043106
46.645668 71.639626 95.007698
45.915436 72.272614 95.264786
45.185204 72.905594 95.521866
44.454971 73.538574 95.778954
45.020447 74.309731 95.486458
44.855698 75.713867 95.451042
44.125465 76.346848 95.708130
43.395233 76.979836 95.965218
42.665001 77.612816 96.222305
42.500252 79.016953 96.186890
41.770020 79.649940 96.443970
41.039787 80.282928 96.701065
41.605263 81.054077 96.408562
41.440514 82.458214 96.373154
41.275757 83.862350 96.337738
41.111000 85.266495 96.302322
40.380768 85.899475 96.559410
39.650536 86.532455 96.816498
39.485786 87.936600 96.781082
38.755554 88.569580 97.038162
38.590805 89.973717 97.002754
39.156281 90.744873 96.710251
38.991524 92.149010 96.674843
38.826775 93.553146 96.639427
38.662018 94.957283 96.604019
39.227501 95.728439 96.311516
40.523209 95.866608 95.761932
40.358459 97.270752 95.726517
41.654167 97.408920 95.176933
42.219643 98.180069 94.884430
42.785126 98.951225 94.591934
44.080833 99.089401 94.042351
44.646317 99.860550 93.749847
45.942024 99.998718 93.200272
47.237732 100.136887 92.650681
47.803215 100.908043 92.358185
48.368690 101.679199 92.065689
48.934174 102.450348 91.773186
49.499649 103.221504 91.480682
50.065125 103.992661 91.188187
51.360840 104.130829 90.638603
52.656548 104.268997 90.089020
53.222023 105.040161 89.796516
53.787506 105.811310 89.504021
54.352982 106.582458 89.211517
54.918457 107.353622 88.919022
53.947983 65.309784 92.436836
53.217758 65.942772 92.693924
51.922043 65.804604 93.243515
51.191811 66.437584 93.500595
50.461578 67.070572 93.757683
49.731354 67.703552 94.014771
49.566597 69.107697 93.979355
48.836365 69.740677 94.236443
48.106133 70.373657 94.493530
52.959465 73.734619 92.224365
53.124222 72.330475 92.259773
54.419930 72.468651 91.710190
54.446518 100.194756 89.645668
53.881035 99.423599 89.938171
53.150803 100.056587 90.195259
51.855095 99.918419 90.744843
50.559387 99.780243 91.294426
49.263672 99.642075 91.844009
48.698196 98.870926 92.136513
48.132713 98.099770 92.429008
47.567238 97.328613 92.721512
47.001762 96.557465 93.014008
45.706055 96.419296 93.563591
45.140572 95.648132 93.856094
44.575096 94.876984 94.148590
44.739845 93.472839 94.184006
44.174370 92.701691 94.476501
44.339119 91.297546 94.511917
43.773643 90.526398 94.804413
43.208160 89.755249 95.096909
43.372917 88.351105 95.132324
44.103149 87.718124 94.875244
44.267906 86.313980 94.910652
43.702423 85.542831 95.203156
43.867180 84.138695 95.238564
44.597412 83.505707 94.981476
44.762161 82.101578 95.016891
45.492393 81.468590 94.759811
46.222626 80.835602 94.502716
46.952858 80.202621 94.245636
47.683090 79.569641 93.988548
47.847839 78.165504 94.023956
48.578072 77.532516 93.766876
49.308304 76.899536 93.509789
50.038536 76.266548 93.252701
50.768768 75.633568 92.995621
51.499001 75.000580 92.738533
52.229233 74.367599 92.481445
50.114754 67.771767 94.935822
49.949997 69.175911 94.900414
49.219765 69.808891 95.157501
48.489532 70.441872 95.414581
47.759300 71.074860 95.671669
47.029068 71.707840 95.928757
46.298836 72.340828 96.185844
46.134079 73.744965 96.150429
46.699562 74.516113 95.857925
46.534805 75.920258 95.822517
47.100288 76.691406 95.530014
46.935532 78.095543 95.494606
46.205299 78.728531 95.751694
45.475075 79.361511 96.008774
44.744843 79.994492 96.265869
44.014610 80.627480 96.522949
43.284378 81.260468 96.780037
42.554146 81.893448 97.037125
42.389389 83.297585 97.001709
41.659157 83.930565 97.258789
41.494400 85.334702 97.223381
41.329651 86.738846 97.187973
40.599419 87.371826 97.445053
40.434669 88.775963 97.409637
40.269913 90.180099 97.374229
39.539680 90.813087 97.631317
40.105156 91.584244 97.338814
39.940407 92.988380 97.303406
39.775650 94.392517 97.267990
40.341133 95.163666 96.975494
40.906609 95.934822 96.682991
41.472084 96.705978 96.390488
42.037567 97.477127 96.097992
43.333275 97.615303 95.548409
43.898758 98.386459 95.255905
44.464233 99.157608 94.963409
45.029716 99.928764 94.670914
46.325424 100.066933 94.121323
47.621132 100.205109 93.571747
48.186615 100.976257 93.279243
48.752090 101.747414 92.986740
49.317574 102.518570 92.694244
49.883049 103.289719 92.401749
51.178757 103.427887 91.852158
51.744240 104.199051 91.559662
53.039948 104.337219 91.010078
53.605423 105.108368 90.717575
54.170906 105.879524 90.425079
54.736382 106.650681 90.132584
54.331383 65.378006 93.357895
53.601158 66.010986 93.614983
52.305443 65.872818 94.164566
51.575211 66.505798 94.421654
50.844978 67.138786 94.678741
52.612633 74.435814 93.402504
52.777390 73.031677 93.437920
54.073097 73.169846 92.888336
54.803329 72.536865 92.631248
54.829918 100.262970 90.566727
54.264435 99.491821 90.859230
53.534203 100.124802 91.116318
52.238495 99.986633 91.665901
50.942787 99.848465 92.215485
50.377304 99.077309 92.507980
49.811829 98.306152 92.800484
49.246346 97.535004 93.092987
48.680870 96.763847 93.385483
47.385162 96.625671 93.935066
46.819679 95.854523 94.227570
45.523972 95.716354 94.777145
45.688721 94.312210 94.812561
45.853477 92.908081 94.847977
45.288002 92.136917 95.140472
44.722519 91.365768 95.432976
44.157043 90.594620 95.725479
44.321793 89.190475 95.760887
44.486549 87.786339 95.796295
44.651306 86.382202 95.831711
44.085823 85.611046 96.124207
44.250580 84.206909 96.159622
44.980812 83.573929 95.902542
45.711044 82.940941 95.645454
46.441277 82.307953 95.388367
47.171509 81.674973 95.131279
47.901733 81.041992 94.874191
48.066490 79.637848 94.909607
48.231239 78.233719 94.945023
48.961472 77.600731 94.687935
49.691704 76.967751 94.430847
50.421936 76.334763 94.173767
51.152168 75.701782 93.916672
51.882401 75.068794 93.659592
49.767921 68.472969 96.113968
49.603165 69.877106 96.078560
48.872932 70.510086 96.335648
48.142700 71.143074 96.592728
48.708176 71.914230 96.300232
48.543427 73.318367 96.264816
47.813194 73.951347 96.521904
47.648438 75.355484 96.486488
46.918205 75.988472 96.743576
47.483688 76.759628 96.451080
47.318932 78.163757 96.415665
46.588699 78.796745 96.672752
46.423950 80.200882 96.637337
45.693718 80.833862 96.894424
44.963486 81.466850 97.151505
44.233253 82.099838 97.408600
43.503021 82.732819 97.665680
43.338264 84.136955 97.630264
42.608032 84.769936 97.887360
41.877800 85.402924 98.144440
41.713051 86.807060 98.109024
40.982819 87.440041 98.366112
41.548294 88.211197 98.073608
41.383545 89.615334 98.038200
41.218788 91.019470 98.002792
40.488556 91.652451 98.259872
41.054039 92.423615 97.967377
41.619514 93.194763 97.674881
41.454765 94.598900 97.639465
42.020241 95.370056 97.346962
42.585724 96.141205 97.054466
43.151199 96.912361 96.761963
43.716675 97.683517 96.469467
44.282158 98.454666 96.176971
44.847633 99.225830 95.884468
45.413116 99.996979 95.591965
46.708824 100.135147 95.042389
48.004532 100.273315 94.492798
48.570015 101.044472 94.200302
49.135490 101.815628 93.907806
50.431206 101.953796 93.358215
50.996681 102.724953 93.065720
51.562157 103.496109 92.773224
52.127640 104.267258 92.480721
53.423347 104.405426 91.931137
53.988823 105.176590 91.638641
54.554306 105.947739 91.346138
54.714783 65.446220 94.278954
53.984558 66.079201 94.536041
52.688843 65.941032 95.085632
51.958611 66.574020 95.342712
51.228378 67.207001 95.599800
50.498154 67.839981 95.856888
52.996033 74.504028 94.323563
53.160789 73.099892 94.358978
54.456497 73.238068 93.809387
53.917603 100.193016 92.037376
52.621895 100.054848 92.586960
52.056419 99.283691 92.879456
51.490936 98.512543 93.171959
50.925461 97.741379 93.464462
50.359978 96.970230 93.756958
49.794502 96.199081 94.049454
48.498795 96.060905 94.599045
47.203079 95.922737 95.148621
47.367836 94.518600 95.184036
46.802353 93.747444 95.476532
46.967110 92.343307 95.511948
46.401634 91.572151 95.804443
45.105919 91.433983 96.354034
45.270676 90.029846 96.389450
44.705193 89.258690 96.681946
44.869949 87.854553 96.717361
45.034706 86.450417 96.752769
45.199455 85.046280 96.788185
45.364212 83.642143 96.823593
46.094444 83.009155 96.566513
46.824677 82.376175 96.309425
47.554909 81.743187 96.052338
48.285133 81.110207 95.795258
49.015366 80.477219 95.538162
49.180122 79.073090 95.573578
49.910355 78.440102 95.316498
50.640587 77.807114 95.059410
51.370819 77.174133 94.802322
52.101051 76.541153 94.545242
52.831284 75.908165 94.288147
53.561516 75.275177 94.031067
50.881554 67.908203 96.777946
50.716797 69.312340 96.742538
50.552040 70.716476 96.707123
49.821808 71.349457 96.964203
50.387291 72.120613 96.671707
50.222534 73.524750 96.636292
49.492302 74.157730 96.893379
48.762070 74.790718 97.150467
48.597321 76.194855 97.115051
47.867088 76.827835 97.372139
48.432564 77.598991 97.079636
48.267807 79.003128 97.044228
47.537575 79.636108 97.301315
46.807350 80.269096 97.558395
46.077118 80.902084 97.815491
45.346886 81.535065 98.072571
45.182129 82.939201 98.037155
44.451897 83.572189 98.294243
43.721664 84.205170 98.551331
43.556915 85.609306 98.515915
42.826683 86.242287 98.773003
42.661926 87.646423 98.737595
42.497177 89.050568 98.702179
41.766945 89.683548 98.959259
41.602188 91.087692 98.923851
41.437439 92.491821 98.888435
42.002914 93.262985 98.595940
42.568398 94.034134 98.303436
42.403641 95.438278 98.268021
42.969124 96.209427 97.975525
43.534599 96.980576 97.683029
44.100075 97.751740 97.390533
44.665558 98.522888 97.098030
45.231033 99.294044 96.805527
45.796516 100.065201 96.513031
46.361992 100.836349 96.220535
47.092224 100.203369 95.963448
48.387932 100.341537 95.413864
48.953415 101.112686 95.121368
50.249123 101.250862 94.571777
50.814606 102.022018 94.279282
51.380081 102.793167 93.986786
51.945557 103.564323 93.694283
52.511040 104.335480 93.401779
53.806747 104.473648 92.852203
54.372223 105.244804 92.559700
54.937706 106.015961 92.267197
54.367958 66.147415 95.457108
53.637718 66.780403 95.714188
52.907494 67.413383 95.971283
52.177254 68.046371 96.228363
53.944916 75.343399 94.952133
54.109665 73.939262 94.987541
54.839897 73.306282 94.730453
54.301003 100.261230 92.958435
53.005295 100.123062 93.508026
52.439819 99.351913 93.800522
51.874336 98.580757 94.093018
51.308861 97.809601 94.385521
50.743378 97.038452 94.678017
50.908134 95.634308 94.713432
50.177902 96.267296 94.970520
48.882195 96.129120 95.520103
49.046944 94.724983 95.555511
48.481468 93.953827 95.848015
48.646217 92.549698 95.883423
48.080742 91.778534 96.175926
46.785034 91.640366 96.725510
46.219551 90.869217 97.018005
46.384308 89.465073 97.053421
45.818825 88.693924 97.345917
45.253349 87.922768 97.638420
45.418106 86.518631 97.673828
45.582855 85.114494 97.709244
46.313087 84.481506 97.452164
47.043320 83.848526 97.195076
47.208076 82.444389 97.230484
47.938309 81.811401 96.973404
48.668533 81.178421 96.716316
49.398766 80.545433 96.459229
49.563522 79.141304 96.494644
50.293755 78.508316 96.237556
51.023987 77.875336 95.980469
51.754219 77.242348 95.723389
52.484451 76.609367 95.466301
53.214684 75.976379 95.209213
51.100197 69.380554 97.663589
50.935440 70.784691 97.628181
50.770691 72.188828 97.592766
51.336166 72.959984 97.300262
51.171417 74.364120 97.264854
50.441185 74.997101 97.521942
49.710953 75.630089 97.779022
48.980721 76.263069 98.036118
48.815964 77.667206 98.000702
48.651207 79.071342 97.965286
47.920975 79.704330 98.222374
47.190750 80.337311 98.479462
46.460518 80.970299 98.736542
45.730286 81.603279 98.993629
45.565529 83.007416 98.958221
45.400780 84.411560 98.922806
44.670547 85.044540 99.179886
44.505791 86.448677 99.144478
44.341042 87.852814 99.109070
44.176285 89.256950 99.073654
43.446053 89.889938 99.330734
43.281303 91.294075 99.295319
42.551071 91.927055 99.552414
42.386314 93.331192 99.516998
42.951797 94.102348 99.224503
43.517273 94.873505 98.931999
44.082748 95.644653 98.639496
44.648232 96.415810 98.347000
45.213707 97.186966 98.054504
45.779190 97.958115 97.762001
45.614433 99.362259 97.726593
46.910149 99.500427 97.177002
47.475624 100.271576 96.884506
48.041100 101.042740 96.592010
49.336815 101.180908 96.042419
50.632523 101.319077 95.492836
51.198006 102.090233 95.200340
51.763481 102.861389 94.907837
52.328957 103.632538 94.615341
52.894440 104.403694 94.322845
53.459915 105.174850 94.030342
54.755623 105.313019 93.480759
54.751358 66.215637 96.378159
54.021118 66.848618 96.635254
53.290894 67.481598 96.892334
52.560654 68.114586 97.149422
51.830429 68.747574 97.406509
54.118927 99.558296 94.171997
53.553452 98.787140 94.464493
52.987968 98.015991 94.756989
52.422493 97.244827 95.049492
51.857010 96.473679 95.341995
50.561302 96.335510 95.891571
49.265594 96.197342 96.441162
49.430344 94.793198 96.476578
48.864868 94.022049 96.769073
49.029617 92.617905 96.804489
48.464142 91.846756 97.096985
47.898666 91.075600 97.389481
47.333183 90.304443 97.681984
46.767708 89.533295 97.974487
46.932457 88.129150 98.009895
46.366982 87.358002 98.302391
46.531738 85.953865 98.337807
46.696487 84.549728 98.373215
47.426720 83.916740 98.116135
48.156952 83.283760 97.859047
48.887184 82.650772 97.601959
49.617416 82.017792 97.344879
50.347649 81.384804 97.087784
50.512398 79.980667 97.123199
51.242630 79.347687 96.866119
51.972862 78.714706 96.609032
52.137619 77.310562 96.644440
52.867851 76.677582 96.387360
53.598083 76.044594 96.130272
54.328316 75.411613 95.873184
54.493065 74.007477 95.908600
52.213829 68.815788 98.327560
52.049072 70.219925 98.292152
51.884323 71.624054 98.256744
51.719566 73.028198 98.221329
51.554817 74.432335 98.185913
50.824585 75.065323 98.443001
50.659828 76.469460 98.407585
49.929596 77.102440 98.664673
49.199364 77.735428 98.921753
49.034607 79.139557 98.886345
48.304375 79.772545 99.143433
47.574150 80.405533 99.400513
47.409393 81.809669 99.365105
46.679161 82.442650 99.622192
45.948929 83.075638 99.879272
45.784180 84.479774 99.843857
45.053947 85.112755 100.100952
45.619423 85.883911 99.808449
45.454674 87.288048 99.773041
45.289917 88.692184 99.737625
45.125160 90.096321 99.702209
44.960411 91.500458 99.666794
45.525887 92.271614 99.374298
45.361137 93.675751 99.338882
45.196388 95.079887 99.303467
44.466148 95.712875 99.560562
45.031631 96.484024 99.268059
46.327339 96.622192 98.718475
46.162590 98.026337 98.683060
46.728065 98.797485 98.390564
47.293549 99.568642 98.098068
47.859024 100.339798 97.805565
49.154732 100.477966 97.255981
49.720215 101.249115 96.963486
51.015923 101.387291 96.413895
51.581406 102.158447 96.121399
52.146881 102.929596 95.828903
52.712357 103.700752 95.536400
53.442589 103.067764 95.279312
54.738297 103.205940 94.729729
54.970001 67.687988 97.263809
54.239769 68.320969 97.520897
52.944054 68.182800 98.070480
53.936852 98.855354 95.385551
53.371368 98.084198 95.678055
53.536125 96.680061 95.713463
52.240410 96.541893 96.263046
51.674934 95.770737 96.555550
51.109459 94.999588 96.848053
50.543976 94.228432 97.140549
49.978500 93.457275 97.433044
50.143250 92.053139 97.468460
48.847542 91.914970 98.018044
48.282066 91.143814 98.310547
47.716583 90.372665 98.603043
47.151108 89.601509 98.895538
47.315857 88.197372 98.930954
46.750381 87.426216 99.223450
46.915138 86.022079 99.258865
47.645370 85.389099 99.001778
48.375603 84.756111 98.744690
48.540352 83.351974 98.780106
49.270584 82.718994 98.523026
50.000816 82.086006 98.265930
50.731049 81.453018 98.008850
51.461281 80.820038 97.751762
52.191513 80.187057 97.494675
52.356262 78.782921 97.530090
53.086494 78.149933 97.273003
53.251251 76.745796 97.308418
53.981483 76.112808 97.051331
54.711716 75.479828 96.794250
54.876465 74.075699 96.829659
53.162704 69.655151 98.956131
52.997955 71.059296 98.920715
52.833199 72.463425 98.885300
52.668449 73.867569 98.849892
51.938217 74.500549 99.106979
51.207985 75.133530 99.364059
51.043228 76.537674 99.328644
50.312996 77.170654 99.585739
49.582764 77.803642 99.842819
50.148239 78.574799 99.550323
49.983490 79.978928 99.514908
49.253258 80.611916 99.771996
48.523026 81.244896 100.029083
47.792793 81.877884 100.286163
47.628044 83.282021 100.250755
46.897812 83.915001 100.507843
46.167580 84.547989 100.764923
45.437347 85.180969 101.022011
46.002823 85.952118 100.729507
45.838074 87.356262 100.694099
45.673317 88.760399 100.658691
46.238792 89.531555 100.366188
46.074043 90.935692 100.330780
46.639519 91.706848 100.038277
46.474770 93.110985 100.002861
46.310013 94.515121 99.967453
46.875496 95.286278 99.674950
46.710739 96.690414 99.639542
47.276222 97.461563 99.347038
47.841698 98.232727 99.054535
48.407181 99.003876 98.762039
48.972656 99.775024 98.469543
49.538132 100.546188 98.177048
50.103615 101.317337 97.884544
51.399323 101.455505 97.334961
51.964806 102.226669 97.042465
52.695030 101.593681 96.785370
53.990738 101.731850 96.235794
54.556221 102.503006 95.943291
54.485001 97.519440 96.342026
54.649757 96.115295 96.377441
53.354042 95.977127 96.927025
52.788567 95.205971 97.219528
52.953323 93.801834 97.254936
52.387840 93.030685 97.547440
51.822365 92.259529 97.839935
50.526649 92.121353 98.389519
49.961174 91.350204 98.682022
49.395699 90.579048 98.974518
48.830215 89.807892 99.267014
48.994972 88.403763 99.302429
48.429489 87.632607 99.594925
48.594246 86.228470 99.630341
49.324478 85.595482 99.373260
49.489235 84.191345 99.408669
50.219467 83.558357 99.151581
50.949692 82.925377 98.894501
51.679924 82.292389 98.637413
51.844681 80.888260 98.672821
52.574913 80.255272 98.415741
52.739662 78.851135 98.451157
53.469894 78.218155 98.194061
54.200127 77.585167 97.936981
54.364883 76.181030 97.972397
53.892937 69.022171 98.699043
54.677063 71.265678 99.292191
53.946831 71.898666 99.549271
53.782082 73.302795 99.513863
53.051849 73.935783 99.770950
52.887093 75.339920 99.735535
52.156860 75.972900 99.992622
51.426628 76.605888 100.249710
50.696396 77.238876 100.506790
49.966164 77.871857 100.763878
49.801407 79.275993 100.728470
49.636658 80.680130 100.693054
49.471909 82.084267 100.657639
48.741676 82.717255 100.914726
48.011444 83.350235 101.171814
47.846687 84.754372 101.136398
47.116455 85.387360 101.393486
46.386223 86.020340 101.650574
46.951706 86.791489 101.358070
46.786949 88.195633 101.322662
46.622192 89.599770 101.287247
46.457443 91.003906 101.251831
46.292686 92.408043 101.216415
46.858170 93.179199 100.923920
46.693413 94.583336 100.888504
47.258896 95.354492 100.596008
47.094139 96.758629 100.560593
47.659622 97.529785 100.268097
48.225098 98.300934 99.975601
48.790581 99.072090 99.683098
49.356056 99.843246 99.390594
49.921532 100.614395 99.098099
50.487015 101.385551 98.805603
51.782722 101.523727 98.256012
52.512955 100.890739 97.998932
53.808662 101.028915 97.449348
54.374138 101.800064 97.156845
54.467674 95.412361 97.591003
54.632431 94.008224 97.626411
54.066956 93.237068 97.918915
53.501472 92.465912 98.211411
52.205765 92.327744 98.760994
52.370514 90.923607 98.796402
51.805038 90.152451 99.088905
51.239563 89.381302 99.381409
51.404312 87.977158 99.416817
50.838837 87.206009 99.709320
51.003586 85.801865 99.744736
51.733818 85.168884 99.487640
51.168343 84.397728 99.780144
