1.0	 -0.0417021427622	 -1.14495069749	 
1.0	 0.14845425661	 -1.07853851154	 
1.0	 0.337311804601	 -1.00599848396	 
1.0	 0.526921319182	 -0.92120277309	 
1.0	 0.718524836477	 -0.818909638338	 
1.0	 0.905919467651	 -0.702033995618	 
1.0	 1.07889001245	 -0.577886647487	 
1.0	 1.22733869894	 -0.453509618772	 
1.0	 1.34539517461	 -0.327523918149	 
1.0	 1.43180069298	 -0.189364238801	 
1.0	 1.48553394669	 -0.0280347816919	 
1.0	 1.50644317522	 0.160185278623	 
1.0	 1.49631669183	 0.362785340651	 
1.0	 1.45720531449	 0.565058584459	 
1.0	 1.39185460741	 0.753294622554	 
1.0	 1.30640613743	 0.918653748325	 
1.0	 1.20803751425	 1.05378218867	 
1.0	 1.10266066374	 1.1524159277	 
1.0	 0.981470993945	 1.22095515557	 
1.0	 0.826169385284	 1.27397051795	 
1.0	 0.618856298529	 1.32588123475	 
1.0	 0.363317543648	 1.37992607452	 
1.0	 0.0915089662217	 1.42482000411	 
1.0	 -0.162748356572	 1.44831072947	 
1.0	 -0.376261293913	 1.44021380805	 
1.0	 -0.554500162204	 1.39592176868	 
1.0	 -0.707719051284	 1.31175790638	 
1.0	 -0.844614543363	 1.18550814874	 
1.0	 -0.964550935509	 1.02372223551	 
1.0	 -1.06343226318	 0.836199387402	 
1.0	 -1.13730454934	 0.63256766919	 
1.0	 -1.1844232315	 0.419814454436	 
1.0	 -1.20474455888	 0.202894307367	 
1.0	 -1.19831916895	 -0.0132678029957	 
1.0	 -1.16823594805	 -0.222385165044	 
1.0	 -1.12229306819	 -0.41606036616	 
1.0	 -1.06869349743	 -0.585715033268	 
1.0	 -1.01439695238	 -0.725247349143	 
1.0	 -0.962287946497	 -0.836673298031	 
1.0	 -0.914417297749	 -0.923669584916	 
1.0	 -0.872485817837	 -0.990435823935	 
1.0	 -0.835607553398	 -1.04503625469	 
1.0	 -0.801737155312	 -1.09726725334	 
1.0	 -0.76848676254	 -1.15625164791	 
1.0	 -0.726807305369	 -1.21763900371	 
1.0	 -0.661543441565	 -1.26472806235	 
1.0	 -0.55741450113	 -1.28045770228	 
1.0	 -0.4095049519	 -1.25775745336	 
1.0	 -0.23213198453	 -1.20809470123	 
1.0	 -0.0417021427622	 -1.14495069749	 
2.0	 0.633129184482	 -1.02494607777	 
2.0	 0.802777193436	 -0.930994336825	 
2.0	 0.93385991688	 -0.828180772283	 
2.0	 1.03885522803	 -0.724929161358	 
2.0	 1.12746080517	 -0.621862870737	 
2.0	 1.20436940383	 -0.505562923539	 
2.0	 1.27345237453	 -0.361931604999	 
2.0	 1.33323371426	 -0.191055953055	 
2.0	 1.37761210211	 -0.00529243746272	 
2.0	 1.40033370801	 0.183623589821	 
2.0	 1.39514470188	 0.370775457777	 
2.0	 1.35579554295	 0.554027637103	 
2.0	 1.28030885422	 0.730768503408	 
2.0	 1.17899616348	 0.896993339041	 
2.0	 1.06424252781	 1.04849016422	 
2.0	 0.943338363206	 1.18277961333	 
2.0	 0.816759426858	 1.29969988818	 
2.0	 0.683682169128	 1.39904093073	 
2.0	 0.533709275804	 1.47815075822	 
2.0	 0.350266810371	 1.53280195258	 
2.0	 0.121360878008	 1.55844222297	 
2.0	 -0.142866659973	 1.54910776878	 
2.0	 -0.425724625615	 1.49843369764	 
2.0	 -0.708044519761	 1.40258158786	 
2.0	 -0.965464905245	 1.26301114833	 
2.0	 -1.17353504362	 1.08224799875	 
2.0	 -1.32078957973	 0.871989746301	 
2.0	 -1.40874854173	 0.653105985544	 
2.0	 -1.44080430596	 0.445364053372	 
2.0	 -1.43073512481	 0.256610492855	 
2.0	 -1.39727115265	 0.0890067866444	 
2.0	 -1.35345573818	 -0.0578205017758	 
2.0	 -1.29296344349	 -0.192713867748	 
2.0	 -1.20555136993	 -0.326228727827	 
2.0	 -1.09178570787	 -0.464194192648	 
2.0	 -0.968986735692	 -0.605113598668	 
2.0	 -0.855202307854	 -0.746536511868	 
2.0	 -0.758258290601	 -0.88137736333	 
2.0	 -0.678338588573	 -0.999085355833	 
2.0	 -0.614223128228	 -1.0907690048	 
2.0	 -0.557864666697	 -1.15728847847	 
2.0	 -0.498850579274	 -1.20289240736	 
2.0	 -0.429492257987	 -1.23127650013	 
2.0	 -0.348784393217	 -1.24477272926	 
2.0	 -0.256482970256	 -1.24544569298	 
2.0	 -0.14494346582	 -1.23347238465	 
2.0	 0.00203440908495	 -1.20684752797	 
2.0	 0.197593670302	 -1.16357782044	 
2.0	 0.421094104968	 -1.10294653623	 
2.0	 0.633129184482	 -1.02494607777	 
3.0	 0.0416311078778	 -1.19355450461	 
3.0	 0.262763438408	 -1.09428645506	 
3.0	 0.485054773736	 -0.976133195785	 
3.0	 0.694178516661	 -0.85534373295	 
3.0	 0.878297068334	 -0.742519955791	 
3.0	 1.03259758751	 -0.632325764797	 
3.0	 1.15352491781	 -0.516650994564	 
3.0	 1.24135413603	 -0.389868380331	 
3.0	 1.30410670502	 -0.251372155	 
3.0	 1.3506598213	 -0.101251653364	 
3.0	 1.38576981599	 0.0557290158898	 
3.0	 1.40813075791	 0.20792861939	 
3.0	 1.41579590303	 0.343755416341	 
3.0	 1.40269357073	 0.467527599711	 
3.0	 1.35829810892	 0.600742387945	 
3.0	 1.2728953633	 0.763959053099	 
3.0	 1.15297142223	 0.949629632367	 
3.0	 1.01787505473	 1.12788955972	 
3.0	 0.885104353035	 1.27052268904	 
3.0	 0.749856137311	 1.37220236441	 
3.0	 0.59437801968	 1.44089268607	 
3.0	 0.403592607973	 1.48434317156	 
3.0	 0.18185804946	 1.50770945861	 
3.0	 -0.0583152217291	 1.51505917537	 
3.0	 -0.305384431703	 1.50678578097	 
3.0	 -0.552559248803	 1.46576119004	 
3.0	 -0.794465011592	 1.36963647064	 
3.0	 -1.0207694785	 1.20570333494	 
3.0	 -1.20450686015	 0.99360096176	 
3.0	 -1.31528764243	 0.759724266844	 
3.0	 -1.34046552382	 0.524484113442	 
3.0	 -1.30969508274	 0.294025025794	 
3.0	 -1.25864059939	 0.0724195261875	 
3.0	 -1.21001714593	 -0.135560349607	 
3.0	 -1.16423852242	 -0.32393785581	 
3.0	 -1.11953438155	 -0.486711707145	 
3.0	 -1.07489100427	 -0.621313941912	 
3.0	 -1.03024762699	 -0.729500788387	 
3.0	 -0.985382766407	 -0.813555453621	 
3.0	 -0.935620967766	 -0.880813799215	 
3.0	 -0.872161839709	 -0.943291079055	 
3.0	 -0.78750521027	 -1.01226153698	 
3.0	 -0.692337694296	 -1.08753754235	 
3.0	 -0.609708502943	 -1.16114017471	 
3.0	 -0.558364177253	 -1.22509306404	 
3.0	 -0.519425954602	 -1.27267521477	 
3.0	 -0.455411082712	 -1.29778635644	 
3.0	 -0.335061978772	 -1.29479591562	 
3.0	 -0.163415640928	 -1.26072965029	 
3.0	 0.0416311078778	 -1.19355450461	 
4.0	 0.7505216759	 -0.984884144143	 
4.0	 0.951773788034	 -0.848112121811	 
4.0	 1.13429308427	 -0.708466959081	 
4.0	 1.29284539547	 -0.575441861051	 
4.0	 1.42219655249	 -0.443643991671	 
4.0	 1.51711238616	 -0.289383388277	 
4.0	 1.57287967689	 -0.0917980079339	 
4.0	 1.58815446137	 0.144418123374	 
4.0	 1.56295715278	 0.404350204157	 
4.0	 1.49985351658	 0.667433864066	 
4.0	 1.40617131325	 0.902569703749	 
4.0	 1.28850438259	 1.08067938627	 
4.0	 1.13972203716	 1.2073851069	 
4.0	 0.944255568087	 1.30965996943	 
4.0	 0.698150541118	 1.40421699031	 
4.0	 0.431797544028	 1.47683366635	 
4.0	 0.181009058716	 1.5085636227	 
4.0	 -0.0352580626489	 1.49890056877	 
4.0	 -0.213784069639	 1.46455462689	 
4.0	 -0.357144075798	 1.41902724162	 
4.0	 -0.49224049465	 1.35769692092	 
4.0	 -0.652483793261	 1.2708043813	 
4.0	 -0.842432661542	 1.15640573694	 
4.0	 -1.02590768904	 1.02359287458	 
4.0	 -1.16794509897	 0.880256258236	 
4.0	 -1.26639991728	 0.71872803017	 
4.0	 -1.33424360913	 0.524243581805	 
4.0	 -1.3784694386	 0.2977993355	 
4.0	 -1.39294314872	 0.0746200214644	 
4.0	 -1.3703629247	 -0.108614248095	 
4.0	 -1.31070161258	 -0.255228036437	 
4.0	 -1.21908463836	 -0.396877560079	 
4.0	 -1.10328891617	 -0.553283854049	 
4.0	 -0.979779681555	 -0.701331921409	 
4.0	 -0.866459296321	 -0.809731230113	 
4.0	 -0.770335205684	 -0.872441987082	 
4.0	 -0.68674557274	 -0.910469856093	 
4.0	 -0.61014379853	 -0.943480944136	 
4.0	 -0.533266032994	 -0.976487690995	 
4.0	 -0.448302739073	 -1.00949443785	 
4.0	 -0.350259936385	 -1.04250118471	 
4.0	 -0.238718486949	 -1.07550793157	 
4.0	 -0.115248870444	 -1.10868012578	 
4.0	 0.00429244831771	 -1.14368821884	 
4.0	 0.0964713256138	 -1.18298648717	 
4.0	 0.156549486391	 -1.22141073041	 
4.0	 0.226958244168	 -1.23462969654	 
4.0	 0.354629033712	 -1.19687333242	 
4.0	 0.541005086166	 -1.10720339963	 
4.0	 0.7505216759	 -0.984884144143	 
5.0	 0.572106159571	 -1.04173200574	 
5.0	 0.718895308078	 -0.91682395867	 
5.0	 0.848944191439	 -0.786218565295	 
5.0	 0.969638220746	 -0.65475319512	 
5.0	 1.08739194466	 -0.526099391691	 
5.0	 1.19968301734	 -0.393197143611	 
5.0	 1.2991727108	 -0.243202856616	 
5.0	 1.37855901133	 -0.0638996843506	 
5.0	 1.43279528213	 0.138463606572	 
5.0	 1.45929523128	 0.337494487391	 
5.0	 1.45559541385	 0.505849995729	 
5.0	 1.41888445004	 0.630772375745	 
5.0	 1.34557467124	 0.732045393741	 
5.0	 1.23197337192	 0.833855897238	 
5.0	 1.07772374251	 0.954928288521	 
5.0	 0.898775231688	 1.08728588463	 
5.0	 0.7160519552	 1.21480611123	 
5.0	 0.547865477586	 1.32216067813	 
5.0	 0.382142323302	 1.40327798986	 
5.0	 0.187205765133	 1.45805851206	 
5.0	 -0.0680285716153	 1.48646784568	 
5.0	 -0.378916083966	 1.4871343277	 
5.0	 -0.69439896322	 1.45694914199	 
5.0	 -0.960347677516	 1.39268801258	 
5.0	 -1.14102765693	 1.29151532521	 
5.0	 -1.25031532911	 1.1516436818	 
5.0	 -1.31036692732	 0.971460625868	 
5.0	 -1.34120196081	 0.751802882973	 
5.0	 -1.35003710075	 0.508182205036	 
5.0	 -1.33934193135	 0.261551608296	 
5.0	 -1.31144531891	 0.0321183976283	 
5.0	 -1.26668699234	 -0.171201617485	 
5.0	 -1.20387543865	 -0.348184843076	 
5.0	 -1.12184054127	 -0.498861139449	 
5.0	 -1.02305930021	 -0.625051985247	 
5.0	 -0.915661746211	 -0.731355867527	 
5.0	 -0.808263766713	 -0.822609837285	 
5.0	 -0.707740115706	 -0.902347602896	 
5.0	 -0.615258356779	 -0.969830699097	 
5.0	 -0.530818489933	 -1.02344666939	 
5.0	 -0.454105404294	 -1.06268382757	 
5.0	 -0.38247512269	 -1.09516586798	 
5.0	 -0.312239863183	 -1.13216278659	 
5.0	 -0.239551309915	 -1.18406485497	 
5.0	 -0.157485715969	 -1.24353583398	 
5.0	 -0.0563001133004	 -1.28698974507	 
5.0	 0.0737632369559	 -1.29036204854	 
5.0	 0.233230674509	 -1.24220693094	 
5.0	 0.405499491293	 -1.1544928805	 
5.0	 0.572106159571	 -1.04173200574	 
6.0	 0.641705693686	 -1.01128572715	 
6.0	 0.793095114413	 -0.882118328313	 
6.0	 0.924979016802	 -0.730149548271	 
6.0	 1.04267708767	 -0.569933460134	 
6.0	 1.15123194683	 -0.415397503308	 
6.0	 1.24931367255	 -0.266056542021	 
6.0	 1.32921980165	 -0.107012865329	 
6.0	 1.38297080388	 0.0772578714181	 
6.0	 1.40495145428	 0.294517840545	 
6.0	 1.39900374888	 0.521480525077	 
6.0	 1.37133398897	 0.727097235716	 
6.0	 1.32792682221	 0.88147148062	 
6.0	 1.26966886309	 0.981207309394	 
6.0	 1.19234869287	 1.0494093131	 
6.0	 1.09153323919	 1.11033428025	 
6.0	 0.963084967871	 1.18209394627	 
6.0	 0.804048497342	 1.25821983423	 
6.0	 0.611763984194	 1.32609841409	 
6.0	 0.384014892252	 1.37335872371	 
6.0	 0.128780751745	 1.39320886231	 
6.0	 -0.135762840695	 1.38443599046	 
6.0	 -0.390996981202	 1.34606983663	 
6.0	 -0.620667071162	 1.27778697696	 
6.0	 -0.817975732973	 1.18185137839	 
6.0	 -0.978489894284	 1.06117385553	 
6.0	 -1.09805354977	 0.918725864979	 
6.0	 -1.1788832356	 0.75887362867	 
6.0	 -1.22956802946	 0.587378133874	 
6.0	 -1.25897407605	 0.410061009834	 
6.0	 -1.27434206019	 0.232097038101	 
6.0	 -1.27641082729	 0.0560736094489	 
6.0	 -1.26429376287	 -0.116068733041	 
6.0	 -1.23712272359	 -0.282429874268	 
6.0	 -1.19445440223	 -0.442039542692	 
6.0	 -1.13627032765	 -0.594857310333	 
6.0	 -1.06257049984	 -0.740883177189	 
6.0	 -0.974241533283	 -0.878985159797	 
6.0	 -0.875716500321	 -1.00350334084	 
6.0	 -0.772315087775	 -1.10764581953	 
6.0	 -0.669227684521	 -1.18488347695	 
6.0	 -0.568670826733	 -1.23473117735	 
6.0	 -0.469887197884	 -1.26274776808	 
6.0	 -0.371990183505	 -1.2747548784	 
6.0	 -0.272763247421	 -1.275603866	 
6.0	 -0.164670166639	 -1.26626500242	 
6.0	 -0.0388447964602	 -1.24673828766	 
6.0	 0.11306181604	 -1.21686200981	 
6.0	 0.287503212983	 -1.1727550827	 
6.0	 0.469037525684	 -1.10681704592	 
6.0	 0.641705693686	 -1.01128572715	 
7.0	 -0.207765512039	 -0.89332043454	 
7.0	 -0.0982703282353	 -0.715793042373	 
7.0	 -0.0022650642782	 -0.583112862244	 
7.0	 0.113617067335	 -0.505970324178	 
7.0	 0.250528748017	 -0.469171875547	 
7.0	 0.394380685677	 -0.446008733381	 
7.0	 0.53729550933	 -0.428478826556	 
7.0	 0.677002939453	 -0.425166864675	 
7.0	 0.811427603762	 -0.438562329417	 
7.0	 0.938496728736	 -0.460375165583	 
7.0	 1.0606178086	 -0.473336769119	 
7.0	 1.19387043071	 -0.435766302753	 
7.0	 1.34980297893	 -0.311786040357	 
7.0	 1.49683996076	 -0.128682255628	 
7.0	 1.58905863184	 0.0666119849452	 
7.0	 1.60368914885	 0.278861034234	 
7.0	 1.53488319014	 0.547531471282	 
7.0	 1.40331573602	 0.858273394696	 
7.0	 1.2627934637	 1.12763899572	 
7.0	 1.14563355271	 1.29534708794	 
7.0	 1.02866231193	 1.36599149589	 
7.0	 0.888270140188	 1.35548290476	 
7.0	 0.735332211754	 1.28896815365	 
7.0	 0.587141963793	 1.1957245361	 
7.0	 0.428486756339	 1.11898214509	 
7.0	 0.228115779848	 1.10768580295	 
7.0	 -0.00463179040054	 1.16646761608	 
7.0	 -0.219967127519	 1.25558433192	 
7.0	 -0.397840253737	 1.3348916083	 
7.0	 -0.575712048089	 1.36703619946	 
7.0	 -0.780964508873	 1.322016719	 
7.0	 -0.984424602684	 1.19446152437	 
7.0	 -1.14875278024	 0.986484818902	 
7.0	 -1.26567613882	 0.714945126611	 
7.0	 -1.33937105326	 0.402820488112	 
7.0	 -1.37516693721	 0.0706407168611	 
7.0	 -1.3793327546	 -0.263050028243	 
7.0	 -1.3614033676	 -0.58156955181	 
7.0	 -1.33553579855	 -0.870818669701	 
7.0	 -1.30817861844	 -1.11464707252	 
7.0	 -1.26421846006	 -1.29088883185	 
7.0	 -1.18809548867	 -1.3827637275	 
7.0	 -1.08065638134	 -1.40705835997	 
7.0	 -0.949330124927	 -1.3915589874	 
7.0	 -0.814824704052	 -1.36405824822	 
7.0	 -0.704935807625	 -1.35089871001	 
7.0	 -0.614873655209	 -1.33670730136	 
7.0	 -0.503198758779	 -1.25939401745	 
7.0	 -0.353925606196	 -1.09330652444	 
7.0	 -0.207765512039	 -0.89332043454	 
8.0	 -0.244358672099	 -0.929647250111	 
8.0	 -0.129399430169	 -0.831675050148	 
8.0	 -0.0149525794661	 -0.740304935821	 
8.0	 0.108498998078	 -0.662230527931	 
8.0	 0.237040267488	 -0.605828085086	 
8.0	 0.354973330507	 -0.580945649586	 
8.0	 0.453647071241	 -0.590910672592	 
8.0	 0.546538110973	 -0.619526587519	 
8.0	 0.65007502395	 -0.647893686343	 
8.0	 0.766609868907	 -0.668314762475	 
8.0	 0.889010373445	 -0.680639480922	 
8.0	 1.01203550729	 -0.682992849364	 
8.0	 1.13506064113	 -0.66933616014	 
8.0	 1.25715935334	 -0.630282072737	 
8.0	 1.36934192281	 -0.532201213448	 
8.0	 1.45849323856	 -0.329561473427	 
8.0	 1.51350270681	 -0.0215507961413	 
8.0	 1.52671569061	 0.316664422927	 
8.0	 1.49126184707	 0.612018626963	 
8.0	 1.40310737625	 0.851142042379	 
8.0	 1.2596966354	 1.04378017284	 
8.0	 1.07304593081	 1.19562401615	 
8.0	 0.874097836743	 1.30703008495	 
8.0	 0.688993120184	 1.37799837923	 
8.0	 0.515672517383	 1.40852889899	 
8.0	 0.343797589833	 1.39958444839	 
8.0	 0.160924550567	 1.37427232715	 
8.0	 -0.0474938753683	 1.37784240495	 
8.0	 -0.287061784034	 1.43868199952	 
8.0	 -0.532265996207	 1.5237842588	 
8.0	 -0.752480156203	 1.58610272054	 
8.0	 -0.940735743321	 1.56614379041	 
8.0	 -1.1082571449	 1.39493602992	 
8.0	 -1.25827797659	 1.049703344	 
8.0	 -1.37228502482	 0.627061203996	 
8.0	 -1.43074569199	 0.234809014348	 
8.0	 -1.43918306754	 -0.0991286034021	 
8.0	 -1.4178712524	 -0.393819916777	 
8.0	 -1.38358495937	 -0.653339650504	 
8.0	 -1.34593152398	 -0.85145998782	 
8.0	 -1.30944731658	 -0.963823634121	 
8.0	 -1.24727718092	 -1.00562859054	 
8.0	 -1.11932262996	 -1.00973089273	 
8.0	 -0.929538409017	 -1.00529236557	 
8.0	 -0.747293658995	 -1.01587358324	 
8.0	 -0.631776154622	 -1.0561592347	 
8.0	 -0.558473099549	 -1.09527796753	 
8.0	 -0.475814329644	 -1.08817983143	 
8.0	 -0.364954217537	 -1.02376823345	 
8.0	 -0.244358672099	 -0.929647250111	 
9.0	 -0.35804491026	 -0.915971206027	 
9.0	 -0.256761973895	 -0.810142640898	 
9.0	 -0.173654625903	 -0.729904590528	 
9.0	 -0.0884544742219	 -0.656808171749	 
9.0	 -0.00503711993049	 -0.60215413337	 
9.0	 0.0859990570379	 -0.575291199469	 
9.0	 0.215384998121	 -0.576871372052	 
9.0	 0.376056829787	 -0.606894651118	 
9.0	 0.530128295656	 -0.662706845717	 
9.0	 0.669066420101	 -0.717824770319	 
9.0	 0.80043648638	 -0.737327566359	 
9.0	 0.931944057559	 -0.706933430462	 
9.0	 1.06602720129	 -0.640238323063	 
9.0	 1.19007229143	 -0.611721363716	 
9.0	 1.29675493946	 -0.649978739368	 
9.0	 1.3920121447	 -0.684746650178	 
9.0	 1.47230971782	 -0.599567823353	 
9.0	 1.52428657013	 -0.262754574882	 
9.0	 1.55175052964	 0.189282278427	 
9.0	 1.56357764866	 0.499274794634	 
9.0	 1.52896392402	 0.741339597164	 
9.0	 1.4124258767	 1.06214150508	 
9.0	 1.21697235679	 1.40533456599	 
9.0	 0.962233951703	 1.67607080178	 
9.0	 0.684605126754	 1.79564442652	 
9.0	 0.420979145319	 1.74308487657	 
9.0	 0.202845608944	 1.57161597953	 
9.0	 0.0100425841349	 1.3851556148	 
9.0	 -0.207448740369	 1.30719505933	 
9.0	 -0.416696822388	 1.33043004598	 
9.0	 -0.572237096536	 1.38588651263	 
9.0	 -0.75135103842	 1.40943834332	 
9.0	 -1.00496824971	 1.34821471786	 
9.0	 -1.22805144016	 1.17515357166	 
9.0	 -1.351940711	 0.896253110864	 
9.0	 -1.40296890355	 0.562680165059	 
9.0	 -1.41187234584	 0.233316301619	 
9.0	 -1.40331935823	 -0.0365753706103	 
9.0	 -1.37673331462	 -0.265797140323	 
9.0	 -1.32048675887	 -0.502737031901	 
9.0	 -1.24296970981	 -0.719338322708	 
9.0	 -1.1556197219	 -0.875323930488	 
9.0	 -1.05717662736	 -0.977035447325	 
9.0	 -0.948783101058	 -1.04014560536	 
9.0	 -0.841017161221	 -1.08032713674	 
9.0	 -0.747212375972	 -1.11325277361	 
9.0	 -0.679632863519	 -1.15068323608	 
9.0	 -0.610005141796	 -1.15219891182	 
9.0	 -0.49224175997	 -1.05648294692	 
9.0	 -0.35804491026	 -0.915971206027	 
10.0	 -0.394406229078	 -0.959946861421	 
10.0	 -0.198177259392	 -0.819648406921	 
10.0	 -0.0396399326369	 -0.69987025378	 
10.0	 0.0705941804779	 -0.631990077213	 
10.0	 0.159839660923	 -0.602300985439	 
10.0	 0.264780396026	 -0.583724254359	 
10.0	 0.380816887557	 -0.578090106998	 
10.0	 0.482990552497	 -0.601600972731	 
10.0	 0.568578261966	 -0.656480023591	 
10.0	 0.651516288702	 -0.734089914161	 
10.0	 0.740501647387	 -0.819487490595	 
10.0	 0.838233018117	 -0.891391109126	 
10.0	 0.946198849532	 -0.931502691418	 
10.0	 1.06451140646	 -0.926380059867	 
10.0	 1.19317068889	 -0.854074713996	 
10.0	 1.33217217298	 -0.673723515758	 
10.0	 1.47269377271	 -0.371637723166	 
10.0	 1.57869109446	 -0.0254991735299	 
10.0	 1.61525825963	 0.290274412039	 
10.0	 1.57654831652	 0.596260453373	 
10.0	 1.4672705334	 0.929102320335	 
10.0	 1.30765293628	 1.25073437525	 
10.0	 1.12275070582	 1.49513786324	 
10.0	 0.9205022126	 1.62929741626	 
10.0	 0.699493019596	 1.64217392523	 
10.0	 0.473287312336	 1.56117589486	 
10.0	 0.267565362033	 1.44555873066	 
10.0	 0.0882221198496	 1.34422047338	 
10.0	 -0.082768985194	 1.29217587492	 
10.0	 -0.263970567829	 1.29325632159	 
10.0	 -0.472465974916	 1.30039903726	 
10.0	 -0.709693194133	 1.27320506789	 
10.0	 -0.939847097315	 1.1989464244	 
10.0	 -1.12808267835	 1.07224222618	 
10.0	 -1.2621563187	 0.899226155177	 
10.0	 -1.33817168048	 0.688558155074	 
10.0	 -1.36984686013	 0.448898169566	 
10.0	 -1.37485949292	 0.190289797358	 
10.0	 -1.35724083411	 -0.0664063218663	 
10.0	 -1.31527358113	 -0.29784237397	 
10.0	 -1.25546011269	 -0.512541586047	 
10.0	 -1.18978232891	 -0.738164128102	 
10.0	 -1.12912805514	 -0.955837296898	 
10.0	 -1.08293957819	 -1.10351577862	 
10.0	 -1.04770608588	 -1.16522401633	 
10.0	 -1.00275934105	 -1.18828386557	 
10.0	 -0.926244525538	 -1.19790011369	 
10.0	 -0.796331070363	 -1.16931887121	 
10.0	 -0.60687674238	 -1.08468251856	 
10.0	 -0.394406229078	 -0.959946861421	 
11.0	 -0.327858498133	 -0.912882227013	 
11.0	 -0.155832555337	 -0.744075954969	 
11.0	 0.0139031625815	 -0.607566442934	 
11.0	 0.182268404699	 -0.553528736343	 
11.0	 0.327841353555	 -0.558251934897	 
11.0	 0.444345851547	 -0.587543270515	 
11.0	 0.551106473784	 -0.608968862366	 
11.0	 0.665711921961	 -0.621670373472	 
11.0	 0.799668086184	 -0.648395499835	 
11.0	 0.938269280093	 -0.679520768557	 
11.0	 1.0582281683	 -0.694184300291	 
11.0	 1.16215493713	 -0.7030006249	 
11.0	 1.25751717122	 -0.701541921077	 
11.0	 1.34235051384	 -0.614544954755	 
11.0	 1.4080689238	 -0.420133974762	 
11.0	 1.43808290119	 -0.206585896182	 
11.0	 1.42667878809	 0.00662876107296	 
11.0	 1.38078263066	 0.277506777831	 
11.0	 1.31200954754	 0.593426379207	 
11.0	 1.23315030292	 0.898574410319	 
11.0	 1.14779105187	 1.16727627097	 
11.0	 1.05261528779	 1.38964183228	 
11.0	 0.932392021701	 1.56933131688	 
11.0	 0.768165923044	 1.69274891722	 
11.0	 0.539963345992	 1.7054058988	 
11.0	 0.272555540686	 1.61057138881	 
11.0	 0.0443529636338	 1.48955676141	 
11.0	 -0.119873135023	 1.3923395455	 
11.0	 -0.244584766908	 1.33698853643	 
11.0	 -0.3888708425	 1.31524869006	 
11.0	 -0.605395689882	 1.30464388836	 
11.0	 -0.847006750877	 1.27348625032	 
11.0	 -1.06010025932	 1.17044359985	 
11.0	 -1.24620959481	 0.902009263775	 
11.0	 -1.39451458978	 0.489205462472	 
11.0	 -1.46358128137	 0.133232104321	 
11.0	 -1.45653958503	 -0.12297913798	 
11.0	 -1.4189736632	 -0.390035780381	 
11.0	 -1.37073927001	 -0.655637135398	 
11.0	 -1.31435908175	 -0.846239538206	 
11.0	 -1.24512691166	 -0.967976134539	 
11.0	 -1.16253296599	 -1.04936805559	 
11.0	 -1.08720271776	 -1.10087296455	 
11.0	 -1.02678643525	 -1.12932941502	 
11.0	 -0.956928881829	 -1.14157596063	 
11.0	 -0.868689311325	 -1.14445115498	 
11.0	 -0.773364244017	 -1.14308660591	 
11.0	 -0.659656796141	 -1.11984584242	 
11.0	 -0.50511786891	 -1.0445830137	 
11.0	 -0.327858498133	 -0.912882227013	 
12.0	 0.100163756243	 -1.16585192092	 
12.0	 0.270874072113	 -1.03156438902	 
12.0	 0.433844217271	 -0.863279246494	 
12.0	 0.587083757758	 -0.713512181166	 
12.0	 0.73137263528	 -0.6125279364	 
12.0	 0.87530968686	 -0.527791900352	 
12.0	 1.02878323691	 -0.415929173887	 
12.0	 1.1904144889	 -0.256035649384	 
12.0	 1.33603766056	 -0.0726528666262	 
12.0	 1.43907406722	 0.104503310196	 
12.0	 1.4905274614	 0.261834244237	 
12.0	 1.50726736269	 0.409451575241	 
12.0	 1.50762774418	 0.559078034205	 
12.0	 1.49387318948	 0.714830724188	 
12.0	 1.45091708165	 0.87261444026	 
12.0	 1.36368920468	 1.02797652872	 
12.0	 1.23090825476	 1.17726300648	 
12.0	 1.06224105882	 1.31745401958	 
12.0	 0.867656018528	 1.44466718236	 
12.0	 0.657121535554	 1.54611979248	 
12.0	 0.440606011576	 1.60386118893	 
12.0	 0.226964341481	 1.60309108772	 
12.0	 0.0174163508531	 1.55104712635	 
12.0	 -0.190020684126	 1.46421080501	 
12.0	 -0.396370859652	 1.35575777015	 
12.0	 -0.59802978591	 1.22293160741	 
12.0	 -0.790013262064	 1.0582279295	 
12.0	 -0.965957276252	 0.858593475062	 
12.0	 -1.11486933061	 0.635911289785	 
12.0	 -1.22480743006	 0.405185055639	 
12.0	 -1.28970092013	 0.179007012157	 
12.0	 -1.31747677338	 -0.0357796241271	 
12.0	 -1.31806112096	 -0.233195543368	 
12.0	 -1.29794840465	 -0.409328619189	 
12.0	 -1.25772297201	 -0.563826851881	 
12.0	 -1.19746601625	 -0.696672773867	 
12.0	 -1.12020630424	 -0.807214788465	 
12.0	 -1.03268500228	 -0.894002628364	 
12.0	 -0.941830687197	 -0.955757850182	 
12.0	 -0.853580438672	 -0.995681451256	 
12.0	 -0.772953085545	 -1.02112295326	 
12.0	 -0.704437722578	 -1.03952053982	 
12.0	 -0.646338152404	 -1.05746559898	 
12.0	 -0.592753681812	 -1.08097390351	 
12.0	 -0.537108912556	 -1.11504326871	 
12.0	 -0.467901530551	 -1.15632435014	 
12.0	 -0.371193087457	 -1.19734051512	 
12.0	 -0.236565862944	 -1.22835142453	 
12.0	 -0.0738009495848	 -1.22686062021	 
12.0	 0.100163756243	 -1.16585192092	 
13.0	 -0.12077044843	 -1.05589672264	 
13.0	 0.0498992542199	 -1.07105891842	 
13.0	 0.218986257106	 -1.07111504501	 
13.0	 0.381531597132	 -1.04576028135	 
13.0	 0.532163326809	 -0.992774113294	 
13.0	 0.664766041787	 -0.924489442032	 
13.0	 0.773394352634	 -0.854415055355	 
13.0	 0.85655108031	 -0.78984008403	 
13.0	 0.916586628832	 -0.732673821803	 
13.0	 0.957411872251	 -0.682309567027	 
13.0	 0.992468289721	 -0.622593554267	 
13.0	 1.0390787836	 -0.531036445316	 
13.0	 1.10809061001	 -0.391834498729	 
13.0	 1.19169079945	 -0.208468948558	 
13.0	 1.27870735777	 0.012047698307	 
13.0	 1.35695924536	 0.25917572068	 
13.0	 1.41291571019	 0.517657349204	 
13.0	 1.43331877454	 0.772162008341	 
13.0	 1.40917686872	 1.0103418496	 
13.0	 1.3342509444	 1.2217733645	 
13.0	 1.20426082384	 1.39728094543	 
13.0	 1.02396876538	 1.53343602031	 
13.0	 0.800810718138	 1.62850960328	 
13.0	 0.542958725369	 1.68128730117	 
13.0	 0.260127601548	 1.69163330151	 
13.0	 -0.0375413325573	 1.65958368565	 
13.0	 -0.334565144476	 1.58600440663	 
13.0	 -0.610119290036	 1.47259128907	 
13.0	 -0.844992473001	 1.32175530139	 
13.0	 -1.03462972366	 1.14130031551	 
13.0	 -1.18146526768	 0.941601632408	 
13.0	 -1.28797637423	 0.731014688961	 
13.0	 -1.35664031253	 0.51099847939	 
13.0	 -1.38994199765	 0.281659911474	 
13.0	 -1.39082509824	 0.049520359743	 
13.0	 -1.36294435096	 -0.168956377808	 
13.0	 -1.31010988813	 -0.357175887614	 
13.0	 -1.23748155454	 -0.508923462089	 
13.0	 -1.15122824037	 -0.625744265103	 
13.0	 -1.05783309616	 -0.709978389157	 
13.0	 -0.965401900791	 -0.76736915772	 
13.0	 -0.882593061226	 -0.804845679715	 
13.0	 -0.814177614439	 -0.830244295355	 
13.0	 -0.755395992301	 -0.85362235397	 
13.0	 -0.699928156641	 -0.885092539559	 
13.0	 -0.637606486239	 -0.92631350652	 
13.0	 -0.553815149478	 -0.969170162502	 
13.0	 -0.435479209881	 -1.00565541181	 
13.0	 -0.286623238756	 -1.03399933677	 
13.0	 -0.12077044843	 -1.05589672264	 
14.0	 0.0997016690576	 -1.2060266942	 
14.0	 0.277008498936	 -1.11558342148	 
14.0	 0.459499593985	 -1.00168266121	 
14.0	 0.629562755446	 -0.893704497316	 
14.0	 0.779818249515	 -0.804293243732	 
14.0	 0.915463541738	 -0.725522499958	 
14.0	 1.0417256897	 -0.648431390088	 
14.0	 1.15902830209	 -0.565537873026	 
14.0	 1.26587023537	 -0.469913403093	 
14.0	 1.35929587526	 -0.3509119439	 
14.0	 1.43363399339	 -0.190920338962	 
14.0	 1.48331319826	 0.0257422746675	 
14.0	 1.50711024321	 0.28530622609	 
14.0	 1.50647637145	 0.555877451306	 
14.0	 1.48055917978	 0.809933411555	 
14.0	 1.42165120974	 1.03351882099	 
14.0	 1.32087035102	 1.21525841369	 
14.0	 1.17081329773	 1.34605331672	 
14.0	 0.965457415936	 1.41892999022	 
14.0	 0.703274363564	 1.43220533919	 
14.0	 0.403545424996	 1.40860254166	 
14.0	 0.0916413182221	 1.37773776143	 
14.0	 -0.207066477206	 1.35746860847	 
14.0	 -0.467206481739	 1.34904911416	 
14.0	 -0.667201416443	 1.35021840464	 
14.0	 -0.814483055053	 1.34142980174	 
14.0	 -0.929841114686	 1.29521117582	 
14.0	 -1.02808996779	 1.1940213276	 
14.0	 -1.11094312433	 1.04192631312	 
14.0	 -1.17821258778	 0.846204136605	 
14.0	 -1.22722125721	 0.619241595672	 
14.0	 -1.25352956434	 0.377043779329	 
14.0	 -1.25614030074	 0.135692367176	 
14.0	 -1.24594747317	 -0.0887309611892	 
14.0	 -1.23569567909	 -0.280592179194	 
14.0	 -1.22018078025	 -0.435946592257	 
14.0	 -1.17497418089	 -0.563369667069	 
14.0	 -1.08129664596	 -0.671502407751	 
14.0	 -0.956602803849	 -0.765970873334	 
14.0	 -0.83055055632	 -0.851334548619	 
14.0	 -0.720496544364	 -0.929679968985	 
14.0	 -0.623795942697	 -0.999077687919	 
14.0	 -0.536468983921	 -1.05768986617	 
14.0	 -0.459061924128	 -1.10785893655	 
14.0	 -0.394521311416	 -1.15415119438	 
14.0	 -0.33970067006	 -1.19821194179	 
14.0	 -0.276082487807	 -1.23429230684	 
14.0	 -0.183641436172	 -1.25527723572	 
14.0	 -0.0565015359314	 -1.25042154853	 
14.0	 0.0997016690576	 -1.2060266942	 
15.0	 -0.204568163328	 -1.17890776157	 
15.0	 0.0331113816848	 -1.13202190652	 
15.0	 0.256318129293	 -1.04542483534	 
15.0	 0.410769155411	 -0.966248073386	 
15.0	 0.50763303407	 -0.89465926846	 
15.0	 0.58879973024	 -0.809546401197	 
15.0	 0.678913192746	 -0.716494889925	 
15.0	 0.787013700503	 -0.644668169574	 
15.0	 0.914627087857	 -0.606345257137	 
15.0	 1.05201993116	 -0.585210032288	 
15.0	 1.18936482275	 -0.556633897418	 
15.0	 1.31966889398	 -0.478547674897	 
15.0	 1.43555418083	 -0.314905964154	 
15.0	 1.52405486283	 -0.0861471150944	 
15.0	 1.57103905772	 0.167462914802	 
15.0	 1.57438611436	 0.422518788531	 
15.0	 1.54015677261	 0.667388815593	 
15.0	 1.46643929455	 0.88909284182	 
15.0	 1.34103444735	 1.07267072866	 
15.0	 1.16274182179	 1.21328531629	 
15.0	 0.957752752362	 1.33017632026	 
15.0	 0.74807808649	 1.44055356808	 
15.0	 0.51855134325	 1.5364897817	 
15.0	 0.24818455535	 1.60455478626	 
15.0	 -0.0386496057878	 1.64726661377	 
15.0	 -0.294427555827	 1.67462114557	 
15.0	 -0.510543847664	 1.66770827875	 
15.0	 -0.71729662427	 1.57898044672	 
15.0	 -0.920412882893	 1.39458350095	 
15.0	 -1.07766746799	 1.16445736337	 
15.0	 -1.15934365113	 0.931650814591	 
15.0	 -1.19721028537	 0.691452134673	 
15.0	 -1.23075075899	 0.432185649247	 
15.0	 -1.25973043184	 0.166252559292	 
15.0	 -1.26766674375	 -0.0843431845711	 
15.0	 -1.24834523325	 -0.307649099682	 
15.0	 -1.20378253262	 -0.499637080752	 
15.0	 -1.14041737187	 -0.655017697792	 
15.0	 -1.07069045978	 -0.766398938053	 
15.0	 -1.00436939907	 -0.831737771634	 
15.0	 -0.942840007767	 -0.863726060062	 
15.0	 -0.885024719248	 -0.876544722993	 
15.0	 -0.82417688884	 -0.87939165722	 
15.0	 -0.753396891088	 -0.880231435332	 
15.0	 -0.684550350936	 -0.891426424638	 
15.0	 -0.639950406912	 -0.927649714202	 
15.0	 -0.608177816049	 -0.991694013189	 
15.0	 -0.539762773984	 -1.07286271746	 
15.0	 -0.40257790104	 -1.14952286817	 
15.0	 -0.204568163328	 -1.17890776157	 
16.0	 0.778817721302	 -0.909434910685	 
16.0	 0.903398225899	 -0.766052262103	 
16.0	 1.00339137796	 -0.585615878204	 
16.0	 1.08925797837	 -0.381506274518	 
16.0	 1.17142073682	 -0.167082041289	 
16.0	 1.25467614893	 0.0475366773566	 
16.0	 1.3322988221	 0.258861730641	 
16.0	 1.39615257784	 0.464217015457	 
16.0	 1.43811076049	 0.660897194983	 
16.0	 1.45031101628	 0.84538556143	 
16.0	 1.42518320049	 1.01326836501	 
16.0	 1.35517229024	 1.16008543388	 
16.0	 1.2335267493	 1.28162325569	 
16.0	 1.06201706986	 1.37628446497	 
16.0	 0.847546579889	 1.44404740714	 
16.0	 0.597089146652	 1.48491208219	 
16.0	 0.318761373972	 1.49899542498	 
16.0	 0.0264418237887	 1.48700398466	 
16.0	 -0.264178963856	 1.44982972794	 
16.0	 -0.537416136148	 1.38836035825	 
16.0	 -0.780237734935	 1.30167379546	 
16.0	 -0.98635712202	 1.18424635597	 
16.0	 -1.15054389695	 1.02983379919	 
16.0	 -1.26769440958	 0.832471025921	 
16.0	 -1.33811167024	 0.598099992007	 
16.0	 -1.36941268823	 0.348770227909	 
16.0	 -1.36973364202	 0.107674627215	 
16.0	 -1.34693983919	 -0.103067984875	 
16.0	 -1.3050805879	 -0.276470141149	 
16.0	 -1.24538432996	 -0.416729789722	 
16.0	 -1.16901337656	 -0.528307102437	 
16.0	 -1.07736475842	 -0.615932460003	 
16.0	 -0.973334466237	 -0.68606184443	 
16.0	 -0.860408022865	 -0.745829906574	 
16.0	 -0.742072538282	 -0.802371973995	 
16.0	 -0.622298316632	 -0.860227528528	 
16.0	 -0.50659218422	 -0.915681452068	 
16.0	 -0.400765697102	 -0.963381538403	 
16.0	 -0.31057680147	 -0.998031883291	 
16.0	 -0.237882488316	 -1.01843343067	 
16.0	 -0.178063007039	 -1.03018910648	 
16.0	 -0.125887957188	 -1.0395431513	 
16.0	 -0.0759757197027	 -1.05243806232	 
16.0	 -0.020022585284	 -1.06898556378	 
16.0	 0.0529181745269	 -1.08402346861	 
16.0	 0.153888516235	 -1.0921995706	 
16.0	 0.291549695185	 -1.08782331035	 
16.0	 0.455119780343	 -1.06244079789	 
16.0	 0.624322604446	 -1.00624879068	 
16.0	 0.778817721302	 -0.909434910685	 
17.0	 0.502204951017	 -1.19332029352	 
17.0	 0.647136194871	 -1.14014212084	 
17.0	 0.739671647003	 -1.05496086041	 
17.0	 0.804722143414	 -0.944334522007	 
17.0	 0.865397435908	 -0.815079743901	 
17.0	 0.928228100044	 -0.676393867634	 
17.0	 0.99080965582	 -0.538757272932	 
17.0	 1.05073540894	 -0.412107368698	 
17.0	 1.10788086672	 -0.291361292532	 
17.0	 1.16461114391	 -0.155050873142	 
17.0	 1.22339905615	 0.0190476730315	 
17.0	 1.28284461446	 0.237586791115	 
17.0	 1.33290709121	 0.472477213596	 
17.0	 1.3623766102	 0.69092889155	 
17.0	 1.36071840964	 0.866550061862	 
17.0	 1.32069776767	 1.00422454729	 
17.0	 1.23608672925	 1.11837763762	 
17.0	 1.10158020895	 1.22233585644	 
17.0	 0.922598620157	 1.31662546379	 
17.0	 0.711482052919	 1.39351448519	 
17.0	 0.480646067901	 1.44524523224	 
17.0	 0.240956771769	 1.46841103747	 
17.0	 0.00126747563738	 1.46525736343	 
17.0	 -0.229704996158	 1.43840482322	 
17.0	 -0.444444706099	 1.38889330668	 
17.0	 -0.6386744944	 1.31349951151	 
17.0	 -0.80865773566	 1.20828863186	 
17.0	 -0.951198338865	 1.07003736543	 
17.0	 -1.06633899073	 0.89978560206	 
17.0	 -1.1553232648	 0.700153954855	 
17.0	 -1.21953122138	 0.474426675113	 
17.0	 -1.26235571634	 0.235779241692	 
17.0	 -1.28873905953	 0.00500142001376	 
17.0	 -1.3035942214	 -0.197123566319	 
17.0	 -1.30768236638	 -0.361956956268	 
17.0	 -1.29532935959	 -0.499683905771	 
17.0	 -1.26030816863	 -0.622107925655	 
17.0	 -1.19916036986	 -0.737321956234	 
17.0	 -1.11750264945	 -0.841256209981	 
17.0	 -1.0228082582	 -0.927352677113	 
17.0	 -0.922125301972	 -0.990284504881	 
17.0	 -0.819359799855	 -1.03382386051	 
17.0	 -0.717009478338	 -1.06582111892	 
17.0	 -0.616967068892	 -1.09394691698	 
17.0	 -0.509299667825	 -1.12193941741	 
17.0	 -0.373233913716	 -1.14993191785	 
17.0	 -0.187800295378	 -1.17788711049	 
17.0	 0.0468514761405	 -1.20191857302	 
17.0	 0.291384545939	 -1.21099777323	 
17.0	 0.502204951017	 -1.19332029352	 
18.0	 1.08353990532	 -0.544283844014	 
18.0	 1.21457532901	 -0.387447318693	 
18.0	 1.31862612221	 -0.207835870158	 
18.0	 1.39240562023	 0.00386986053412	 
18.0	 1.43415034483	 0.248346528598	 
18.0	 1.44639574219	 0.501878286614	 
18.0	 1.43240884315	 0.736557696121	 
18.0	 1.39244299151	 0.935877281611	 
18.0	 1.3206565541	 1.10638521725	 
18.0	 1.21048467977	 1.25727426606	 
18.0	 1.0559929765	 1.39058262242	 
18.0	 0.852174529309	 1.49782329559	 
18.0	 0.594839180972	 1.56996387737	 
18.0	 0.299486530731	 1.6058497602	 
18.0	 0.00287653211618	 1.61283252762	 
18.0	 -0.259460543814	 1.5977372824	 
18.0	 -0.487859867246	 1.5524985982	 
18.0	 -0.711133078077	 1.45722825538	 
18.0	 -0.954153385211	 1.29481143448	 
18.0	 -1.19402719784	 1.07947730636	 
18.0	 -1.3801251877	 0.843654893903	 
18.0	 -1.46989440652	 0.616234125439	 
18.0	 -1.47850240693	 0.400300987607	 
18.0	 -1.44532775367	 0.188117937533	 
18.0	 -1.40297783744	 -0.0248487413106	 
18.0	 -1.35134121371	 -0.227661952316	 
18.0	 -1.28055493217	 -0.404774291815	 
18.0	 -1.18498033589	 -0.54617107275	 
18.0	 -1.07315692985	 -0.660402583829	 
18.0	 -0.956589769604	 -0.759889625886	 
18.0	 -0.84546331006	 -0.851641235001	 
18.0	 -0.746813615152	 -0.929764476411	 
18.0	 -0.667092083496	 -0.986544119772	 
18.0	 -0.602561475463	 -1.01908254263	 
18.0	 -0.531937563771	 -1.03277906114	 
18.0	 -0.432717761608	 -1.03379905505	 
18.0	 -0.301152279286	 -1.02633743854	 
18.0	 -0.157110032328	 -1.01210737096	 
18.0	 -0.0213560103263	 -0.992702220249	 
18.0	 0.0976103861387	 -0.970488644461	 
18.0	 0.202649231383	 -0.948549465339	 
18.0	 0.296826253322	 -0.929924303765	 
18.0	 0.380424748576	 -0.916775681862	 
18.0	 0.451836636511	 -0.9106699077	 
18.0	 0.511133313008	 -0.911539463453	 
18.0	 0.572607786946	 -0.905867702317	 
18.0	 0.65758500357	 -0.873487999099	 
18.0	 0.782168861312	 -0.797925002008	 
18.0	 0.932370787785	 -0.684046799054	 
18.0	 1.08353990532	 -0.544283844014	 
19.0	 0.684516221059	 -1.165219036	 
19.0	 0.904394439362	 -1.08971869932	 
19.0	 1.09645547748	 -0.979934017397	 
19.0	 1.28021318941	 -0.849340707665	 
19.0	 1.44493341612	 -0.698712690226	 
19.0	 1.57060009204	 -0.523890806239	 
19.0	 1.65378975898	 -0.318337240877	 
19.0	 1.69886213324	 -0.0758702584924	 
19.0	 1.6953974764	 0.186365134209	 
19.0	 1.62264294117	 0.434162983952	 
19.0	 1.48120793054	 0.645607710661	 
19.0	 1.29456136912	 0.812382066119	 
19.0	 1.08519427533	 0.934233174753	 
19.0	 0.87244713174	 1.02200308349	 
19.0	 0.666569676152	 1.09317175623	 
19.0	 0.459031839971	 1.17740236945	 
19.0	 0.246492974299	 1.2925764186	 
19.0	 0.0490514671055	 1.41538806941	 
19.0	 -0.118655249906	 1.51802432407	 
19.0	 -0.287432794796	 1.58824352363	 
19.0	 -0.493320138061	 1.61897156881	 
19.0	 -0.719939017673	 1.60812396066	 
19.0	 -0.930310272436	 1.55416066606	 
19.0	 -1.10024729721	 1.43947734204	 
19.0	 -1.21431202067	 1.23910887563	 
19.0	 -1.27560681369	 0.96643542732	 
19.0	 -1.30259668749	 0.667071066435	 
19.0	 -1.308252813	 0.380814740071	 
19.0	 -1.29842925655	 0.139145580389	 
19.0	 -1.27664895233	 -0.0433721912334	 
19.0	 -1.24321392392	 -0.17972832622	 
19.0	 -1.196664166	 -0.286579726341	 
19.0	 -1.13204512863	 -0.383077612259	 
19.0	 -1.04388847727	 -0.48430596652	 
19.0	 -0.92672587733	 -0.589777432814	 
19.0	 -0.780985532632	 -0.694102697389	 
19.0	 -0.637746695192	 -0.784169822168	 
19.0	 -0.532556086519	 -0.847172148554	 
19.0	 -0.458275291044	 -0.892243837457	 
19.0	 -0.389070132073	 -0.93757973829	 
19.0	 -0.316034097695	 -0.985948755705	 
19.0	 -0.241690418095	 -1.02982761411	 
19.0	 -0.168773260556	 -1.06342445221	 
19.0	 -0.100016792361	 -1.0829983264	 
19.0	 -0.0381551807936	 -1.09445718866	 
19.0	 0.0142715648753	 -1.11631191605	 
19.0	 0.075869579975	 -1.15411619944	 
19.0	 0.205054920425	 -1.18734225318	 
19.0	 0.429985404361	 -1.19537464874	 
19.0	 0.684516221059	 -1.165219036	 
20.0	 0.57227744837	 -1.19424380048	 
20.0	 0.825518954036	 -1.18265290645	 
20.0	 1.03354707568	 -1.12783807113	 
20.0	 1.19240719915	 -1.02842882609	 
20.0	 1.30771973804	 -0.900745028799	 
20.0	 1.38980511773	 -0.768216650107	 
20.0	 1.45031709509	 -0.627243367295	 
20.0	 1.50185980091	 -0.450283915701	 
20.0	 1.5431876874	 -0.216659518694	 
20.0	 1.55064021488	 0.0818710306567	 
20.0	 1.5079528468	 0.433967585437	 
20.0	 1.42764607392	 0.771979934629	 
20.0	 1.32440046297	 1.02787840176	 
20.0	 1.19286884839	 1.19607452605	 
20.0	 1.02142724415	 1.29418231664	 
20.0	 0.81422844168	 1.3378673918	 
20.0	 0.586496808373	 1.34148566484	 
20.0	 0.354764496553	 1.32236087366	 
20.0	 0.136906685709	 1.30159580167	 
20.0	 -0.0567778430056	 1.29474502037	 
20.0	 -0.233989278318	 1.30375920629	 
20.0	 -0.405008699799	 1.32657329137	 
20.0	 -0.580117187018	 1.35165357736	 
20.0	 -0.767124034824	 1.36361250884	 
20.0	 -0.950612451569	 1.33633447847	 
20.0	 -1.10313593122	 1.23886476068	 
20.0	 -1.21312825926	 1.06408030895	 
20.0	 -1.28505124044	 0.828822209203	 
20.0	 -1.32575957151	 0.55802380004	 
20.0	 -1.34520447913	 0.289491145809	 
20.0	 -1.35024146466	 0.0542638180545	 
20.0	 -1.33576776508	 -0.145024502335	 
20.0	 -1.29430719718	 -0.310634887598	 
20.0	 -1.2200198477	 -0.435759146653	 
20.0	 -1.10882324877	 -0.511441627258	 
20.0	 -0.973093703722	 -0.55531557107	 
20.0	 -0.837914195141	 -0.605589196658	 
20.0	 -0.715669716235	 -0.681565906535	 
20.0	 -0.600094349061	 -0.774699672688	 
20.0	 -0.489105421885	 -0.872572882616	 
20.0	 -0.395641062157	 -0.95814264858	 
20.0	 -0.331904419546	 -1.01716912117	 
20.0	 -0.293166274692	 -1.05418247232	 
20.0	 -0.268877208116	 -1.07929927217	 
20.0	 -0.245495186759	 -1.09642622542	 
20.0	 -0.207223880933	 -1.10584368048	 
20.0	 -0.126665745576	 -1.11418946758	 
20.0	 0.0363921072073	 -1.13524074136	 
20.0	 0.289672556357	 -1.17032738693	 
20.0	 0.57227744837	 -1.19424380048	 
21.0	 0.96872819774	 -0.971806228106	 
21.0	 1.11351963732	 -0.836853269045	 
21.0	 1.24259378706	 -0.645554192781	 
21.0	 1.34023335713	 -0.408903363648	 
21.0	 1.39449832995	 -0.139836376774	 
21.0	 1.41168144125	 0.139340923547	 
21.0	 1.40356953922	 0.403499136879	 
21.0	 1.37946449323	 0.631892433538	 
21.0	 1.33415023003	 0.82937686228	 
21.0	 1.25715580451	 1.01007525262	 
21.0	 1.13964226633	 1.18489383862	 
21.0	 0.984411005811	 1.34180689518	 
21.0	 0.799300522428	 1.45886538105	 
21.0	 0.59134061964	 1.51717273251	 
21.0	 0.360347110456	 1.52474567357	 
21.0	 0.102421370249	 1.50345840825	 
21.0	 -0.184734408297	 1.47368347476	 
21.0	 -0.485817036305	 1.43835773959	 
21.0	 -0.774784253397	 1.38977986883	 
21.0	 -1.02623999921	 1.31996892746	 
21.0	 -1.22564117597	 1.21920872778	 
21.0	 -1.36626623762	 1.07653251409	 
21.0	 -1.44238220418	 0.882203839602	 
21.0	 -1.46247990406	 0.648416126179	 
21.0	 -1.44713184092	 0.405989983639	 
21.0	 -1.41669408806	 0.185487127118	 
21.0	 -1.37771551624	 -0.0020980790507	 
21.0	 -1.32293779371	 -0.165338621342	 
21.0	 -1.24475819738	 -0.313439033314	 
21.0	 -1.14362845439	 -0.448704890021	 
21.0	 -1.02948283075	 -0.56531959295	 
21.0	 -0.912661379448	 -0.657138691276	 
21.0	 -0.797246912099	 -0.72427057438	 
21.0	 -0.678639870253	 -0.775499894789	 
21.0	 -0.551661113998	 -0.820194473131	 
21.0	 -0.415333748795	 -0.863802793041	 
21.0	 -0.27556822644	 -0.905349669639	 
21.0	 -0.138920239439	 -0.943264479448	 
21.0	 -0.0127709108834	 -0.975976598994	 
21.0	 0.0938955271444	 -1.0019154048	 
21.0	 0.171942312712	 -1.01951717554	 
21.0	 0.220148141113	 -1.02894398402	 
21.0	 0.25558367152	 -1.03434606984	 
21.0	 0.297888694491	 -1.04043274708	 
21.0	 0.361757238806	 -1.05005997366	 
21.0	 0.448219387261	 -1.06096333182	 
21.0	 0.555965152525	 -1.0700008716	 
21.0	 0.682638049654	 -1.07057962999	 
21.0	 0.822408688314	 -1.04465411722	 
21.0	 0.96872819774	 -0.971806228106	 
22.0	 -0.256151821493	 -0.939609062384	 
22.0	 -0.120234528456	 -0.852030042487	 
22.0	 -0.0190023933709	 -0.735663767133	 
22.0	 0.0657859991047	 -0.620577979254	 
22.0	 0.207923460372	 -0.547606001665	 
22.0	 0.394704965961	 -0.55013535964	 
22.0	 0.532883135749	 -0.645571197748	 
22.0	 0.636596720926	 -0.787784349913	 
22.0	 0.756897421384	 -0.91128025306	 
22.0	 0.863688004675	 -1.00285882025	 
22.0	 0.937094812729	 -1.05673414513	 
22.0	 1.01597183965	 -1.05559593404	 
22.0	 1.12572913439	 -0.972127120854	 
22.0	 1.26552851823	 -0.777967279271	 
22.0	 1.38181478388	 -0.511246480769	 
22.0	 1.41763589454	 -0.226314304845	 
22.0	 1.40882398954	 0.0947244561772	 
22.0	 1.39448672235	 0.449719848019	 
22.0	 1.37432631893	 0.764498448052	 
22.0	 1.33140274668	 1.00870796057	 
22.0	 1.23868474257	 1.19965867923	 
22.0	 1.08675382494	 1.31607238004	 
22.0	 0.884002809428	 1.32777066068	 
22.0	 0.672671490929	 1.2531546004	 
22.0	 0.490124993497	 1.1457201204	 
22.0	 0.346840550854	 1.10025491079	 
22.0	 0.22799563445	 1.14104080815	 
22.0	 0.0973390156074	 1.22014647883	 
22.0	 -0.0745758467638	 1.31607238004	 
22.0	 -0.299781228443	 1.4175628688	 
22.0	 -0.536765226559	 1.49333294865	 
22.0	 -0.74661870367	 1.51660304202	 
22.0	 -0.923209720881	 1.4776509292	 
22.0	 -1.10253584753	 1.3339833962	 
22.0	 -1.34277330243	 1.02399476784	 
22.0	 -1.56122913986	 0.622016551603	 
22.0	 -1.6406355428	 0.243814300337	 
22.0	 -1.61830249197	 -0.111354984865	 
22.0	 -1.55835065775	 -0.441056796953	 
22.0	 -1.49919288756	 -0.682736951499	 
22.0	 -1.42177164469	 -0.836395448502	 
22.0	 -1.26474548287	 -0.962879155757	 
22.0	 -1.07324370777	 -1.04805528558	 
22.0	 -0.927268270365	 -1.05886829092	 
22.0	 -0.822606219819	 -1.04663252172	 
22.0	 -0.736538501963	 -1.04947804944	 
22.0	 -0.651441306809	 -1.03992972308	 
22.0	 -0.548257097652	 -1.0119170835	 
22.0	 -0.410067899197	 -0.984188996699	 
22.0	 -0.256151821493	 -0.939609062384	 
