0.0	 -0.648305178253	 -1.24554119773	 
0.0	 -0.478274755111	 -1.19132497931	 
0.0	 -0.308244331969	 -1.13710876089	 
0.0	 -0.138213908827	 -1.08289254248	 
0.0	 0.0316780059455	 -1.02825431791	 
0.0	 0.200766111473	 -0.971167053985	 
0.0	 0.369854217001	 -0.914079790062	 
0.0	 0.538942322529	 -0.856992526139	 
0.0	 0.698950047799	 -0.780945512879	 
0.0	 0.849421296657	 -0.684986425762	 
0.0	 0.999892545516	 -0.589027338645	 
0.0	 1.15036379437	 -0.493068251529	 
0.0	 1.29638361308	 -0.391939901327	 
0.0	 1.41361021274	 -0.257375167966	 
0.0	 1.5308368124	 -0.122810434605	 
0.0	 1.60514999764	 0.0265839431206	 
0.0	 1.59601666068	 0.204815043912	 
0.0	 1.58688332372	 0.383046144702	 
0.0	 1.57774998675	 0.561277245493	 
0.0	 1.53916897621	 0.730497427635	 
0.0	 1.4470006635	 0.883320021728	 
0.0	 1.35483235079	 1.03614261582	 
0.0	 1.26266403808	 1.18896520991	 
0.0	 1.10918826247	 1.26595466014	 
0.0	 0.940448568874	 1.32406368644	 
0.0	 0.767634461839	 1.36707079383	 
0.0	 0.592565298924	 1.40171947822	 
0.0	 0.417496136009	 1.4363681626	 
0.0	 0.242426973094	 1.47101684698	 
0.0	 0.0673578101788	 1.50566553136	 
0.0	 -0.107711352736	 1.54031421575	 
0.0	 -0.282086284728	 1.52911341843	 
0.0	 -0.456026164232	 1.48918020604	 
0.0	 -0.629966043736	 1.44924699366	 
0.0	 -0.769087281218	 1.35821329372	 
0.0	 -0.86989041499	 1.21094323106	 
0.0	 -0.970693548762	 1.0636731684	 
0.0	 -1.07149668253	 0.916403105748	 
0.0	 -1.1351323655	 0.754443433716	 
0.0	 -1.16224975589	 0.578050717676	 
0.0	 -1.18936714628	 0.401658001637	 
0.0	 -1.21648453667	 0.225265285598	 
0.0	 -1.20823914643	 0.0508772280247	 
0.0	 -1.16136071507	 -0.121320785337	 
0.0	 -1.1144822837	 -0.293518798699	 
0.0	 -1.06760385233	 -0.465716812061	 
0.0	 -0.997804996475	 -0.628701822784	 
0.0	 -0.912465476963	 -0.785440170174	 
0.0	 -0.81234598395	 -0.931900830608	 
0.0	 -0.719573112363	 -1.08192388599	 
3.0	 -0.0181914990863	 -1.14179182769	 
3.0	 0.158974709365	 -1.10082998466	 
3.0	 0.336140917817	 -1.05986814163	 
3.0	 0.513307126269	 -1.0189062986	 
3.0	 0.690473334721	 -0.977944455566	 
3.0	 0.834080045633	 -0.870700220791	 
3.0	 0.971962225373	 -0.752149630274	 
3.0	 1.10280055025	 -0.626602794477	 
3.0	 1.22041331604	 -0.487919791466	 
3.0	 1.30778980228	 -0.33211647585	 
3.0	 1.36620531769	 -0.159914949837	 
3.0	 1.42462083309	 0.0122865761764	 
3.0	 1.45077205213	 0.189811591273	 
3.0	 1.45077205213	 0.371651460393	 
3.0	 1.45077205213	 0.553491329514	 
3.0	 1.37657053605	 0.713402584162	 
3.0	 1.27772581761	 0.866031086216	 
3.0	 1.17888109918	 1.01865958827	 
3.0	 1.05871384024	 1.15388859047	 
3.0	 0.929011745131	 1.28133702917	 
3.0	 0.798527990834	 1.40773158221	 
3.0	 0.638921634996	 1.49486107881	 
3.0	 0.479315279158	 1.58199057541	 
3.0	 0.306593946146	 1.61772462476	 
3.0	 0.124754077025	 1.61772462476	 
3.0	 -0.0570857920952	 1.61772462476	 
3.0	 -0.238925661216	 1.61772462476	 
3.0	 -0.416440437665	 1.59595775495	 
3.0	 -0.584466893121	 1.52643906488	 
3.0	 -0.752493348576	 1.45692037481	 
3.0	 -0.920519804032	 1.38740168474	 
3.0	 -1.08854625949	 1.31788299467	 
3.0	 -1.22181428519	 1.20975109123	 
3.0	 -1.30855713485	 1.04993427097	 
3.0	 -1.3952999845	 0.890117450722	 
3.0	 -1.48204283416	 0.730300630471	 
3.0	 -1.51688944724	 0.561862203207	 
3.0	 -1.48648119707	 0.382582878343	 
3.0	 -1.4560729469	 0.203303553479	 
3.0	 -1.40496279542	 0.0296711159326	 
3.0	 -1.34012797196	 -0.140217623156	 
3.0	 -1.23623094816	 -0.284549382979	 
3.0	 -1.10652885305	 -0.411997821679	 
3.0	 -0.976826757946	 -0.53944626038	 
3.0	 -0.863807453378	 -0.68080840536	 
3.0	 -0.761716078704	 -0.831284613509	 
3.0	 -0.659089150625	 -0.981375219754	 
3.0	 -0.548762229163	 -1.12592178112	 
3.0	 -0.377812151715	 -1.17300726293	 
3.0	 -0.198265830592	 -1.16706974562	 
5.0	 -0.518137762787	 -1.24138367745	 
5.0	 -0.338664206268	 -1.21127569544	 
5.0	 -0.159190649749	 -1.18116771343	 
5.0	 0.0202829067707	 -1.15105973142	 
5.0	 0.183440271332	 -1.07373054447	 
5.0	 0.343217341839	 -0.986618342047	 
5.0	 0.502994412345	 -0.899506139625	 
5.0	 0.662771482852	 -0.812393937203	 
5.0	 0.821053514572	 -0.722657612546	 
5.0	 0.977460667812	 -0.62963046336	 
5.0	 1.13386782105	 -0.536603314173	 
5.0	 1.26093778375	 -0.417211735839	 
5.0	 1.33678920919	 -0.251791636305	 
5.0	 1.41026891643	 -0.0856231301946	 
5.0	 1.44309943057	 0.0933724155916	 
5.0	 1.47592994472	 0.272367961378	 
5.0	 1.48537101968	 0.451711179751	 
5.0	 1.45787519756	 0.631603447056	 
5.0	 1.36882248187	 0.786693214816	 
5.0	 1.26392041828	 0.93539696435	 
5.0	 1.1590183547	 1.08410071388	 
5.0	 1.05411629111	 1.23280446342	 
5.0	 0.920962432816	 1.35279617229	 
5.0	 0.77058307055	 1.45528175896	 
5.0	 0.6111035232	 1.531468075	 
5.0	 0.429543223199	 1.54384165711	 
5.0	 0.247982923199	 1.55621523921	 
5.0	 0.066422623198	 1.56858882132	 
5.0	 -0.115158444508	 1.57055628085	 
5.0	 -0.296766686451	 1.5589074814	 
5.0	 -0.478374928395	 1.54725868195	 
5.0	 -0.659983170338	 1.5356098825	 
5.0	 -0.823510795463	 1.48444538803	 
5.0	 -0.951055650519	 1.35463954063	 
5.0	 -1.07860050557	 1.22483369323	 
5.0	 -1.20614536063	 1.09502784583	 
5.0	 -1.33369021569	 0.965221998427	 
5.0	 -1.42912036571	 0.82686689795	 
5.0	 -1.38299437639	 0.650828148862	 
5.0	 -1.33686838708	 0.474789399774	 
5.0	 -1.29074239777	 0.298750650686	 
5.0	 -1.24673325526	 0.122192039332	 
5.0	 -1.20606568045	 -0.0551872053069	 
5.0	 -1.16539810563	 -0.232566449946	 
5.0	 -1.12064479823	 -0.408682143293	 
5.0	 -1.05407709237	 -0.578051528385	 
5.0	 -0.977101317597	 -0.740919800326	 
5.0	 -0.850913097216	 -0.871356169572	 
5.0	 -0.70053373495	 -0.973841756241	 
5.0	 -0.550154372685	 -1.07632734291	 
7.0	 0.17716792237	 -1.21413000199	 
7.0	 0.342933445323	 -1.13278307416	 
7.0	 0.508698968275	 -1.05143614633	 
7.0	 0.674464491227	 -0.970089218498	 
7.0	 0.83329245634	 -0.877387733562	 
7.0	 0.981319906826	 -0.767009270219	 
7.0	 1.12934735731	 -0.656630806876	 
7.0	 1.2773748078	 -0.546252343533	 
7.0	 1.41417905344	 -0.422272456686	 
7.0	 1.55065423546	 -0.297893777003	 
7.0	 1.61194852306	 -0.136977741974	 
7.0	 1.62541972542	 0.0471799566821	 
7.0	 1.63889092778	 0.231337655338	 
7.0	 1.63866224476	 0.413849337611	 
7.0	 1.58195172963	 0.589574830188	 
7.0	 1.52524121451	 0.765300322764	 
7.0	 1.46853069938	 0.941025815341	 
7.0	 1.39861263195	 1.10688292265	 
7.0	 1.24617106614	 1.21108033279	 
7.0	 1.09372950032	 1.31527774292	 
7.0	 0.924414200525	 1.38501965919	 
7.0	 0.748634123494	 1.4415607574	 
7.0	 0.572854046463	 1.4981018556	 
7.0	 0.397073969432	 1.55464295381	 
7.0	 0.219447147886	 1.58821597596	 
7.0	 0.0368913342821	 1.56048681826	 
7.0	 -0.145664479322	 1.53275766056	 
7.0	 -0.324622061476	 1.49293334095	 
7.0	 -0.492648965296	 1.41636643648	 
7.0	 -0.656458972157	 1.33148458295	 
7.0	 -0.817509295057	 1.2411611377	 
7.0	 -0.978559617956	 1.15083769246	 
7.0	 -1.13960994086	 1.06051424721	 
7.0	 -1.24287118962	 0.910264307113	 
7.0	 -1.33898171178	 0.752599159419	 
7.0	 -1.39987434974	 0.582401902225	 
7.0	 -1.4249654354	 0.399464840131	 
7.0	 -1.45005652106	 0.216527778036	 
7.0	 -1.47514760672	 0.0335907159421	 
7.0	 -1.3982644936	 -0.127412307768	 
7.0	 -1.30017507758	 -0.283853982948	 
7.0	 -1.18583332026	 -0.428771775504	 
7.0	 -1.07065928127	 -0.573099430545	 
7.0	 -0.955485242283	 -0.717427085586	 
7.0	 -0.796294908434	 -0.800543686758	 
7.0	 -0.625151023354	 -0.86949680134	 
7.0	 -0.454242590318	 -0.938437172252	 
7.0	 -0.277565480633	 -0.992109606336	 
7.0	 -0.0983009432796	 -1.03603497823	 
7.0	 0.0817349532617	 -1.07705457384	 
12.0	 -0.0276962621487	 -1.27758457236	 
12.0	 0.1370735251	 -1.19607713516	 
12.0	 0.301843312349	 -1.11456969796	 
12.0	 0.466613099598	 -1.03306226076	 
12.0	 0.631382886846	 -0.951554823559	 
12.0	 0.756486729597	 -0.817435648047	 
12.0	 0.880186987511	 -0.681454799023	 
12.0	 1.00388724542	 -0.545473949999	 
12.0	 1.13410466259	 -0.415831420086	 
12.0	 1.26659181984	 -0.288396345352	 
12.0	 1.39907897709	 -0.160961270618	 
12.0	 1.45762095402	 0.00574463043685	 
12.0	 1.48900582541	 0.186873134424	 
12.0	 1.52039069681	 0.368001638411	 
12.0	 1.5517755682	 0.549130142398	 
12.0	 1.50285331531	 0.704570301243	 
12.0	 1.3721736004	 0.83385818629	 
12.0	 1.22531269687	 0.943696219074	 
12.0	 1.07440662833	 1.04867194763	 
12.0	 0.923500559782	 1.15364767618	 
12.0	 0.772594491238	 1.25862340474	 
12.0	 0.620280461419	 1.36121575794	 
12.0	 0.45551067417	 1.44272319515	 
12.0	 0.290740886922	 1.52423063235	 
12.0	 0.118181579157	 1.56902805418	 
12.0	 -0.0654899155288	 1.56145658479	 
12.0	 -0.249161410215	 1.55388511539	 
12.0	 -0.432832904901	 1.54631364599	 
12.0	 -0.616504399587	 1.5387421766	 
12.0	 -0.800175894273	 1.5311707072	 
12.0	 -0.983847388959	 1.52359923781	 
12.0	 -1.1521400105	 1.48998486447	 
12.0	 -1.24746393101	 1.33280377372	 
12.0	 -1.34278785152	 1.17562268297	 
12.0	 -1.40143086472	 1.00818798538	 
12.0	 -1.40143086472	 0.824360498019	 
12.0	 -1.40143086472	 0.64053301066	 
12.0	 -1.40143086472	 0.4567055233	 
12.0	 -1.40143086472	 0.27287803594	 
12.0	 -1.36954417899	 0.0936413686396	 
12.0	 -1.31768672165	 -0.0827200478542	 
12.0	 -1.26582926431	 -0.259081464348	 
12.0	 -1.19626821752	 -0.423751473798	 
12.0	 -1.05443085865	 -0.540690384079	 
12.0	 -0.91259349978	 -0.65762929436	 
12.0	 -0.767566328843	 -0.770392491161	 
12.0	 -0.6174414807	 -0.876482429793	 
12.0	 -0.458291440474	 -0.962832601869	 
12.0	 -0.283724455998	 -1.01372903539	 
12.0	 -0.155710359073	 -1.14565680388	 
19.0	 -0.028854202263	 -1.15253235188	 
19.0	 0.146433091004	 -1.11411025059	 
19.0	 0.321720384272	 -1.0756881493	 
19.0	 0.497007677539	 -1.037266048	 
19.0	 0.672294970807	 -0.99884394671	 
19.0	 0.794690217007	 -0.880820711892	 
19.0	 0.898023447634	 -0.734109647221	 
19.0	 1.00135667826	 -0.58739858255	 
19.0	 1.10468990889	 -0.440687517879	 
19.0	 1.2121462782	 -0.297045235631	 
19.0	 1.32302326121	 -0.155948858324	 
19.0	 1.43390024421	 -0.0148524810183	 
19.0	 1.50039628139	 0.139553331994	 
19.0	 1.48546114511	 0.318379601746	 
19.0	 1.47052600884	 0.497205871497	 
19.0	 1.45559087256	 0.676032141248	 
19.0	 1.44065573628	 0.854858411	 
19.0	 1.41364040396	 1.02564749399	 
19.0	 1.25446869851	 1.10851040025	 
19.0	 1.09667096902	 1.1939280413	 
19.0	 0.939787029134	 1.28104475872	 
19.0	 0.782903089246	 1.36816147614	 
19.0	 0.626019149358	 1.45527819356	 
19.0	 0.450213138727	 1.46934219268	 
19.0	 0.270764279581	 1.46934219268	 
19.0	 0.0913154204354	 1.46934219268	 
19.0	 -0.0881334387106	 1.46934219268	 
19.0	 -0.267582297857	 1.46934219268	 
19.0	 -0.447031157002	 1.46934219268	 
19.0	 -0.607856693124	 1.39323769138	 
19.0	 -0.767028398571	 1.31037478512	 
19.0	 -0.926200104019	 1.22751187886	 
19.0	 -1.08537180947	 1.1446489726	 
19.0	 -1.19078410051	 1.01912730827	 
19.0	 -1.23530751888	 0.845289572819	 
19.0	 -1.27983093726	 0.671451837372	 
19.0	 -1.32435435563	 0.497614101926	 
19.0	 -1.3272933041	 0.318535627714	 
19.0	 -1.3272933041	 0.139086768568	 
19.0	 -1.3272933041	 -0.0403620905777	 
19.0	 -1.29560484213	 -0.214145127101	 
19.0	 -1.23342265014	 -0.382475956269	 
19.0	 -1.17124045815	 -0.550806785436	 
19.0	 -1.08974840172	 -0.707672274396	 
19.0	 -0.971723097692	 -0.842845942905	 
19.0	 -0.853697793665	 -0.978019611414	 
19.0	 -0.73498846276	 -1.11205265902	 
19.0	 -0.56015821224	 -1.15250357437	 
19.0	 -0.385327961721	 -1.19295448971	 
19.0	 -0.207114171742	 -1.17315458091	 
21.0	 -0.561690831553	 -1.29662794344	 
21.0	 -0.429978604351	 -1.13853593385	 
21.0	 -0.298266377148	 -0.980443924262	 
21.0	 -0.166554149946	 -0.822351914673	 
21.0	 -0.0719215492865	 -0.640802764757	 
21.0	 0.0145103624568	 -0.454065733285	 
21.0	 0.210119882537	 -0.412381889876	 
21.0	 0.413482319683	 -0.38099855913	 
21.0	 0.616844756829	 -0.349615228384	 
21.0	 0.819932576247	 -0.36568735869	 
21.0	 1.02266268585	 -0.400831723012	 
21.0	 1.22457472882	 -0.440489272009	 
21.0	 1.36623087285	 -0.295232777502	 
21.0	 1.50601472114	 -0.144230558816	 
21.0	 1.64579856943	 0.00677165987109	 
21.0	 1.67265126337	 0.209705887344	 
21.0	 1.69582634646	 0.41402933625	 
21.0	 1.60501927421	 0.598678381522	 
21.0	 1.51421220197	 0.783327426795	 
21.0	 1.42340512972	 0.967976472068	 
21.0	 1.33259805747	 1.15262551734	 
21.0	 1.21534867318	 1.32010730276	 
21.0	 1.08033963095	 1.46504909624	 
21.0	 0.889624153196	 1.38779108154	 
21.0	 0.702252705504	 1.30494317213	 
21.0	 0.543991854102	 1.1734338675	 
21.0	 0.378664001326	 1.07943447899	 
21.0	 0.183398254128	 1.14433811727	 
21.0	 -0.011867493071	 1.20924175554	 
21.0	 -0.205286515705	 1.27809916047	 
21.0	 -0.380383067909	 1.38618427368	 
21.0	 -0.559517424942	 1.45269008542	 
21.0	 -0.752138694599	 1.3803143936	 
21.0	 -0.944759964256	 1.30793870178	 
21.0	 -1.08949238156	 1.18398878993	 
21.0	 -1.1759242933	 0.997251758457	 
21.0	 -1.26235620504	 0.810514726985	 
21.0	 -1.33399887094	 0.619797485196	 
21.0	 -1.35296603214	 0.414903753992	 
21.0	 -1.37193319334	 0.210010022788	 
21.0	 -1.39090035455	 0.00511629158478	 
21.0	 -1.38875680945	 -0.199708281291	 
21.0	 -1.36844761276	 -0.40447334379	 
21.0	 -1.34813841606	 -0.60923840629	 
21.0	 -1.32796215793	 -0.814016214378	 
21.0	 -1.30899499673	 -1.01890994558	 
21.0	 -1.29002783552	 -1.22380367678	 
21.0	 -1.15364353946	 -1.3246374251	 
21.0	 -0.954171030987	 -1.31916550791	 
21.0	 -0.756441883607	 -1.26220606123	 
23.0	 -0.84286065476	 -1.08921600779	 
23.0	 -0.643677976021	 -1.08921600779	 
23.0	 -0.455342475169	 -1.05639060874	 
23.0	 -0.295377855796	 -0.937710113049	 
23.0	 -0.139098644625	 -0.814591710593	 
23.0	 0.00694666213077	 -0.679149812037	 
23.0	 0.171950766897	 -0.573185552434	 
23.0	 0.355768486636	 -0.49647319737	 
23.0	 0.536236205334	 -0.524457422762	 
23.0	 0.724823123929	 -0.581228749647	 
23.0	 0.921599580319	 -0.611689156776	 
23.0	 1.12078225906	 -0.611689156776	 
23.0	 1.30991466617	 -0.567270927416	 
23.0	 1.48969603197	 -0.481524790354	 
23.0	 1.53598689148	 -0.300718832497	 
23.0	 1.55821960563	 -0.102780847433	 
23.0	 1.58045231979	 0.09515713763	 
23.0	 1.60268503395	 0.293095122693	 
23.0	 1.62300511867	 0.490828481871	 
23.0	 1.55940144262	 0.679583115996	 
23.0	 1.49579776658	 0.868337750121	 
23.0	 1.43219409054	 1.05709238425	 
23.0	 1.26458307731	 1.16357363854	 
23.0	 1.09554068131	 1.26892261985	 
23.0	 0.926498285297	 1.37427160115	 
23.0	 0.737209908411	 1.43088394495	 
23.0	 0.543278725947	 1.47632000968	 
23.0	 0.352904918641	 1.44455056407	 
23.0	 0.163973664855	 1.38147346163	 
23.0	 -0.0223152771374	 1.38087080824	 
23.0	 -0.205245741262	 1.45967553402	 
23.0	 -0.388176205386	 1.5384802598	 
23.0	 -0.57110666951	 1.61728498558	 
23.0	 -0.76612968166	 1.65041181598	 
23.0	 -0.964090269212	 1.67244236944	 
23.0	 -1.07302363982	 1.55909937965	 
23.0	 -1.13122140861	 1.36860854203	 
23.0	 -1.18941917741	 1.17811770441	 
23.0	 -1.2476169462	 0.987626866795	 
23.0	 -1.305814715	 0.797136029175	 
23.0	 -1.36401248379	 0.606645191556	 
23.0	 -1.39861291033	 0.412968015404	 
23.0	 -1.3930219841	 0.21386381893	 
23.0	 -1.38743105788	 0.0147596224562	 
23.0	 -1.38184013165	 -0.184344574018	 
23.0	 -1.3611650124	 -0.381941506154	 
23.0	 -1.32724841245	 -0.578215304093	 
23.0	 -1.29333181249	 -0.774489102031	 
23.0	 -1.21281833625	 -0.942078549973	 
23.0	 -1.02825511814	 -1.01639683135	 
28.0	 -0.615020037274	 -1.16068287295	 
28.0	 -0.469181977846	 -1.00400158318	 
28.0	 -0.323343918418	 -0.847320293399	 
28.0	 -0.172244283581	 -0.695721665706	 
28.0	 -0.00956032591824	 -0.556611292033	 
28.0	 0.19617264994	 -0.519107110095	 
28.0	 0.408082289761	 -0.54930761829	 
28.0	 0.601603096316	 -0.635007069784	 
28.0	 0.800198488059	 -0.695745527565	 
28.0	 1.00128870535	 -0.655812023424	 
28.0	 1.17454237937	 -0.530110270906	 
28.0	 1.3462321935	 -0.617255131346	 
28.0	 1.54963787984	 -0.649251793026	 
28.0	 1.56132633779	 -0.437877879648	 
28.0	 1.57064632849	 -0.224030027385	 
28.0	 1.57996631919	 -0.0101821751219	 
28.0	 1.58928630989	 0.203665677141	 
28.0	 1.59860630059	 0.417513529404	 
28.0	 1.61632156748	 0.630828010151	 
28.0	 1.56784511963	 0.834184553521	 
28.0	 1.48818465258	 1.03286010847	 
28.0	 1.40852418553	 1.23153566342	 
28.0	 1.31665767675	 1.42214489463	 
28.0	 1.1651200267	 1.57332064257	 
28.0	 1.01358237666	 1.7244963905	 
28.0	 0.862044726619	 1.87567213844	 
28.0	 0.667229451638	 1.86368945686	 
28.0	 0.460686825046	 1.80749417641	 
28.0	 0.281474421967	 1.71377434306	 
28.0	 0.164623093543	 1.53443239819	 
28.0	 0.0477717651185	 1.35509045332	 
28.0	 -0.137557019838	 1.31861932518	 
28.0	 -0.350550606016	 1.33986781668	 
28.0	 -0.541736347737	 1.4171933402	 
28.0	 -0.729176541656	 1.46770711369	 
28.0	 -0.937343915037	 1.41786625892	 
28.0	 -1.14551128842	 1.36802540415	 
28.0	 -1.26415824588	 1.22047062758	 
28.0	 -1.33199285266	 1.01745281489	 
28.0	 -1.39982745945	 0.814435002212	 
28.0	 -1.40730566039	 0.601600453272	 
28.0	 -1.40730566039	 0.387549603836	 
28.0	 -1.40730566039	 0.1734987544	 
28.0	 -1.39594488713	 -0.0401965694887	 
28.0	 -1.37736075866	 -0.252896582428	 
28.0	 -1.31571865464	 -0.457879550395	 
28.0	 -1.25407655062	 -0.662862518362	 
28.0	 -1.14096390238	 -0.842856398891	 
28.0	 -0.980716076485	 -0.972709605236	 
28.0	 -0.779739597854	 -1.04404900997	 
33.0	 -0.840285849688	 -1.1634912694	 
33.0	 -0.657575405293	 -1.07176912183	 
33.0	 -0.474864960898	 -0.980046974263	 
33.0	 -0.299343943674	 -0.877305147379	 
33.0	 -0.141785920378	 -0.747030329628	 
33.0	 0.0157721029174	 -0.616755511876	 
33.0	 0.201940637922	 -0.540652253445	 
33.0	 0.404224643623	 -0.511034017795	 
33.0	 0.582548713907	 -0.575242617965	 
33.0	 0.730395147604	 -0.715205465377	 
33.0	 0.880760865089	 -0.847165343299	 
33.0	 1.07354175432	 -0.913929692766	 
33.0	 1.24995328162	 -0.810609646893	 
33.0	 1.38610682151	 -0.67268314617	 
33.0	 1.46177218339	 -0.482759972608	 
33.0	 1.53743754528	 -0.292836799046	 
33.0	 1.61310290717	 -0.102913625484	 
33.0	 1.68622369853	 0.0874443706602	 
33.0	 1.67791941501	 0.291716487505	 
33.0	 1.66961513148	 0.49598860435	 
33.0	 1.64722216155	 0.696940232536	 
33.0	 1.56343184172	 0.883421441102	 
33.0	 1.47964152189	 1.06990264967	 
33.0	 1.39585120206	 1.25638385823	 
33.0	 1.31206088223	 1.4428650668	 
33.0	 1.1540851281	 1.57116790036	 
33.0	 0.992953536113	 1.69699583409	 
33.0	 0.824358663766	 1.7540284862	 
33.0	 0.639992286711	 1.66568202132	 
33.0	 0.455625909655	 1.57733555644	 
33.0	 0.279868204926	 1.47428753992	 
33.0	 0.112604966731	 1.35673300792	 
33.0	 -0.0671589697362	 1.30141923906	 
33.0	 -0.266840538884	 1.34527502303	 
33.0	 -0.467806217797	 1.35287681802	 
33.0	 -0.670090223498	 1.32325858237	 
33.0	 -0.872374229198	 1.29364034672	 
33.0	 -1.03792655347	 1.18781787334	 
33.0	 -1.18710486247	 1.04802555963	 
33.0	 -1.29809823832	 0.888373056315	 
33.0	 -1.32689717863	 0.685970783892	 
33.0	 -1.35569611894	 0.483568511469	 
33.0	 -1.35268790285	 0.279563293861	 
33.0	 -1.34438361932	 0.0752911770167	 
33.0	 -1.33529390201	 -0.128834075726	 
33.0	 -1.26922625979	 -0.322305328106	 
33.0	 -1.20315861758	 -0.515776580485	 
33.0	 -1.14936751889	 -0.712951103527	 
33.0	 -1.09742685002	 -0.910683816457	 
33.0	 -1.03113929652	 -1.09955255691	 
37.0	 -0.64585275209	 -1.09848452109	 
37.0	 -0.474632862995	 -0.99772912315	 
37.0	 -0.303412973901	 -0.896973725206	 
37.0	 -0.176039214072	 -0.744804436083	 
37.0	 -0.0495137211097	 -0.591640470781	 
37.0	 0.118687557195	 -0.514290841895	 
37.0	 0.315805674108	 -0.489545163056	 
37.0	 0.499816651716	 -0.560783420829	 
37.0	 0.696714739647	 -0.569584566493	 
37.0	 0.888267892438	 -0.619693830381	 
37.0	 1.08249637863	 -0.650953790278	 
37.0	 1.27875314527	 -0.671698264986	 
37.0	 1.39452714349	 -0.584409938022	 
37.0	 1.44980113608	 -0.393588853286	 
37.0	 1.49024971714	 -0.201162894451	 
37.0	 1.47709101115	 -0.00293386253861	 
37.0	 1.44777076153	 0.193053960655	 
37.0	 1.40649126942	 0.387383330972	 
37.0	 1.36521177731	 0.581712701289	 
37.0	 1.31813839306	 0.774600154125	 
37.0	 1.26351915614	 0.965609681621	 
37.0	 1.20889991921	 1.15661920912	 
37.0	 1.13419604017	 1.34007395114	 
37.0	 1.04939074191	 1.51972907081	 
37.0	 0.920808225202	 1.66495656176	 
37.0	 0.766207937247	 1.78972294986	 
37.0	 0.593092721974	 1.77770239975	 
37.0	 0.410887380949	 1.69852466085	 
37.0	 0.228682039924	 1.61934692194	 
37.0	 0.0566743835393	 1.5215462563	 
37.0	 -0.108178329101	 1.41067929201	 
37.0	 -0.29450767092	 1.34900901565	 
37.0	 -0.492427945492	 1.34259219245	 
37.0	 -0.691093243509	 1.34259219245	 
37.0	 -0.883666925802	 1.31380598255	 
37.0	 -1.06530190926	 1.23332844892	 
37.0	 -1.20649519205	 1.11642649884	 
37.0	 -1.26760027638	 0.927391927121	 
37.0	 -1.32870536071	 0.7383573554	 
37.0	 -1.38981044504	 0.54932278368	 
37.0	 -1.45091552936	 0.360288211959	 
37.0	 -1.479497332	 0.168069600089	 
37.0	 -1.45621416036	 -0.0292266101001	 
37.0	 -1.42947917289	 -0.226057403821	 
37.0	 -1.39967703123	 -0.422474645906	 
37.0	 -1.36987488956	 -0.618891887992	 
37.0	 -1.30821660937	 -0.806024207457	 
37.0	 -1.20440434835	 -0.96851474739	 
37.0	 -1.03826489159	 -1.076489097	 
37.0	 -0.844518050108	 -1.09848452109	 
47.0	 -0.403343154222	 -1.13408619248	 
47.0	 -0.222317336427	 -1.15802837639	 
47.0	 -0.0412915186311	 -1.18197056031	 
47.0	 0.137684415082	 -1.20097555405	 
47.0	 0.248517052037	 -1.05585594316	 
47.0	 0.359349688993	 -0.910736332275	 
47.0	 0.470182325948	 -0.765616721385	 
47.0	 0.581014962903	 -0.620497110496	 
47.0	 0.73222599597	 -0.535367416174	 
47.0	 0.908391532913	 -0.487312463538	 
47.0	 1.06275363312	 -0.404095056109	 
47.0	 1.18411637523	 -0.267659504634	 
47.0	 1.30547911734	 -0.131223953159	 
47.0	 1.42684185945	 0.00521159831545	 
47.0	 1.54820460156	 0.14164714979	 
47.0	 1.56326757584	 0.322363110064	 
47.0	 1.57465567477	 0.504609882552	 
47.0	 1.56879869843	 0.686939272271	 
47.0	 1.55915728781	 0.869286792354	 
47.0	 1.51399003391	 1.03489880816	 
47.0	 1.37953022074	 1.15844691022	 
47.0	 1.24507040758	 1.28199501228	 
47.0	 1.11061059441	 1.40554311433	 
47.0	 0.951370526498	 1.49266185274	 
47.0	 0.787068846081	 1.57233953275	 
47.0	 0.622767165664	 1.65201721275	 
47.0	 0.458465485247	 1.73169489276	 
47.0	 0.287581101734	 1.69761675569	 
47.0	 0.115185470893	 1.63742272487	 
47.0	 -0.0572101599483	 1.57722869406	 
47.0	 -0.225694961202	 1.50854049774	 
47.0	 -0.383518749087	 1.41669700664	 
47.0	 -0.541342536973	 1.32485351555	 
47.0	 -0.699166324858	 1.23301002445	 
47.0	 -0.836870541725	 1.11894252802	 
47.0	 -0.943910168648	 0.971003036514	 
47.0	 -1.05094979557	 0.823063545006	 
47.0	 -1.15798942249	 0.675124053499	 
47.0	 -1.26502904941	 0.527184561991	 
47.0	 -1.30058749761	 0.351503255242	 
47.0	 -1.3213704672	 0.170087591491	 
47.0	 -1.34215343679	 -0.01132807226	 
47.0	 -1.34536128529	 -0.191913915433	 
47.0	 -1.3075775663	 -0.37056431554	 
47.0	 -1.26979384731	 -0.549214715647	 
47.0	 -1.16959140484	 -0.695146182392	 
47.0	 -1.04416506614	 -0.827855671266	 
47.0	 -0.889693792128	 -0.911679495203	 
47.0	 -0.713121077042	 -0.958209430718	 
47.0	 -0.54375973615	 -1.01735248527	 
51.0	 -0.55457327467	 -0.941328371024	 
51.0	 -0.37140523172	 -0.969316176598	 
51.0	 -0.18823718877	 -0.997303982171	 
51.0	 -0.00424975591932	 -1.01800241948	 
51.0	 0.180560754803	 -1.03137868	 
51.0	 0.365371265525	 -1.04475494053	 
51.0	 0.532425850713	 -0.971401251891	 
51.0	 0.697111007636	 -0.886473939981	 
51.0	 0.851900790869	 -0.786864726265	 
51.0	 0.99242323118	 -0.666086859964	 
51.0	 1.07712183764	 -0.501924981507	 
51.0	 1.16253133447	 -0.337489379921	 
51.0	 1.24794083131	 -0.173053778334	 
51.0	 1.32272592921	 -0.0042437514232	 
51.0	 1.377856832	 0.172658574101	 
51.0	 1.4329877348	 0.349560899625	 
51.0	 1.4881186376	 0.526463225149	 
51.0	 1.52830141792	 0.704773246199	 
51.0	 1.50716539279	 0.888857785639	 
51.0	 1.48602936766	 1.07294232508	 
51.0	 1.46489334254	 1.25702686452	 
51.0	 1.36986135051	 1.3989211036	 
51.0	 1.22207803803	 1.51069740597	 
51.0	 1.07429472555	 1.62247370834	 
51.0	 0.921396259548	 1.72098421322	 
51.0	 0.736827303389	 1.73735948853	 
51.0	 0.552258347231	 1.75373476384	 
51.0	 0.367689391072	 1.77011003915	 
51.0	 0.183120434914	 1.78648531446	 
51.0	 0.00398164176047	 1.74508250676	 
51.0	 -0.174304283757	 1.694605007	 
51.0	 -0.352590209275	 1.64412750725	 
51.0	 -0.530876134792	 1.5936500075	 
51.0	 -0.708642107497	 1.54230189509	 
51.0	 -0.837624696969	 1.40927054228	 
51.0	 -0.966607286441	 1.27623918946	 
51.0	 -1.09558987591	 1.14320783664	 
51.0	 -1.22015327386	 1.00746810103	 
51.0	 -1.28014543868	 0.832154697726	 
51.0	 -1.34013760351	 0.65684129442	 
51.0	 -1.40012976833	 0.481527891114	 
51.0	 -1.41044560276	 0.299888792696	 
51.0	 -1.39630371391	 0.115135291515	 
51.0	 -1.38216182506	 -0.0696182096664	 
51.0	 -1.36232558265	 -0.252569285761	 
51.0	 -1.2675833519	 -0.411810483101	 
51.0	 -1.17284112114	 -0.571051680441	 
51.0	 -1.03175257838	 -0.680433304096	 
51.0	 -0.86602512797	 -0.763308278595	 
51.0	 -0.691155013081	 -0.81611144744	 
58.0	 -0.276528099136	 -1.18653691256	 
58.0	 -0.0908417379421	 -1.18653691256	 
58.0	 0.0941008764084	 -1.18408423699	 
58.0	 0.248513789607	 -1.08095287915	 
58.0	 0.402926702806	 -0.977821521303	 
58.0	 0.557339616005	 -0.874690163458	 
58.0	 0.717820454912	 -0.781724609211	 
58.0	 0.881882861926	 -0.694759378582	 
58.0	 1.04353930776	 -0.603598230191	 
58.0	 1.20146630836	 -0.505933051066	 
58.0	 1.34106609825	 -0.388116660522	 
58.0	 1.45323226623	 -0.240136339213	 
58.0	 1.5359505529	 -0.0810819615648	 
58.0	 1.54908682976	 0.104139157543	 
58.0	 1.56222310662	 0.289360276651	 
58.0	 1.57535938348	 0.474581395759	 
58.0	 1.57500710988	 0.65915409308	 
58.0	 1.54416456003	 0.842261061413	 
58.0	 1.51332201017	 1.02536802975	 
58.0	 1.48247946032	 1.20847499808	 
58.0	 1.34432474926	 1.32584429193	 
58.0	 1.19521240401	 1.43650111833	 
58.0	 1.04279920504	 1.53423537858	 
58.0	 0.858884709194	 1.5086446976	 
58.0	 0.674970213353	 1.48305401662	 
58.0	 0.491055717512	 1.45746333564	 
58.0	 0.307141221671	 1.43187265466	 
58.0	 0.122393598529	 1.41520976531	 
58.0	 -0.0630803061873	 1.40632970886	 
58.0	 -0.248554210904	 1.3974496524	 
58.0	 -0.434028115621	 1.38856959595	 
58.0	 -0.619350828185	 1.38428084139	 
58.0	 -0.803838706086	 1.40534378614	 
58.0	 -0.963593818534	 1.37277719471	 
58.0	 -1.06734910459	 1.2187828268	 
58.0	 -1.16896078787	 1.06388163195	 
58.0	 -1.20721825967	 0.882179153748	 
58.0	 -1.24547573147	 0.700476675546	 
58.0	 -1.28373320328	 0.518774197344	 
58.0	 -1.28930407167	 0.335050797434	 
58.0	 -1.27372072897	 0.150019491532	 
58.0	 -1.25813738627	 -0.0350118143698	 
58.0	 -1.24634228568	 -0.220202361334	 
58.0	 -1.24634228568	 -0.405888722528	 
58.0	 -1.18925776103	 -0.559078580062	 
58.0	 -1.02958976492	 -0.653870751418	 
58.0	 -0.869921768804	 -0.748662922775	 
58.0	 -0.719702253207	 -0.857655723344	 
58.0	 -0.568786350083	 -0.965518186321	 
58.0	 -0.406537726571	 -1.05582216687	 
63.0	 -0.605668412608	 -1.000041175	 
63.0	 -0.436627189505	 -1.09153711954	 
63.0	 -0.267585966402	 -1.18303306408	 
63.0	 -0.0917564711731	 -1.15748091633	 
63.0	 0.0867285726398	 -1.08613995957	 
63.0	 0.265213616453	 -1.01479900282	 
63.0	 0.438676390374	 -0.934466853675	 
63.0	 0.588754045777	 -0.815562178172	 
63.0	 0.706004080042	 -0.663250417497	 
63.0	 0.857732666337	 -0.570657400239	 
63.0	 1.04826358888	 -0.545272157841	 
63.0	 1.23879451142	 -0.519886915443	 
63.0	 1.40888649127	 -0.467201361177	 
63.0	 1.48690419538	 -0.291532124201	 
63.0	 1.5649218995	 -0.115862887225	 
63.0	 1.63572386173	 0.0613366035868	 
63.0	 1.63572386173	 0.253551178932	 
63.0	 1.63572386173	 0.445765754278	 
63.0	 1.63253043843	 0.637457016007	 
63.0	 1.57118064523	 0.819618059726	 
63.0	 1.50983085202	 1.00177910345	 
63.0	 1.41548404519	 1.15568028212	 
63.0	 1.2449210711	 1.24430711128	 
63.0	 1.07435809702	 1.33293394044	 
63.0	 0.90471186731	 1.42328006307	 
63.0	 0.736074495364	 1.51551823173	 
63.0	 0.567437123419	 1.6077564004	 
63.0	 0.381830236407	 1.64660290819	 
63.0	 0.190884409722	 1.66865136045	 
63.0	 -6.14169623207e-05	 1.69069981271	 
63.0	 -0.191007243647	 1.71274826496	 
63.0	 -0.382328105711	 1.73125321567	 
63.0	 -0.573658936984	 1.74966397285	 
63.0	 -0.722422375435	 1.65571896775	 
63.0	 -0.853522229318	 1.51515129263	 
63.0	 -0.984622083202	 1.37458361752	 
63.0	 -1.11572193709	 1.2340159424	 
63.0	 -1.15146880265	 1.05049448704	 
63.0	 -1.16987968	 0.859163667335	 
63.0	 -1.19076199718	 0.668141753915	 
63.0	 -1.22001083953	 0.478165575943	 
63.0	 -1.24925968187	 0.288189397972	 
63.0	 -1.27850852422	 0.0982132199998	 
63.0	 -1.26333646875	 -0.0930255420266	 
63.0	 -1.24492559139	 -0.284356361735	 
63.0	 -1.20508647187	 -0.469482274275	 
63.0	 -1.11841483973	 -0.641047046762	 
63.0	 -1.00242708924	 -0.784887869311	 
63.0	 -0.823121541339	 -0.833065153042	 
63.0	 -0.630906965994	 -0.833065153042	 
78.0	 0.080718689945	 -1.03765186935	 
78.0	 0.267078547351	 -1.01573055739	 
78.0	 0.453438404757	 -0.993809245439	 
78.0	 0.639798262163	 -0.971887933484	 
78.0	 0.826158119569	 -0.94996662153	 
78.0	 0.930411035287	 -0.824650836174	 
78.0	 0.993978622662	 -0.648101403421	 
78.0	 1.05754621004	 -0.471551970668	 
78.0	 1.12111379741	 -0.295002537914	 
78.0	 1.18585098098	 -0.118920370914	 
78.0	 1.26143250855	 0.0528293687064	 
78.0	 1.33701403613	 0.224579108327	 
78.0	 1.4125955637	 0.396328847947	 
78.0	 1.48817709128	 0.568078587567	 
78.0	 1.5300287253	 0.746071137467	 
78.0	 1.52092388612	 0.933494834671	 
78.0	 1.51181904694	 1.12091853187	 
78.0	 1.50271420776	 1.30834222908	 
78.0	 1.34995396414	 1.3874383715	 
78.0	 1.17225995493	 1.4477324795	 
78.0	 0.99456594572	 1.50802658751	 
78.0	 0.816871936507	 1.56832069551	 
78.0	 0.637973790972	 1.61910356498	 
78.0	 0.450860248418	 1.60499461168	 
78.0	 0.263746705864	 1.59088565839	 
78.0	 0.0766331633104	 1.5767767051	 
78.0	 -0.110480379244	 1.5626677518	 
78.0	 -0.297593921798	 1.54855879851	 
78.0	 -0.484707464352	 1.53444984522	 
78.0	 -0.663352038246	 1.49100498135	 
78.0	 -0.829195765078	 1.4032188854	 
78.0	 -0.99503949191	 1.31543278946	 
78.0	 -1.16088321874	 1.22764669352	 
78.0	 -1.32672694557	 1.13986059758	 
78.0	 -1.41038771634	 0.999221891516	 
78.0	 -1.42146558405	 0.811904457151	 
78.0	 -1.43254345176	 0.624587022785	 
78.0	 -1.44362131946	 0.43726958842	 
78.0	 -1.45469918717	 0.249952154055	 
78.0	 -1.46577705488	 0.0626347196894	 
78.0	 -1.4167723549	 -0.114078716685	 
78.0	 -1.34224163042	 -0.286287054111	 
78.0	 -1.26771090594	 -0.458495391537	 
78.0	 -1.12726998464	 -0.564081975866	 
78.0	 -0.954271295807	 -0.636759304063	 
78.0	 -0.781526958445	 -0.709996076482	 
78.0	 -0.613031849244	 -0.792578995692	 
78.0	 -0.444536740042	 -0.875161914903	 
78.0	 -0.27255375604	 -0.942703332283	 
78.0	 -0.0877764192565	 -0.955068950137	 
81.0	 -0.346136530063	 -1.08768340935	 
81.0	 -0.164863406048	 -1.10367829385	 
81.0	 0.0164097179664	 -1.11967317835	 
81.0	 0.197682841981	 -1.13566806284	 
81.0	 0.378955965996	 -1.15166294734	 
81.0	 0.560229090011	 -1.16765783184	 
81.0	 0.710857341865	 -1.12549495968	 
81.0	 0.800150903762	 -0.9669312765	 
81.0	 0.884491113578	 -0.805870046751	 
81.0	 0.958885307656	 -0.639793902445	 
81.0	 1.03327950173	 -0.473717758139	 
81.0	 1.11260075003	 -0.310125900666	 
81.0	 1.20189431193	 -0.151562217485	 
81.0	 1.27608806441	 0.0129838873024	 
81.0	 1.31962077339	 0.189677647998	 
81.0	 1.36315348238	 0.366371408694	 
81.0	 1.40668619136	 0.54306516939	 
81.0	 1.45021890034	 0.719758930085	 
81.0	 1.47240985505	 0.895251692437	 
81.0	 1.40932804025	 1.06594576516	 
81.0	 1.33838573718	 1.22926557176	 
81.0	 1.17206150067	 1.30310343583	 
81.0	 1.00573726416	 1.3769412999	 
81.0	 0.839413027654	 1.45077916397	 
81.0	 0.673088791146	 1.52461702804	 
81.0	 0.494560046467	 1.54088482991	 
81.0	 0.312582625285	 1.54088482991	 
81.0	 0.130605204103	 1.54088482991	 
81.0	 -0.0513722170798	 1.54088482991	 
81.0	 -0.232231894704	 1.53409173042	 
81.0	 -0.404615436077	 1.47578481416	 
81.0	 -0.57699897745	 1.4174778979	 
81.0	 -0.749382518823	 1.35917098164	 
81.0	 -0.903809015186	 1.27847103868	 
81.0	 -0.998173503896	 1.12287179353	 
81.0	 -1.09253799261	 0.967272548384	 
81.0	 -1.18690248132	 0.811673303236	 
81.0	 -1.24772447125	 0.644799593244	 
81.0	 -1.26650137954	 0.463793489659	 
81.0	 -1.28527828783	 0.282787386073	 
81.0	 -1.30405519611	 0.101781282487	 
81.0	 -1.3228321044	 -0.0792248210991	 
81.0	 -1.32871764766	 -0.260897786849	 
81.0	 -1.32871764766	 -0.442875208031	 
81.0	 -1.27581398523	 -0.605192926308	 
81.0	 -1.15697480255	 -0.743008130401	 
81.0	 -1.03813561986	 -0.880823334495	 
81.0	 -0.87242726179	 -0.942844153439	 
81.0	 -0.696037004734	 -0.987590762652	 
81.0	 -0.520916709391	 -1.03701122038	 
96.0	 0.581591862953	 -0.887588117362	 
96.0	 0.733594200618	 -0.778516260969	 
96.0	 0.885596538282	 -0.669444404576	 
96.0	 1.03759887595	 -0.560372548183	 
96.0	 1.16170126229	 -0.424475161569	 
96.0	 1.26472286692	 -0.268308809581	 
96.0	 1.36774447154	 -0.112142457592	 
96.0	 1.42803974095	 0.0579899011702	 
96.0	 1.43714514339	 0.244854751152	 
96.0	 1.44625054584	 0.431719601135	 
96.0	 1.45535594828	 0.618584451117	 
96.0	 1.46108348606	 0.804990636833	 
96.0	 1.40247949676	 0.982661548775	 
96.0	 1.34387550745	 1.16033246072	 
96.0	 1.25611209946	 1.31658641382	 
96.0	 1.10410976179	 1.42565827021	 
96.0	 0.95210742413	 1.5347301266	 
96.0	 0.800105086465	 1.643801983	 
96.0	 0.617279663076	 1.66284411744	 
96.0	 0.430323208287	 1.6698201138	 
96.0	 0.243366753498	 1.67679611016	 
96.0	 0.0564102987092	 1.68377210653	 
96.0	 -0.13054615608	 1.69074810289	 
96.0	 -0.315688968665	 1.67510154767	 
96.0	 -0.499146183897	 1.63842961438	 
96.0	 -0.682603399129	 1.60175768108	 
96.0	 -0.846119101317	 1.52502141107	 
96.0	 -0.985982158729	 1.40076479884	 
96.0	 -1.12584521614	 1.2765081866	 
96.0	 -1.26570827355	 1.15225157437	 
96.0	 -1.40557133096	 1.02799496213	 
96.0	 -1.54543438837	 0.903738349898	 
96.0	 -1.60840625517	 0.753741924397	 
96.0	 -1.57153926265	 0.57032380813	 
96.0	 -1.53467227013	 0.386905691863	 
96.0	 -1.49816333473	 0.203417725307	 
96.0	 -1.46338780393	 0.0195916037416	 
96.0	 -1.42861227313	 -0.164234517824	 
96.0	 -1.39383674233	 -0.34806063939	 
96.0	 -1.28138761997	 -0.486090346665	 
96.0	 -1.13737060528	 -0.605507598328	 
96.0	 -0.993165820611	 -0.724696610895	 
96.0	 -0.848230441043	 -0.842997567198	 
96.0	 -0.703295061476	 -0.961298523501	 
96.0	 -0.522469380029	 -0.99523982472	 
96.0	 -0.335945549501	 -0.980740129627	 
96.0	 -0.149421718973	 -0.966240434534	 
96.0	 0.0339158030126	 -0.931125490131	 
96.0	 0.216113404756	 -0.888635321485	 
96.0	 0.400913280736	 -0.859554891373	 
111.0	 0.0877570784423	 -1.14366213767	 
111.0	 0.278217495171	 -1.14366213767	 
111.0	 0.4686779119	 -1.14366213767	 
111.0	 0.659138328629	 -1.14366213767	 
111.0	 0.835314864465	 -1.08846540691	 
111.0	 1.00186695565	 -0.996077251482	 
111.0	 1.16619639657	 -0.900233911914	 
111.0	 1.31932474023	 -0.786978092159	 
111.0	 1.47245308389	 -0.673722272405	 
111.0	 1.58722209019	 -0.529313609776	 
111.0	 1.66665651616	 -0.356208606059	 
111.0	 1.73609910216	 -0.180683558541	 
111.0	 1.74467417693	 0.00958372302212	 
111.0	 1.7532492517	 0.199851004585	 
111.0	 1.76182432647	 0.390118286148	 
111.0	 1.64556889075	 0.540527798757	 
111.0	 1.52831879375	 0.690619720907	 
111.0	 1.41106869675	 0.840711643057	 
111.0	 1.23828299192	 0.920750887368	 
111.0	 1.06540006747	 1.00066749875	 
111.0	 0.890377794189	 1.07460658604	 
111.0	 0.706046833793	 1.12253640327	 
111.0	 0.521715873396	 1.17046622051	 
111.0	 0.356095519519	 1.26223837367	 
111.0	 0.193957845873	 1.36217107665	 
111.0	 0.0318201722258	 1.46210377963	 
111.0	 -0.129458293757	 1.56341490543	 
111.0	 -0.290635367992	 1.66478513082	 
111.0	 -0.481095784721	 1.66478513082	 
111.0	 -0.67155620145	 1.66478513082	 
111.0	 -0.859091074495	 1.65148405613	 
111.0	 -1.03197399895	 1.57156744475	 
111.0	 -1.2048569234	 1.49165083337	 
111.0	 -1.26159029824	 1.32289822601	 
111.0	 -1.29345036381	 1.13512147941	 
111.0	 -1.32531042937	 0.947344732815	 
111.0	 -1.34335835462	 0.758404547669	 
111.0	 -1.34335835462	 0.56794413094	 
111.0	 -1.34335835462	 0.377483714211	 
111.0	 -1.34061010046	 0.187242097159	 
111.0	 -1.31047445732	 -0.000819098607233	 
111.0	 -1.26088303723	 -0.181974666923	 
111.0	 -1.15966075714	 -0.342404622508	 
111.0	 -1.02765637422	 -0.479699972865	 
111.0	 -0.878908151091	 -0.595888757849	 
111.0	 -0.715181735208	 -0.69319667676	 
111.0	 -0.550836738628	 -0.789427589149	 
111.0	 -0.388382338499	 -0.888404784323	 
111.0	 -0.225758758662	 -0.986254771002	 
111.0	 -0.0452112793241	 -1.03132424693	 
126.0	 -0.102236387449	 -1.05672266627	 
126.0	 0.0862611737669	 -1.0872673645	 
126.0	 0.274758734983	 -1.11781206273	 
126.0	 0.463256296199	 -1.14835676097	 
126.0	 0.65180553546	 -1.17008107953	 
126.0	 0.840648062569	 -1.14174719294	 
126.0	 1.02949058968	 -1.11341330634	 
126.0	 1.19283773949	 -1.0397722406	 
126.0	 1.31506586553	 -0.893059615446	 
126.0	 1.42557262746	 -0.739201411949	 
126.0	 1.49999046393	 -0.563342676628	 
126.0	 1.55051655506	 -0.379977662582	 
126.0	 1.59004476928	 -0.193157349299	 
126.0	 1.6295729835	 -0.00633703601548	 
126.0	 1.61250768756	 0.180983414747	 
126.0	 1.57628738765	 0.368473145263	 
126.0	 1.54006708773	 0.555962875779	 
126.0	 1.50384678782	 0.743452606295	 
126.0	 1.46762648791	 0.93094233681	 
126.0	 1.36602859708	 1.09160737809	 
126.0	 1.26012453183	 1.25050557864	 
126.0	 1.11526216695	 1.3486545143	 
126.0	 0.926670896102	 1.37861518412	 
126.0	 0.738079625258	 1.40857585394	 
126.0	 0.54909136742	 1.38998230554	 
126.0	 0.360035415749	 1.36310933934	 
126.0	 0.170979464078	 1.33623637315	 
126.0	 -0.0198567682328	 1.33453846401	 
126.0	 -0.210813069974	 1.33453846401	 
126.0	 -0.398541976606	 1.36594054903	 
126.0	 -0.585506302545	 1.40478189299	 
126.0	 -0.775624094806	 1.41294046828	 
126.0	 -0.966580396547	 1.41294046828	 
126.0	 -1.12163501405	 1.3528270997	 
126.0	 -1.21218251486	 1.18470375429	 
126.0	 -1.30273001567	 1.01658040888	 
126.0	 -1.33463818527	 0.830928480031	 
126.0	 -1.35121206574	 0.640692795522	 
126.0	 -1.36778594622	 0.450457111013	 
126.0	 -1.37956014175	 0.260012740573	 
126.0	 -1.37956014175	 0.0690564388325	 
126.0	 -1.37956014175	 -0.121899862908	 
126.0	 -1.31329736075	 -0.298265158161	 
126.0	 -1.23128659189	 -0.469059078716	 
126.0	 -1.04152796348	 -0.490412582372	 
126.0	 -0.858454754324	 -0.528609574094	 
126.0	 -0.705704288573	 -0.643202786753	 
126.0	 -0.558046429181	 -0.76398790941	 
126.0	 -0.416126561906	 -0.891749642519	 
126.0	 -0.274647067515	 -1.01991157042	 
129.0	 0.497933848944	 -1.01098539841	 
129.0	 0.686405466018	 -1.01098539841	 
129.0	 0.874877083093	 -1.01098539841	 
129.0	 1.02095881347	 -0.927353568586	 
129.0	 1.1323839115	 -0.775346996453	 
129.0	 1.24380900953	 -0.623340424319	 
129.0	 1.35523410756	 -0.471333852186	 
129.0	 1.42137480517	 -0.304507479795	 
129.0	 1.42137480517	 -0.11603586272	 
129.0	 1.42137480517	 0.0724357543539	 
129.0	 1.42137480517	 0.260907371428	 
129.0	 1.42137480517	 0.449378988502	 
129.0	 1.40587533213	 0.636212226373	 
129.0	 1.36647066137	 0.820518553895	 
129.0	 1.32706599061	 1.00482488142	 
129.0	 1.24417918529	 1.1655208055	 
129.0	 1.11106096003	 1.29894152558	 
129.0	 0.977942734783	 1.43236224567	 
129.0	 0.84482450953	 1.56578296575	 
129.0	 0.689190619193	 1.63390232926	 
129.0	 0.502130671713	 1.61087785333	 
129.0	 0.315070724234	 1.58785337741	 
129.0	 0.128010776755	 1.56482890148	 
129.0	 -0.0594100504193	 1.54524738768	 
129.0	 -0.247178630439	 1.52898359969	 
129.0	 -0.434947210459	 1.51271981169	 
129.0	 -0.622715790479	 1.4964560237	 
129.0	 -0.810484370498	 1.48019223571	 
129.0	 -0.998252950518	 1.46392844771	 
129.0	 -1.16421928505	 1.37538573891	 
129.0	 -1.3296618874	 1.28510675038	 
129.0	 -1.49510448975	 1.19482776185	 
129.0	 -1.57156175705	 1.05699954117	 
129.0	 -1.55466368417	 0.869286980124	 
129.0	 -1.5377656113	 0.681574419075	 
129.0	 -1.52086753842	 0.493861858026	 
129.0	 -1.50396946554	 0.306149296977	 
129.0	 -1.46286911586	 0.122329063631	 
129.0	 -1.42005968502	 -0.0612163069841	 
129.0	 -1.35656911394	 -0.23361051658	 
129.0	 -1.22674346945	 -0.370237206783	 
129.0	 -1.09691782497	 -0.506863896986	 
129.0	 -0.954551286599	 -0.62481249064	 
129.0	 -0.778947331353	 -0.693258099297	 
129.0	 -0.60174407657	 -0.75700440773	 
129.0	 -0.420843586134	 -0.809886947406	 
129.0	 -0.239943095698	 -0.862769487082	 
129.0	 -0.0570790987199	 -0.908182995636	 
129.0	 0.126440773207	 -0.951101605244	 
129.0	 0.312038020572	 -0.979932356105	 
144.0	 -0.527828881119	 -0.965395529211	 
144.0	 -0.314014362419	 -0.942099508111	 
144.0	 -0.130283719027	 -0.848911637932	 
144.0	 0.0169040636939	 -0.697581454853	 
144.0	 0.105107438597	 -0.508664803786	 
144.0	 0.31952450389	 -0.491792485718	 
144.0	 0.51818255975	 -0.502053725561	 
144.0	 0.609776704482	 -0.696655538648	 
144.0	 0.750322464387	 -0.851958267743	 
144.0	 0.917395528815	 -0.986901825649	 
144.0	 1.08666410941	 -1.01122812054	 
144.0	 1.23421364103	 -0.865276445823	 
144.0	 1.34646934147	 -0.681815249039	 
144.0	 1.4587250419	 -0.498354052255	 
144.0	 1.46279933123	 -0.287150067516	 
144.0	 1.45268726087	 -0.0723080347587	 
144.0	 1.44433861514	 0.142605137585	 
144.0	 1.43711179456	 0.357563566287	 
144.0	 1.42988497398	 0.572521994989	 
144.0	 1.41576503579	 0.786990880935	 
144.0	 1.39254025281	 1.00081314933	 
144.0	 1.31984871429	 1.19449286293	 
144.0	 1.18709924022	 1.36371735921	 
144.0	 0.996930622225	 1.38696401311	 
144.0	 0.784465816224	 1.35352662062	 
144.0	 0.607010997358	 1.24132534233	 
144.0	 0.439829112957	 1.10601248066	 
144.0	 0.253330751514	 1.17111214317	 
144.0	 0.0714010652981	 1.28568442373	 
144.0	 -0.117694611299	 1.38652255526	 
144.0	 -0.315644832226	 1.47063594921	 
144.0	 -0.516206781482	 1.54430559123	 
144.0	 -0.730448815273	 1.56327145432	 
144.0	 -0.92986572988	 1.52214144492	 
144.0	 -1.10810361657	 1.40299502125	 
144.0	 -1.23215177152	 1.22729240813	 
144.0	 -1.35619992648	 1.05158979501	 
144.0	 -1.48024808143	 0.875887181883	 
144.0	 -1.60429623639	 0.70018456876	 
144.0	 -1.65402233468	 0.500889511601	 
144.0	 -1.65402233468	 0.285809635727	 
144.0	 -1.65402233468	 0.0707297598535	 
144.0	 -1.62016776817	 -0.140621926208	 
144.0	 -1.57336458158	 -0.350547662436	 
144.0	 -1.52656139499	 -0.560473398665	 
144.0	 -1.46772663153	 -0.767242352161	 
144.0	 -1.32095084275	 -0.904704285965	 
144.0	 -1.13256008119	 -1.00847458018	 
144.0	 -0.936222020048	 -1.032449173	 
144.0	 -0.729123121569	 -1.02096422915	 
