33.0	 -1.45910093602	 0.579136151564	 
33.0	 -1.4998151842	 0.370079583859	 
33.0	 -1.48937806999	 0.167054190162	 
33.0	 -1.4525203284	 -0.0817821683446	 
33.0	 -1.38535599376	 -0.323085094729	 
33.0	 -1.30063948578	 -0.531803213057	 
33.0	 -1.22144707727	 -0.714520521795	 
33.0	 -1.14141393911	 -0.878658520906	 
33.0	 -1.04876405501	 -1.02306554379	 
33.0	 -0.942024669487	 -1.12868868638	 
33.0	 -0.819071701401	 -1.19227778369	 
33.0	 -0.678580143399	 -1.22524297742	 
33.0	 -0.537663225833	 -1.2206136593	 
33.0	 -0.409004168566	 -1.17260226337	 
33.0	 -0.274057283275	 -1.0997318781	 
33.0	 -0.138537460073	 -1.02784276133	 
33.0	 -0.0374810152948	 -0.983328862685	 
33.0	 0.0304489156171	 -0.965226871775	 
33.0	 0.0832850199772	 -0.963266528501	 
33.0	 0.131545459823	 -0.981086036113	 
33.0	 0.208984303654	 -0.989414166145	 
33.0	 0.374242309801	 -0.920719707427	 
33.0	 0.589061426161	 -0.821879939271	 
34.0	 0.919698418105	 -0.685874280047	 
34.0	 1.10028093735	 -0.500566311297	 
34.0	 1.24734578659	 -0.3128200798	 
34.0	 1.39011972638	 -0.135097817373	 
34.0	 1.5164181931	 0.0453336258833	 
34.0	 1.58777142943	 0.256943225188	 
34.0	 1.59117177276	 0.497315294301	 
34.0	 1.55376799608	 0.715742998694	 
34.0	 1.49741944939	 0.869556740299	 
34.0	 1.40901052268	 0.964852175983	 
34.0	 1.26873286669	 1.01991627635	 
34.0	 1.08062101577	 1.05303601199	 
34.0	 0.864078516413	 1.0824532005	 
34.0	 0.637955684643	 1.12370047863	 
34.0	 0.419847947877	 1.18811125286	 
34.0	 0.219956336119	 1.28117161435	 
34.0	 0.0193360793607	 1.38642328959	 
34.0	 -0.205113567594	 1.48174130178	 
34.0	 -0.440101580201	 1.54290105901	 
34.0	 -0.649222695297	 1.54452656751	 
34.0	 -0.817539690374	 1.47341057073	 
34.0	 -0.963997335441	 1.33524234841	 
34.0	 -1.1031685305	 1.13977495155	 
34.0	 -1.22048037556	 0.906514482117	 
34.0	 -1.29612452133	 0.656502244552	 
34.0	 -1.33413550218	 0.400281467585	 
34.0	 -1.35379542377	 0.141645004378	 
34.0	 -1.36654671127	 -0.114372584026	 
34.0	 -1.37128290377	 -0.360637121444	 
34.0	 -1.36217484127	 -0.589833819635	 
34.0	 -1.31882046375	 -0.794647890358	 
34.0	 -1.21987317139	 -0.967403321264	 
34.0	 -1.07535857966	 -1.09622486972	 
34.0	 -0.915367028381	 -1.16677645382	 
34.0	 -0.75980132081	 -1.17957733324	 
34.0	 -0.612250708243	 -1.15824253421	 
34.0	 -0.47490112568	 -1.12471642144	 
34.0	 -0.349938508123	 -1.08631378318	 
34.0	 -0.23922494835	 -1.0468726256	 
34.0	 -0.140857873305	 -1.01233057002	 
34.0	 -0.0505463735416	 -0.98988952215	 
34.0	 0.0336121239968	 -0.981355602537	 
34.0	 0.109755526532	 -0.980136471164	 
34.0	 0.175697899062	 -0.981355602537	 
34.0	 0.229253306586	 -0.98988952215	 
34.0	 0.271042446698	 -1.01052444947	 
34.0	 0.334313120894	 -1.01865199196	 
34.0	 0.472553269568	 -0.971151021412	 
34.0	 0.691025328834	 -0.851676146823	 
34.0	 0.919698418105	 -0.685874280047	 
35.0	 0.307440896318	 -0.732705983423	 
35.0	 0.640722817175	 -0.536031186476	 
35.0	 0.927926778091	 -0.365216188185	 
35.0	 1.14053325619	 -0.239940957308	 
35.0	 1.3310359827	 -0.051170915063	 
35.0	 1.49972610028	 0.216002482766	 
35.0	 1.61174930313	 0.497713603152	 
35.0	 1.67409165884	 0.724542896851	 
35.0	 1.69563832145	 0.891888838394	 
35.0	 1.66340280459	 1.11743134244	 
35.0	 1.5720924583	 1.36570628955	 
35.0	 1.42891590887	 1.48498110466	 
35.0	 1.26236571076	 1.50762662879	 
35.0	 1.09164731302	 1.51818280924	 
35.0	 0.895966289311	 1.55369578738	 
35.0	 0.684456656297	 1.5929224256	 
35.0	 0.501268740799	 1.56391867533	 
35.0	 0.371953351758	 1.41664936975	 
35.0	 0.300999679483	 1.15415149355	 
35.0	 0.257885726458	 0.900831088278	 
35.0	 0.192027646378	 0.732300544357	 
35.0	 0.0456345171823	 0.634374683132	 
35.0	 -0.145194793048	 0.583322511698	 
35.0	 -0.312057370786	 0.552067233575	 
35.0	 -0.458634821124	 0.509509307772	 
35.0	 -0.595829586004	 0.440715096877	 
35.0	 -0.72243863563	 0.354387204125	 
35.0	 -0.856841504188	 0.235591992106	 
35.0	 -1.01661540143	 0.0639165229352	 
35.0	 -1.15524107097	 -0.129847330634	 
35.0	 -1.2432504435	 -0.319930450644	 
35.0	 -1.31204539594	 -0.516683625101	 
35.0	 -1.3609778555	 -0.751336286579	 
35.0	 -1.36579484782	 -1.04317036469	 
35.0	 -1.34118117774	 -1.27194471292	 
35.0	 -1.29561151997	 -1.34780803529	 
35.0	 -1.19691201954	 -1.34937372674	 
35.0	 -1.06275646305	 -1.32711141596	 
35.0	 -0.95399702086	 -1.2841877137	 
35.0	 -0.866257000305	 -1.23010077038	 
35.0	 -0.774140480902	 -1.17304605889	 
35.0	 -0.671053960058	 -1.10910806718	 
35.0	 -0.567896723247	 -1.04674638838	 
35.0	 -0.488880599964	 -1.0081319002	 
35.0	 -0.431695304518	 -0.992427897277	 
35.0	 -0.380238334744	 -0.986773121462	 
35.0	 -0.317860482609	 -0.978097425922	 
35.0	 -0.208416862046	 -0.94813712483	 
35.0	 0.00433747168441	 -0.872211843948	 
35.0	 0.307440896318	 -0.732705983423	 
36.0	 0.390245787605	 -0.846857761557	 
36.0	 0.59361090572	 -0.762289441402	 
36.0	 0.766800507256	 -0.705763741298	 
36.0	 0.913772611219	 -0.659368621212	 
36.0	 1.05822279157	 -0.572870666768	 
36.0	 1.20687617794	 -0.442242815099	 
36.0	 1.34712315226	 -0.30909804914	 
36.0	 1.46551345527	 -0.177799020327	 
36.0	 1.54915725514	 -0.0270358543354	 
36.0	 1.58749399675	 0.185958017485	 
36.0	 1.58111913428	 0.486477583752	 
36.0	 1.5504357303	 0.853275892998	 
36.0	 1.50048763206	 1.2098387508	 
36.0	 1.41646729498	 1.44477172551	 
36.0	 1.2642762102	 1.5775809029	 
36.0	 1.02213651652	 1.67616004594	 
36.0	 0.755320500803	 1.72857478604	 
36.0	 0.514932142963	 1.72052066031	 
36.0	 0.283440571206	 1.67152472879	 
36.0	 0.0658896327615	 1.58964111721	 
36.0	 -0.10466420833	 1.46692057127	 
36.0	 -0.216469488562	 1.28981370237	 
36.0	 -0.282319716267	 1.06236854767	 
36.0	 -0.36639259342	 0.868650044454	 
36.0	 -0.512909350064	 0.751949118526	 
36.0	 -0.701808434114	 0.639610844033	 
36.0	 -0.894420350151	 0.499418718061	 
36.0	 -1.04576203704	 0.352619692077	 
36.0	 -1.15357427155	 0.217880880401	 
36.0	 -1.23560684245	 0.0965656116061	 
36.0	 -1.30075653582	 -0.0686068886976	 
36.0	 -1.34720196238	 -0.296387631974	 
36.0	 -1.3574297637	 -0.504536443785	 
36.0	 -1.32975865738	 -0.656809758351	 
36.0	 -1.27928515838	 -0.774853038568	 
36.0	 -1.21364509097	 -0.882828661623	 
36.0	 -1.13959861152	 -0.996844878976	 
36.0	 -1.07715473203	 -1.10083538774	 
36.0	 -1.02955342381	 -1.17575553645	 
36.0	 -0.961076192344	 -1.21225079366	 
36.0	 -0.834734824614	 -1.19823997077	 
36.0	 -0.627402930815	 -1.1240119735	 
36.0	 -0.408696110713	 -1.0339064419	 
36.0	 -0.267328281449	 -0.984071538952	 
36.0	 -0.178237827104	 -0.966537036063	 
36.0	 -0.106853378134	 -0.967376007493	 
36.0	 -0.0538229288017	 -0.99069941325	 
36.0	 0.0178417339028	 -1.00429075042	 
36.0	 0.175672120094	 -0.947534333171	 
36.0	 0.390245787605	 -0.846857761557	 
37.0	 0.587503533003	 -0.530273393866	 
37.0	 0.766785113751	 -0.387604484758	 
37.0	 0.911208980552	 -0.29312386145	 
37.0	 1.02572421536	 -0.249440357142	 
37.0	 1.12056328782	 -0.229420103138	 
37.0	 1.20735494462	 -0.196787306149	 
37.0	 1.29279886879	 -0.131445488163	 
37.0	 1.38006295767	 -0.0221759986149	 
37.0	 1.45905331279	 0.138020832469	 
37.0	 1.51004931448	 0.352682560784	 
37.0	 1.52158989719	 0.616406568456	 
37.0	 1.49112756434	 0.91406158119	 
37.0	 1.41191914867	 1.21124907624	 
37.0	 1.27039977163	 1.4456668049	 
37.0	 1.06615953054	 1.57958435267	 
37.0	 0.827940935312	 1.63236220026	 
37.0	 0.582146411196	 1.63473093566	 
37.0	 0.336440134457	 1.62997906526	 
37.0	 0.0957696300659	 1.64936709302	 
37.0	 -0.13086945796	 1.65832124883	 
37.0	 -0.336379999748	 1.60531039889	 
37.0	 -0.534417984968	 1.45097180804	 
37.0	 -0.744206717336	 1.17126804487	 
37.0	 -0.952767243062	 0.849699614742	 
37.0	 -1.12940910399	 0.625120730802	 
37.0	 -1.26950565194	 0.485118148977	 
37.0	 -1.39004514649	 0.292265565009	 
37.0	 -1.4900639563	 0.0100920604953	 
37.0	 -1.54661253634	 -0.273943062813	 
37.0	 -1.54472161247	 -0.505271553981	 
37.0	 -1.48495642388	 -0.696495886703	 
37.0	 -1.37422387091	 -0.857507495566	 
37.0	 -1.23110450275	 -0.976292725599	 
37.0	 -1.07551094801	 -1.04410647617	 
37.0	 -0.92600646229	 -1.07499243384	 
37.0	 -0.796995970227	 -1.08654457097	 
37.0	 -0.682807701129	 -1.08882210885	 
37.0	 -0.57272618804	 -1.08853088201	 
37.0	 -0.467441311921	 -1.08523937178	 
37.0	 -0.372635519896	 -1.07515844671	 
37.0	 -0.289421440679	 -1.05447941067	 
37.0	 -0.215490017979	 -1.01957387566	 
37.0	 -0.141476047559	 -0.970566012214	 
37.0	 -0.0519888420971	 -0.911429903245	 
37.0	 0.0445518700064	 -0.858738140265	 
37.0	 0.108119425099	 -0.845251812414	 
37.0	 0.138335199116	 -0.864374490897	 
37.0	 0.213673575272	 -0.833219531865	 
37.0	 0.382497841836	 -0.701452325444	 
37.0	 0.587503533003	 -0.530273393866	 
38.0	 0.572433207026	 -0.743891849784	 
38.0	 0.685146963499	 -0.637574005378	 
38.0	 0.801705034836	 -0.485529234151	 
38.0	 0.945549838705	 -0.31305505443	 
38.0	 1.09337256676	 -0.148143551511	 
38.0	 1.20888929286	 -0.0155976508428	 
38.0	 1.293836812	 0.0975090480412	 
38.0	 1.36888830889	 0.223650878417	 
38.0	 1.4368811459	 0.388734581334	 
38.0	 1.48702685611	 0.612228455611	 
38.0	 1.50649102156	 0.878784921163	 
38.0	 1.48076642044	 1.1365723457	 
38.0	 1.40295908937	 1.34458342092	 
38.0	 1.2776710683	 1.48071120633	 
38.0	 1.11260637914	 1.54628157387	 
38.0	 0.920070654818	 1.58915625388	 
38.0	 0.71256470634	 1.63927167157	 
38.0	 0.501374622784	 1.65284155325	 
38.0	 0.297552809385	 1.57974843935	 
38.0	 0.112151671381	 1.40566076379	 
38.0	 -0.0460263467642	 1.13616311546	 
38.0	 -0.183482076565	 0.842992618354	 
38.0	 -0.312985642028	 0.619393189335	 
38.0	 -0.446244777506	 0.495383099649	 
38.0	 -0.594154231762	 0.461816181206	 
38.0	 -0.764733516303	 0.4854141037	 
38.0	 -0.962751840431	 0.512972626156	 
38.0	 -1.16630900897	 0.490663594558	 
38.0	 -1.32235323958	 0.365242497178	 
38.0	 -1.40445698716	 0.127072940437	 
38.0	 -1.43384059118	 -0.160474909097	 
38.0	 -1.42989935594	 -0.442487629042	 
38.0	 -1.3967255873	 -0.701096803764	 
38.0	 -1.33999756786	 -0.923880551566	 
38.0	 -1.2788646043	 -1.09841699075	 
38.0	 -1.22865467582	 -1.21648646409	 
38.0	 -1.16946882524	 -1.29171307699	 
38.0	 -1.07529550051	 -1.34281161146	 
38.0	 -0.961533611085	 -1.37298444298	 
38.0	 -0.858129509833	 -1.3767934888	 
38.0	 -0.734594332018	 -1.33233197105	 
38.0	 -0.52493829542	 -1.2099125193	 
38.0	 -0.268594923046	 -1.04695783454	 
38.0	 -0.102556765719	 -0.942631633989	 
38.0	 -0.0547570282623	 -0.922395525098	 
38.0	 -0.00350328169569	 -0.910808212169	 
38.0	 0.123328349687	 -0.865454385344	 
38.0	 0.284855937097	 -0.81934675813	 
38.0	 0.438695853636	 -0.792060885672	 
38.0	 0.572433207026	 -0.743891849784	 
39.0	 0.0438415866166	 -0.919130393538	 
39.0	 0.180209538599	 -0.811262573424	 
39.0	 0.303973520694	 -0.702241086784	 
39.0	 0.423964092051	 -0.576299157773	 
39.0	 0.541776199476	 -0.435551841687	 
39.0	 0.65440472978	 -0.293629494881	 
39.0	 0.762851387358	 -0.163072899769	 
39.0	 0.874449037408	 -0.0544359686378	 
39.0	 0.993924168638	 0.0259361326241	 
39.0	 1.11339929987	 0.0878495694814	 
39.0	 1.22184595745	 0.144293772441	 
39.0	 1.30823566772	 0.198323821375	 
39.0	 1.36167611103	 0.246841908022	 
39.0	 1.37944420747	 0.302025623482	 
39.0	 1.37147919873	 0.399895000378	 
39.0	 1.34854697573	 0.56467703574	 
39.0	 1.32036309862	 0.765222733386	 
39.0	 1.29443548773	 0.95910280222	 
39.0	 1.25566077481	 1.13369100305	 
39.0	 1.1745616198	 1.29539659434	 
39.0	 1.03425492722	 1.43941263225	 
39.0	 0.837755535566	 1.54305034177	 
39.0	 0.595041587653	 1.58554372545	 
39.0	 0.337097842792	 1.55997078414	 
39.0	 0.0973598322137	 1.46560513521	 
39.0	 -0.123297168395	 1.33351031807	 
39.0	 -0.344722466551	 1.21470403016	 
39.0	 -0.570193483437	 1.12721765199	 
39.0	 -0.776758545491	 1.03742394077	 
39.0	 -0.945249115174	 0.912443400531	 
39.0	 -1.0806542639	 0.740162532754	 
39.0	 -1.19291323336	 0.515197560322	 
39.0	 -1.27930294363	 0.250046537259	 
39.0	 -1.32908667963	 -0.0313412739371	 
39.0	 -1.34072784627	 -0.309951739795	 
39.0	 -1.32716107312	 -0.574718207349	 
39.0	 -1.30020258197	 -0.815257677872	 
39.0	 -1.26221561717	 -1.02118715264	 
39.0	 -1.2137447947	 -1.18263637359	 
39.0	 -1.16166589135	 -1.29569569307	 
39.0	 -1.11675452333	 -1.36042920366	 
39.0	 -1.07876755853	 -1.38465620069	 
39.0	 -1.03027728549	 -1.38811720026	 
39.0	 -0.953953245614	 -1.38580986721	 
39.0	 -0.838766965248	 -1.36965853586	 
39.0	 -0.67721052406	 -1.32667377569	 
39.0	 -0.484387290287	 -1.25380050685	 
39.0	 -0.289813505141	 -1.1544783647	 
39.0	 -0.112745233728	 -1.03738121238	 
39.0	 0.0438415866166	 -0.919130393538	 
40.0	 0.575383037145	 -0.56540726277	 
40.0	 0.74305521942	 -0.469560200662	 
40.0	 0.901870946192	 -0.358218785397	 
40.0	 1.06709293584	 -0.201334845013	 
40.0	 1.1996968076	 -0.0336432277582	 
40.0	 1.27798049747	 0.116684446743	 
40.0	 1.33507358533	 0.258361764467	 
40.0	 1.39344990256	 0.404618682837	 
40.0	 1.44960109875	 0.568576766363	 
40.0	 1.50049020499	 0.760349174351	 
40.0	 1.54422175688	 0.9858761898	 
40.0	 1.550378034	 1.237020315	 
40.0	 1.46937818255	 1.49097813961	 
40.0	 1.29642757316	 1.6896917087	 
40.0	 1.05538197026	 1.76801236413	 
40.0	 0.779565039149	 1.76103532298	 
40.0	 0.503653352521	 1.73060928127	 
40.0	 0.249054524311	 1.65132488235	 
40.0	 0.0254965702153	 1.48508603124	 
40.0	 -0.184023407845	 1.24665147711	 
40.0	 -0.397367152394	 0.987705069326	 
40.0	 -0.619407575032	 0.823030450924	 
40.0	 -0.850164607092	 0.788535033091	 
40.0	 -1.08412895018	 0.75733305368	 
40.0	 -1.30129346607	 0.627709805892	 
40.0	 -1.46357430424	 0.359172005157	 
40.0	 -1.54943582187	 -0.00859047625375	 
40.0	 -1.55634420732	 -0.36392641254	 
40.0	 -1.49825531517	 -0.649791021419	 
40.0	 -1.4003661089	 -0.853241448692	 
40.0	 -1.2846775136	 -0.974323610801	 
40.0	 -1.16927863057	 -1.02426338807	 
40.0	 -1.05927906964	 -1.04420944074	 
40.0	 -0.953414688672	 -1.07627222801	 
40.0	 -0.844680767435	 -1.11418754266	 
40.0	 -0.729836748786	 -1.14223759662	 
40.0	 -0.62269624511	 -1.15781311901	 
40.0	 -0.534080119119	 -1.15906892118	 
40.0	 -0.460207080939	 -1.1399709427	 
40.0	 -0.391220813717	 -1.09390420486	 
40.0	 -0.311035369641	 -1.01475466981	 
40.0	 -0.220209043886	 -0.913468516476	 
40.0	 -0.139455338967	 -0.820989789284	 
40.0	 -0.0720053092494	 -0.752902478816	 
40.0	 -0.00518371557583	 -0.710364908894	 
40.0	 0.0612582025259	 -0.701502533569	 
40.0	 0.123657218382	 -0.731926567998	 
40.0	 0.21732947721	 -0.745864341191	 
40.0	 0.382125774955	 -0.676604467786	 
40.0	 0.575383037145	 -0.56540726277	 
41.0	 0.650171911451	 -0.708855554754	 
41.0	 0.830914682202	 -0.580774635702	 
41.0	 0.99933408222	 -0.425172196853	 
41.0	 1.15516929943	 -0.271451571324	 
41.0	 1.29512758132	 -0.121670992433	 
41.0	 1.41397095199	 0.0397533063725	 
41.0	 1.50708086419	 0.228699124974	 
41.0	 1.57084941751	 0.461044263255	 
41.0	 1.60204906246	 0.741552061179	 
41.0	 1.59862590393	 1.03052801904	 
41.0	 1.55777621205	 1.27920180831	 
41.0	 1.46456849532	 1.46250218695	 
41.0	 1.29670332097	 1.57096128171	 
41.0	 1.0591361185	 1.61418418139	 
41.0	 0.799269483283	 1.63094408126	 
41.0	 0.554366941097	 1.65140880111	 
41.0	 0.306530263021	 1.66128832104	 
41.0	 0.0281568373627	 1.63517816123	 
41.0	 -0.260855547686	 1.54767384188	 
41.0	 -0.510409238614	 1.37399815428	 
41.0	 -0.696629063024	 1.1270101561	 
41.0	 -0.837076367569	 0.877905117947	 
41.0	 -0.953463757825	 0.681726079399	 
41.0	 -1.06985114808	 0.508834480679	 
41.0	 -1.20706003598	 0.311400899918	 
41.0	 -1.34144345969	 0.076233041658	 
41.0	 -1.42117588567	 -0.187299231947	 
41.0	 -1.42459904421	 -0.456516149955	 
41.0	 -1.37755506546	 -0.688684868236	 
41.0	 -1.30586434524	 -0.849403487047	 
41.0	 -1.2189161184	 -0.944493866343	 
41.0	 -1.12190489218	 -0.989676988231	 
41.0	 -1.01901452702	 -0.998850828163	 
41.0	 -0.913776853137	 -0.984717626046	 
41.0	 -0.809712833613	 -0.958783886237	 
41.0	 -0.710343431512	 -0.930733106445	 
41.0	 -0.617722541955	 -0.909033446606	 
41.0	 -0.528035788287	 -0.897918986688	 
41.0	 -0.436610287426	 -0.899938015562	 
41.0	 -0.345847683932	 -0.910346795485	 
41.0	 -0.262626896389	 -0.91973625986	 
41.0	 -0.188686671991	 -0.920971199851	 
41.0	 -0.117680583481	 -0.910562419928	 
41.0	 -0.0446205998499	 -0.887980660095	 
41.0	 0.0272657294261	 -0.863281860278	 
41.0	 0.09443570694	 -0.847913718169	 
41.0	 0.173559571408	 -0.838739878237	 
41.0	 0.293967814549	 -0.823175713908	 
41.0	 0.462387214567	 -0.786127514182	 
41.0	 0.650171911451	 -0.708855554754	 
42.0	 0.820916590735	 -0.469293872263	 
42.0	 1.00264977863	 -0.345853782013	 
42.0	 1.1635917708	 -0.219601070826	 
42.0	 1.31734789601	 -0.123265170569	 
42.0	 1.44909717771	 -0.0278317193229	 
42.0	 1.53650622508	 0.114353033237	 
42.0	 1.58376157657	 0.314299130462	 
42.0	 1.60757071297	 0.562749321758	 
42.0	 1.60227875101	 0.838547865247	 
42.0	 1.54581167337	 1.11164266535	 
42.0	 1.42852365918	 1.34975888207	 
42.0	 1.25440810247	 1.51898106844	 
42.0	 1.03073253064	 1.61151493849	 
42.0	 0.768724388413	 1.65859801211	 
42.0	 0.488712527911	 1.68198488725	 
42.0	 0.229684220243	 1.67649268513	 
42.0	 0.0182824364408	 1.62796614207	 
42.0	 -0.164331537894	 1.50518640631	 
42.0	 -0.337027342944	 1.29252331615	 
42.0	 -0.478935366282	 1.0603611598	 
42.0	 -0.568454452712	 0.889395101184	 
42.0	 -0.655973188986	 0.763861170903	 
42.0	 -0.813474136729	 0.631698411175	 
42.0	 -1.02514971763	 0.481296563805	 
42.0	 -1.22453018998	 0.323841778487	 
42.0	 -1.37545033906	 0.146236315771	 
42.0	 -1.46811569871	 -0.0840127148448	 
42.0	 -1.50059107707	 -0.356653513862	 
42.0	 -1.47932163395	 -0.610325456147	 
42.0	 -1.41365813558	 -0.806420844321	 
42.0	 -1.31699566578	 -0.949455231713	 
42.0	 -1.19944544379	 -1.04920544466	 
42.0	 -1.06230386455	 -1.11820415814	 
42.0	 -0.910358787175	 -1.16693994932	 
42.0	 -0.765210831476	 -1.19729995038	 
42.0	 -0.647191180042	 -1.21037837189	 
42.0	 -0.550858060379	 -1.21295728712	 
42.0	 -0.463523587601	 -1.2115939251	 
42.0	 -0.381110660227	 -1.19668567538	 
42.0	 -0.30359565877	 -1.15222239778	 
42.0	 -0.230978583228	 -1.0768142641	 
42.0	 -0.162769659907	 -0.978905162926	 
42.0	 -0.0882859834956	 -0.867120465136	 
42.0	 0.0121665637704	 -0.750343941177	 
42.0	 0.133276148073	 -0.648040629325	 
42.0	 0.236313234156	 -0.593471411518	 
42.0	 0.315035695315	 -0.591684649909	 
42.0	 0.428795682375	 -0.592731245005	 
42.0	 0.613410983139	 -0.55398229628	 
42.0	 0.820916590735	 -0.469293872263	 
43.0	 0.608560955461	 -0.537244864145	 
43.0	 0.733055139139	 -0.435108118827	 
43.0	 0.84292812251	 -0.328545631167	 
43.0	 0.925947998386	 -0.252310939151	 
43.0	 0.989173738919	 -0.207303821799	 
43.0	 1.04854850685	 -0.177630987254	 
43.0	 1.11173648602	 -0.139393914552	 
43.0	 1.17894607911	 -0.0619301341456	 
43.0	 1.24683597751	 0.0688290939195	 
43.0	 1.30675204888	 0.239776013192	 
43.0	 1.35192471043	 0.438697037862	 
43.0	 1.38280847169	 0.663641427503	 
43.0	 1.39887638997	 0.910009762916	 
43.0	 1.38536033892	 1.14538415201	 
43.0	 1.32255792617	 1.32911610212	 
43.0	 1.19586099623	 1.44881499773	 
43.0	 0.99504374302	 1.51208659289	 
43.0	 0.739937405271	 1.53513398142	 
43.0	 0.488304426478	 1.54450326576	 
43.0	 0.273602748669	 1.55474014191	 
43.0	 0.0664608960191	 1.55063761288	 
43.0	 -0.160639639979	 1.51215785587	 
43.0	 -0.385412903038	 1.41667447654	 
43.0	 -0.575056654339	 1.24631290132	 
43.0	 -0.732000437184	 1.03481606273	 
43.0	 -0.877635635416	 0.841206599435	 
43.0	 -1.02566962432	 0.65574787829	 
43.0	 -1.18176738096	 0.400273181764	 
43.0	 -1.33556627151	 0.0540339469989	 
43.0	 -1.44807794465	 -0.293446629244	 
43.0	 -1.4901415872	 -0.566860944336	 
43.0	 -1.4775418786	 -0.781501401125	 
43.0	 -1.43419755365	 -0.967442564763	 
43.0	 -1.37239226978	 -1.12004752526	 
43.0	 -1.29901498716	 -1.22123694225	 
43.0	 -1.21411044731	 -1.27365650746	 
43.0	 -1.11245885676	 -1.2961166012	 
43.0	 -0.994404873787	 -1.29722437792	 
43.0	 -0.868454903689	 -1.27037133866	 
43.0	 -0.741523853293	 -1.21345360987	 
43.0	 -0.614592802898	 -1.13954103049	 
43.0	 -0.488348322764	 -1.06226147314	 
43.0	 -0.367089029306	 -0.984979965037	 
43.0	 -0.254752402977	 -0.907904199094	 
43.0	 -0.138271180832	 -0.833504788055	 
43.0	 0.0050988790696	 -0.765594515044	 
43.0	 0.173569947763	 -0.70625335704	 
43.0	 0.337640787645	 -0.655540933548	 
43.0	 0.479497646688	 -0.60639507654	 
43.0	 0.608560955461	 -0.537244864145	 
44.0	 0.515061679451	 -0.643507244655	 
44.0	 0.667140128718	 -0.640656658652	 
44.0	 0.812660645719	 -0.620702556634	 
44.0	 0.95786262173	 -0.566637433649	 
44.0	 1.10373775285	 -0.470415073594	 
44.0	 1.24183080434	 -0.340121423697	 
44.0	 1.36287826958	 -0.184901485614	 
44.0	 1.46084649106	 -0.00261857671666	 
44.0	 1.53249554437	 0.218622340884	 
44.0	 1.57437401405	 0.487031784411	 
44.0	 1.58101209882	 0.784186522107	 
44.0	 1.54611445358	 1.08079884965	 
44.0	 1.46123295027	 1.34810538788	 
44.0	 1.31173395437	 1.55894317482	 
44.0	 1.08264981757	 1.68703401664	 
44.0	 0.791067146936	 1.73098055085	 
44.0	 0.496948742496	 1.72266634168	 
44.0	 0.256877415391	 1.69388522665	 
44.0	 0.0533459153302	 1.64837765725	 
44.0	 -0.178953047607	 1.5717851262	 
44.0	 -0.484025267964	 1.45253498332	 
44.0	 -0.801421903087	 1.29364874922	 
44.0	 -1.04015465636	 1.10240671609	 
44.0	 -1.15690771049	 0.878107828587	 
44.0	 -1.20834375923	 0.603312846177	 
44.0	 -1.26141929105	 0.260511026275	 
44.0	 -1.33029943962	 -0.120977317949	 
44.0	 -1.37635798391	 -0.465000817566	 
44.0	 -1.36435085072	 -0.702760526335	 
44.0	 -1.30412231501	 -0.840018504733	 
44.0	 -1.22701668423	 -0.91809156133	 
44.0	 -1.15526076091	 -0.96942096246	 
44.0	 -1.07974495643	 -0.995638058328	 
44.0	 -0.984924542442	 -0.991976789798	 
44.0	 -0.866913336869	 -0.960910681232	 
44.0	 -0.739895904316	 -0.916134611415	 
44.0	 -0.619252080254	 -0.871844043374	 
44.0	 -0.515216557001	 -0.835578254784	 
44.0	 -0.434177516229	 -0.809900357062	 
44.0	 -0.379114364205	 -0.796109676689	 
44.0	 -0.33444998774	 -0.789103871408	 
44.0	 -0.27818900105	 -0.781560753288	 
44.0	 -0.199445236572	 -0.768073258405	 
44.0	 -0.114580735312	 -0.747934396183	 
44.0	 -0.0433423398998	 -0.72125141971	 
44.0	 0.0161745387174	 -0.691384367161	 
44.0	 0.0909058201935	 -0.665453838139	 
44.0	 0.205920752393	 -0.650022869804	 
44.0	 0.355113711463	 -0.644321697799	 
44.0	 0.515061679451	 -0.643507244655	 
45.0	 0.153050357343	 -1.05820306874	 
45.0	 0.274846297344	 -0.876885598046	 
45.0	 0.378548407111	 -0.663711881053	 
45.0	 0.49107675716	 -0.471898523148	 
45.0	 0.609475961632	 -0.309744624276	 
45.0	 0.717052718922	 -0.164316316302	 
45.0	 0.810326624667	 -0.0317080738225	 
45.0	 0.897623789039	 0.0838416625741	 
45.0	 0.98689316201	 0.177811361155	 
45.0	 1.08481123575	 0.245684585826	 
45.0	 1.19699464015	 0.291729784841	 
45.0	 1.32617829164	 0.347023571491	 
45.0	 1.46914864287	 0.442883894268	 
45.0	 1.59002723834	 0.581268611517	 
45.0	 1.6435358536	 0.753153768424	 
45.0	 1.62101948877	 0.949496301522	 
45.0	 1.5389754536	 1.16068562038	 
45.0	 1.39694596593	 1.35618892978	 
45.0	 1.17239545543	 1.47906350795	 
45.0	 0.86685570535	 1.50497823735	 
45.0	 0.541730875293	 1.49019918115	 
45.0	 0.253694412336	 1.48747449967	 
45.0	 -0.00163541073349	 1.48043218286	 
45.0	 -0.245287474783	 1.43667011391	 
45.0	 -0.490386420817	 1.35919528695	 
45.0	 -0.74444943476	 1.26928624772	 
45.0	 -0.985604853691	 1.16242146449	 
45.0	 -1.16296189718	 1.00818760652	 
45.0	 -1.25611906368	 0.785488155664	 
45.0	 -1.30264906834	 0.492294976198	 
45.0	 -1.3371338421	 0.141521270603	 
45.0	 -1.36217403416	 -0.208841386653	 
45.0	 -1.37299600206	 -0.497986716641	 
45.0	 -1.36204134168	 -0.714042443014	 
45.0	 -1.32101704752	 -0.866752067499	 
45.0	 -1.2486274166	 -0.977998252342	 
45.0	 -1.14907951234	 -1.07855774654	 
45.0	 -1.02587592295	 -1.16944458258	 
45.0	 -0.881312543152	 -1.20878689106	 
45.0	 -0.726090767334	 -1.17557138264	 
45.0	 -0.593635404284	 -1.11337696629	 
45.0	 -0.512090403728	 -1.0691016531	 
45.0	 -0.462051443231	 -1.05092054909	 
45.0	 -0.41107480297	 -1.05455834105	 
45.0	 -0.354689746338	 -1.0783617767	 
45.0	 -0.304939313225	 -1.12181117148	 
45.0	 -0.250488362322	 -1.1701591754	 
45.0	 -0.153571678534	 -1.19263767373	 
45.0	 -0.00324316008513	 -1.16169538718	 
45.0	 0.153050357343	 -1.05820306874	 
46.0	 0.505505111157	 -0.724214943279	 
46.0	 0.701599727462	 -0.57169596272	 
46.0	 0.892813041315	 -0.47520361368	 
46.0	 1.06078152974	 -0.408440246008	 
46.0	 1.20217311139	 -0.333611599143	 
46.0	 1.31793560122	 -0.221247475659	 
46.0	 1.41199973861	 -0.0761417420482	 
46.0	 1.48677654803	 0.0915221553215	 
46.0	 1.53877899228	 0.275325464699	 
46.0	 1.56582033271	 0.469504110367	 
46.0	 1.57147930723	 0.668270960306	 
46.0	 1.55000654236	 0.860950946287	 
46.0	 1.47293133352	 1.02601649055	 
46.0	 1.31985456611	 1.14757854179	 
46.0	 1.0927829523	 1.2241400389	 
46.0	 0.808478242014	 1.27326379779	 
46.0	 0.505197754713	 1.34309568269	 
46.0	 0.212011045869	 1.45167088707	 
46.0	 -0.0608759631444	 1.56374290257	 
46.0	 -0.329476567143	 1.65265569187	 
46.0	 -0.643433339655	 1.71033487621	 
46.0	 -0.983931245056	 1.69914488388	 
46.0	 -1.24200926617	 1.54403228444	 
46.0	 -1.37625412348	 1.25873051858	 
46.0	 -1.43057386657	 0.961000852118	 
46.0	 -1.43057386657	 0.699376372214	 
46.0	 -1.37805482243	 0.444270554706	 
46.0	 -1.28698330023	 0.187815297905	 
46.0	 -1.18384682024	 -0.0538220726859	 
46.0	 -1.09330202261	 -0.266490336167	 
46.0	 -1.03606019963	 -0.43961704023	 
46.0	 -1.00355153046	 -0.578236144333	 
46.0	 -0.965899811673	 -0.698576949325	 
46.0	 -0.907848014062	 -0.807485701552	 
46.0	 -0.826086523438	 -0.904492728756	 
46.0	 -0.733263672167	 -0.982300065501	 
46.0	 -0.649019320032	 -1.03087680592	 
46.0	 -0.566055981342	 -1.05394540548	 
46.0	 -0.465907584541	 -1.0629496603	 
46.0	 -0.363352984543	 -1.0694177218	 
46.0	 -0.285664123487	 -1.08291027023	 
46.0	 -0.22888152719	 -1.09844714419	 
46.0	 -0.176331192962	 -1.10623912934	 
46.0	 -0.119993359518	 -1.10758715452	 
46.0	 -0.0563655615747	 -1.10889816664	 
46.0	 0.0121411763944	 -1.12035561208	 
46.0	 0.0851157440526	 -1.14002073244	 
46.0	 0.183043122926	 -1.09742498143	 
46.0	 0.326375365216	 -0.931800060522	 
46.0	 0.505505111157	 -0.724214943279	 
47.0	 0.919811801077	 -0.826595563813	 
47.0	 1.16650344019	 -0.710022278908	 
47.0	 1.38412486618	 -0.582227152469	 
47.0	 1.55310601581	 -0.437593821097	 
47.0	 1.66703978808	 -0.253234482748	 
47.0	 1.72617141025	 -0.000824361213913	 
47.0	 1.73616201464	 0.2933634228	 
47.0	 1.70723720124	 0.555059277494	 
47.0	 1.63578570301	 0.744635598724	 
47.0	 1.49560332418	 0.881101386196	 
47.0	 1.27521382792	 0.98128613663	 
47.0	 1.01435088576	 1.03911238663	 
47.0	 0.755653841063	 1.05161477121	 
47.0	 0.50046331367	 1.06098546389	 
47.0	 0.236948997111	 1.12167758752	 
47.0	 -0.0171464695153	 1.22797376339	 
47.0	 -0.224469070224	 1.33269201066	 
47.0	 -0.387371526478	 1.41118982193	 
47.0	 -0.559008364379	 1.46847703341	 
47.0	 -0.768993566626	 1.50299269752	 
47.0	 -0.983957645154	 1.49325321192	 
47.0	 -1.16508517561	 1.41794249857	 
47.0	 -1.2899999739	 1.26961111475	 
47.0	 -1.34330001035	 1.04946308008	 
47.0	 -1.33086985392	 0.802692725279	 
47.0	 -1.2702570238	 0.59584420344	 
47.0	 -1.17912850034	 0.432394704901	 
47.0	 -1.07513931778	 0.252907286405	 
47.0	 -0.974778215325	 0.0342154830248	 
47.0	 -0.892404923911	 -0.175626705499	 
47.0	 -0.837443824076	 -0.338197327418	 
47.0	 -0.802880056105	 -0.475163184149	 
47.0	 -0.778435976956	 -0.617804620145	 
47.0	 -0.756083353258	 -0.773052068481	 
47.0	 -0.729116375778	 -0.93639048285	 
47.0	 -0.696488431894	 -1.08656942338	 
47.0	 -0.661413746178	 -1.18964780487	 
47.0	 -0.617567513116	 -1.23441423567	 
47.0	 -0.544828101748	 -1.24266135088	 
47.0	 -0.431451593728	 -1.23365346421	 
47.0	 -0.290932179527	 -1.2131076278	 
47.0	 -0.141379288294	 -1.18493644274	 
47.0	 -0.00323007228336	 -1.15534320613	 
47.0	 0.104182115377	 -1.13073079649	 
47.0	 0.18207135418	 -1.11143622175	 
47.0	 0.244879283381	 -1.0938205909	 
47.0	 0.321556654937	 -1.06792605985	 
47.0	 0.456997752489	 -1.01680410147	 
47.0	 0.669372620673	 -0.932526538908	 
47.0	 0.919811801077	 -0.826595563813	 
48.0	 0.835858285102	 -0.317415832574	 
48.0	 1.04855986211	 -0.260651559759	 
48.0	 1.2199741353	 -0.20877185942	 
48.0	 1.35488233311	 -0.112022430609	 
48.0	 1.44650611371	 0.040789279071	 
48.0	 1.49272942181	 0.237658229721	 
48.0	 1.50511460355	 0.433399585439	 
48.0	 1.49354510746	 0.602699101572	 
48.0	 1.46286953994	 0.755802207372	 
48.0	 1.417523239	 0.89562149195	 
48.0	 1.36094790682	 1.01485953206	 
48.0	 1.28026871475	 1.12464117638	 
48.0	 1.15220892849	 1.24738900471	 
48.0	 0.984318918625	 1.36089413918	 
48.0	 0.798667747088	 1.42333579116	 
48.0	 0.586687896681	 1.44692309789	 
48.0	 0.33498179167	 1.46120768212	 
48.0	 0.0740681207761	 1.46296690687	 
48.0	 -0.166603642528	 1.43948327816	 
48.0	 -0.410611835183	 1.38105166727	 
48.0	 -0.661868921943	 1.28207706292	 
48.0	 -0.844727019953	 1.14559382655	 
48.0	 -0.923333981865	 0.964149489572	 
48.0	 -0.957512867497	 0.709988528697	 
48.0	 -0.985179053803	 0.4188461587	 
48.0	 -1.00130198862	 0.210630596465	 
48.0	 -1.01475234797	 0.0989069402199	 
48.0	 -1.05071384783	 -0.0108590966554	 
48.0	 -1.12540161561	 -0.153770884725	 
48.0	 -1.24179647467	 -0.31884863021	 
48.0	 -1.34645886035	 -0.507651876908	 
48.0	 -1.36930335779	 -0.725954564322	 
48.0	 -1.32860125817	 -0.95919443293	 
48.0	 -1.26697850831	 -1.17942249576	 
48.0	 -1.1799405516	 -1.33461657025	 
48.0	 -1.05896933184	 -1.39138084306	 
48.0	 -0.92482588664	 -1.39693473476	 
48.0	 -0.795461861346	 -1.39566272809	 
48.0	 -0.669189988708	 -1.3890433711	 
48.0	 -0.543163402173	 -1.3757937662	 
48.0	 -0.416744955107	 -1.35907943742	 
48.0	 -0.2761974481	 -1.31341205709	 
48.0	 -0.0946986018519	 -1.18224710006	 
48.0	 0.0931241844578	 -0.995537480452	 
48.0	 0.203809244012	 -0.855220429901	 
48.0	 0.245004523479	 -0.766031692755	 
48.0	 0.285531574961	 -0.671031841234	 
48.0	 0.387102565032	 -0.554084150612	 
48.0	 0.590005399635	 -0.424266621926	 
48.0	 0.835858285102	 -0.317415832574	 
49.0	 0.156591792841	 -1.12311765593	 
49.0	 0.285694139157	 -0.897842324732	 
49.0	 0.439808299861	 -0.667060311703	 
49.0	 0.625378751892	 -0.494325682071	 
49.0	 0.815599948352	 -0.364996452524	 
49.0	 0.98329346382	 -0.255800982867	 
49.0	 1.11291790211	 -0.153777371303	 
49.0	 1.21097040778	 -0.0321540508335	 
49.0	 1.31382256113	 0.155854685354	 
49.0	 1.43063025671	 0.386370185935	 
49.0	 1.53741903938	 0.562443106755	 
49.0	 1.60469145365	 0.699701284166	 
49.0	 1.60404661992	 0.896015379923	 
49.0	 1.55176545262	 1.11175815218	 
49.0	 1.48120051892	 1.23880298931	 
49.0	 1.35472038618	 1.28326579846	 
49.0	 1.12579069033	 1.29590912742	 
49.0	 0.860663341459	 1.29759676958	 
49.0	 0.631933906676	 1.29759676958	 
49.0	 0.408299168565	 1.29759676958	 
49.0	 0.161108489889	 1.29759676958	 
49.0	 -0.0729329644611	 1.2975411989	 
49.0	 -0.274245659708	 1.29177448516	 
49.0	 -0.47325835144	 1.2644845825	 
49.0	 -0.685253475192	 1.20565904756	 
49.0	 -0.898046644463	 1.11463427244	 
49.0	 -1.10618551907	 0.991410257141	 
49.0	 -1.31052625814	 0.835102191137	 
49.0	 -1.47849131521	 0.632360149946	 
49.0	 -1.55841881566	 0.366175994955	 
49.0	 -1.5529422787	 0.0709180050419	 
49.0	 -1.49264508489	 -0.197370977241	 
49.0	 -1.3966869446	 -0.422765658489	 
49.0	 -1.27800275802	 -0.601852735195	 
49.0	 -1.14226353248	 -0.716108215063	 
49.0	 -0.996127552051	 -0.756962440261	 
49.0	 -0.855833162796	 -0.761004032689	 
49.0	 -0.732457386796	 -0.770616626368	 
49.0	 -0.621053155286	 -0.820749913151	 
49.0	 -0.520859683025	 -0.929257364856	 
49.0	 -0.441593044087	 -1.0864777297	 
49.0	 -0.387724747524	 -1.25330242554	 
49.0	 -0.355612316841	 -1.36081198119	 
49.0	 -0.33200970614	 -1.39821628779	 
49.0	 -0.296421418929	 -1.40699386314	 
49.0	 -0.240432767848	 -1.4047234039	 
49.0	 -0.164168735106	 -1.39042375542	 
49.0	 -0.0701570910187	 -1.35221348493	 
49.0	 0.0379747161162	 -1.27172812955	 
49.0	 0.156591792841	 -1.12311765593	 
50.0	 0.604627537536	 -0.89308625857	 
50.0	 0.673126021451	 -0.67148878587	 
50.0	 0.74148626827	 -0.443727491833	 
50.0	 0.854699966401	 -0.232439102565	 
50.0	 1.0039629721	 -0.0631433847012	 
50.0	 1.16325848922	 0.0453318116607	 
50.0	 1.32971698745	 0.144131614557	 
50.0	 1.5102542413	 0.315192221481	 
50.0	 1.67560984792	 0.549291810966	 
50.0	 1.77014790618	 0.769740242696	 
50.0	 1.7612446359	 0.933222483233	 
50.0	 1.64171606345	 1.03361876975	 
50.0	 1.42612329348	 1.07164295926	 
50.0	 1.15962660789	 1.05558660763	 
50.0	 0.884279351112	 1.0021668227	 
50.0	 0.630213638458	 0.944699602555	 
50.0	 0.412455154	 0.913893058001	 
50.0	 0.204096791988	 0.925848023979	 
50.0	 -0.0224154018859	 0.990624283176	 
50.0	 -0.260815289066	 1.10355509314	 
50.0	 -0.497297408762	 1.25120151733	 
50.0	 -0.732278432141	 1.38898162786	 
50.0	 -0.969421859981	 1.46133352254	 
50.0	 -1.18436150977	 1.43349722523	 
50.0	 -1.33751954378	 1.28622153577	 
50.0	 -1.4154822601	 1.05327766278	 
50.0	 -1.42713472387	 0.811739832378	 
50.0	 -1.38344979847	 0.599376925343	 
50.0	 -1.29709442677	 0.405718917258	 
50.0	 -1.18417976327	 0.219051161266	 
50.0	 -1.06642122666	 0.0302645916901	 
50.0	 -0.964377207738	 -0.169501284644	 
50.0	 -0.894541996378	 -0.389106232671	 
50.0	 -0.86679340389	 -0.627345743824	 
50.0	 -0.869871683545	 -0.847671649214	 
50.0	 -0.885056161706	 -1.01308773044	 
50.0	 -0.8789496883	 -1.12457668636	 
50.0	 -0.817973279648	 -1.19577686987	 
50.0	 -0.704288294938	 -1.24309983152	 
50.0	 -0.556726467854	 -1.28303006723	 
50.0	 -0.392415653184	 -1.31699529106	 
50.0	 -0.227350675459	 -1.33663603879	 
50.0	 -0.0790703551954	 -1.33995383846	 
50.0	 0.0338828091289	 -1.33118085543	 
50.0	 0.112410494444	 -1.31660319464	 
50.0	 0.183269287468	 -1.30475752531	 
50.0	 0.267836331077	 -1.28721520045	 
50.0	 0.373951898458	 -1.22327781277	 
50.0	 0.497307469496	 -1.08563030257	 
50.0	 0.604627537536	 -0.89308625857	 
51.0	 0.656732477377	 -0.886075152086	 
51.0	 0.798744075407	 -0.810316553585	 
51.0	 0.926337761156	 -0.712535526165	 
51.0	 1.07536350749	 -0.600103641539	 
51.0	 1.22218362059	 -0.506539854754	 
51.0	 1.34044827862	 -0.44996510481	 
51.0	 1.43681911248	 -0.381724177898	 
51.0	 1.52015404155	 -0.255745994276	 
51.0	 1.58727047499	 -0.0699876725786	 
51.0	 1.62815360088	 0.171382745902	 
51.0	 1.62098370733	 0.467667960857	 
51.0	 1.55030202679	 0.788552847291	 
51.0	 1.41877951999	 1.03694642704	 
51.0	 1.21532151331	 1.17945523033	 
51.0	 0.897250386986	 1.32714770278	 
51.0	 0.493808474685	 1.52745374883	 
51.0	 0.167921126088	 1.6839910766	 
51.0	 -0.0289436653705	 1.74830528469	 
51.0	 -0.244628206691	 1.77232559046	 
51.0	 -0.528765054682	 1.78003808186	 
51.0	 -0.764964639833	 1.74208687127	 
51.0	 -0.903370945989	 1.63193217913	 
51.0	 -0.99686961309	 1.43307017275	 
51.0	 -1.08322263239	 1.15932616712	 
51.0	 -1.17368900979	 0.858978920174	 
51.0	 -1.25965266599	 0.574416752072	 
51.0	 -1.31414733667	 0.33803152743	 
51.0	 -1.33126668525	 0.145918879874	 
51.0	 -1.32543232819	 -0.0387504644059	 
51.0	 -1.30239395889	 -0.233872901244	 
51.0	 -1.25978220113	 -0.438591007742	 
51.0	 -1.19496622313	 -0.630305146613	 
51.0	 -1.10646462105	 -0.772317402098	 
51.0	 -1.00753903206	 -0.855845421811	 
51.0	 -0.918353497908	 -0.892321011671	 
51.0	 -0.822614372369	 -0.900093429189	 
51.0	 -0.6861137706	 -0.900175647823	 
51.0	 -0.521594178956	 -0.900175647823	 
51.0	 -0.36611204871	 -0.900175647823	 
51.0	 -0.239186692451	 -0.900175647823	 
51.0	 -0.149387634297	 -0.900175647823	 
51.0	 -0.0902851213735	 -0.900175647823	 
51.0	 -0.0482367965795	 -0.900730623602	 
51.0	 -0.00618487982317	 -0.906008616454	 
51.0	 0.050697183014	 -0.920347678067	 
51.0	 0.116620215026	 -0.940751023127	 
51.0	 0.186292105156	 -0.960145571915	 
51.0	 0.294379302748	 -0.964033278826	 
51.0	 0.469610883728	 -0.938874556591	 
51.0	 0.656732477377	 -0.886075152086	 
52.0	 0.75827215174	 0.0653099115075	 
52.0	 1.02083409354	 0.152014934475	 
52.0	 1.24049598078	 0.218888456188	 
52.0	 1.38993317092	 0.250445486724	 
52.0	 1.50066655914	 0.257012250371	 
52.0	 1.61923158976	 0.263076856132	 
52.0	 1.73241758276	 0.335308132201	 
52.0	 1.79670252509	 0.554045816809	 
52.0	 1.78851013801	 0.874085467713	 
52.0	 1.69968384663	 1.15868515935	 
52.0	 1.52739066489	 1.34725520294	 
52.0	 1.2742435326	 1.46222432135	 
52.0	 0.954225113183	 1.52875523836	 
52.0	 0.597906860582	 1.57004696016	 
52.0	 0.238775804991	 1.59360545905	 
52.0	 -0.0863651014412	 1.57391553635	 
52.0	 -0.352217572446	 1.49535700751	 
52.0	 -0.570313378941	 1.38590157455	 
52.0	 -0.758881603159	 1.26792607387	 
52.0	 -0.934383197508	 1.10008309397	 
52.0	 -1.10677842387	 0.838096353907	 
52.0	 -1.24523705537	 0.541187206355	 
52.0	 -1.30671790183	 0.303887473459	 
52.0	 -1.29817777612	 0.139225822926	 
52.0	 -1.25557037577	 0.00990520325019	 
52.0	 -1.20007380337	 -0.149455967269	 
52.0	 -1.14006752174	 -0.423934037582	 
52.0	 -1.08353024721	 -0.789434937107	 
52.0	 -1.0383032401	 -1.09261727769	 
52.0	 -1.00195743037	 -1.25148276481	 
52.0	 -0.954878683145	 -1.31617411145	 
52.0	 -0.882181198212	 -1.33537142954	 
52.0	 -0.78427566783	 -1.32395939239	 
52.0	 -0.664828703543	 -1.29373103603	 
52.0	 -0.531043176546	 -1.26307156009	 
52.0	 -0.393934331996	 -1.24803874317	 
52.0	 -0.280301725274	 -1.24507401496	 
52.0	 -0.216958354979	 -1.24294463189	 
52.0	 -0.190855333384	 -1.22009321079	 
52.0	 -0.171785521503	 -1.15117569685	 
52.0	 -0.149026656276	 -1.02393189461	 
52.0	 -0.124995821776	 -0.836693739819	 
52.0	 -0.102352590119	 -0.625405568144	 
52.0	 -0.0834909478106	 -0.460175611255	 
52.0	 -0.059929350987	 -0.3624895349	 
52.0	 -0.00875493848534	 -0.287531637942	 
52.0	 0.0913736782516	 -0.203996489466	 
52.0	 0.256930239087	 -0.114710634845	 
52.0	 0.490487427018	 -0.0247003616687	 
52.0	 0.75827215174	 0.0653099115075	 
53.0	 -1.66352258082	 -0.882666031845	 
53.0	 -1.68104145672	 -1.190585333	 
53.0	 -1.56080799789	 -1.41462279028	 
53.0	 -1.35113228765	 -1.52508462393	 
53.0	 -1.09563695252	 -1.53583520732	 
53.0	 -0.834807154684	 -1.47643911861	 
53.0	 -0.59982291701	 -1.39375515356	 
53.0	 -0.414553384962	 -1.32896971577	 
53.0	 -0.277587349756	 -1.257783113	 
53.0	 -0.178363691977	 -1.14187907028	 
53.0	 -0.106308671647	 -1.00731103089	 
53.0	 -0.0508485487844	 -0.89809909366	 
53.0	 -0.00140958341038	 -0.795286215428	 
53.0	 0.0528297864857	 -0.658663586406	 
53.0	 0.124848092441	 -0.514683100416	 
53.0	 0.228525705322	 -0.418507098462	 
53.0	 0.375658562853	 -0.368514611251	 
53.0	 0.573876073619	 -0.331892540868	 
53.0	 0.796395781005	 -0.295486122369	 
53.0	 0.996394661344	 -0.258724320515	 
53.0	 1.15588496557	 -0.216427067535	 
53.0	 1.27815981164	 -0.15993722492	 
53.0	 1.37070757224	 -0.080520891355	 
53.0	 1.4435502094	 0.0311341879777	 
53.0	 1.49789972242	 0.195361100581	 
53.0	 1.52713660299	 0.440740512897	 
53.0	 1.52773627111	 0.75853852361	 
53.0	 1.49938219279	 1.10186574766	 
53.0	 1.43711767244	 1.40835593389	 
53.0	 1.33047907072	 1.60205639387	 
53.0	 1.16272191307	 1.67126043136	 
53.0	 0.910600858455	 1.68434375109	 
53.0	 0.593902660312	 1.67822926202	 
53.0	 0.292227440473	 1.63901894783	 
53.0	 0.0569862021743	 1.53937893218	 
53.0	 -0.111038027054	 1.33772820435	 
53.0	 -0.219036420441	 1.05702652969	 
53.0	 -0.280646201104	 0.833641082398	 
53.0	 -0.330121880853	 0.727253521467	 
53.0	 -0.440251280245	 0.626842244969	 
53.0	 -0.632451033002	 0.465879173091	 
53.0	 -0.806570995793	 0.317555323369	 
53.0	 -0.890683628757	 0.240352791179	 
53.0	 -0.921332100554	 0.211546364172	 
53.0	 -0.945554409413	 0.193104337308	 
53.0	 -0.994300900882	 0.138456380806	 
53.0	 -1.09353067772	 0.00695885359618	 
53.0	 -1.26222222471	 -0.218972928587	 
53.0	 -1.48945361021	 -0.535990043609	 
53.0	 -1.66352258082	 -0.882666031845	 
54.0	 -0.120235280364	 -0.920905850369	 
54.0	 0.00241452073221	 -0.671142136045	 
54.0	 0.128650114135	 -0.490232039689	 
54.0	 0.266271252455	 -0.425563228411	 
54.0	 0.382534678931	 -0.40509079281	 
54.0	 0.497541769417	 -0.362339530233	 
54.0	 0.678585020417	 -0.258758038053	 
54.0	 0.903207426095	 -0.130925741642	 
54.0	 1.10730967726	 -0.0372944552939	 
54.0	 1.25008702787	 0.0289097886547	 
54.0	 1.32510075599	 0.0944817956216	 
54.0	 1.38095536024	 0.193773108283	 
54.0	 1.46539160829	 0.373027345877	 
54.0	 1.6083260009	 0.673309805697	 
54.0	 1.74709878054	 0.994666831576	 
54.0	 1.79164636088	 1.2057135574	 
54.0	 1.73187879349	 1.33992843667	 
54.0	 1.57305698533	 1.44307338427	 
54.0	 1.31299543524	 1.50503260848	 
54.0	 0.98938422296	 1.52580610931	 
54.0	 0.672368774629	 1.52282556354	 
54.0	 0.360064586264	 1.52132023739	 
54.0	 0.0377097099722	 1.53763797283	 
54.0	 -0.209880088037	 1.53804441089	 
54.0	 -0.347187142359	 1.47445943444	 
54.0	 -0.479364158051	 1.29863734046	 
54.0	 -0.639075870875	 1.03948039097	 
54.0	 -0.776252056864	 0.79287786156	 
54.0	 -0.892306094009	 0.566115530764	 
54.0	 -1.00961646714	 0.33068252136	 
54.0	 -1.12063207349	 0.103784711211	 
54.0	 -1.20868028751	 -0.102204118756	 
54.0	 -1.25485063517	 -0.306025279071	 
54.0	 -1.25914311647	 -0.513459222139	 
54.0	 -1.23940817195	 -0.712448285521	 
54.0	 -1.20203217623	 -0.879599700893	 
54.0	 -1.14706747663	 -0.993763635888	 
54.0	 -1.0745664205	 -1.06454407132	 
54.0	 -0.990915382449	 -1.10560936862	 
54.0	 -0.914278887014	 -1.12379370847	 
54.0	 -0.852194950138	 -1.1306579957	 
54.0	 -0.799455012193	 -1.14127054504	 
54.0	 -0.7441762286	 -1.15325294117	 
54.0	 -0.6763340851	 -1.15993658926	 
54.0	 -0.605913835452	 -1.17378558982	 
54.0	 -0.540008543271	 -1.20479530845	 
54.0	 -0.470124853786	 -1.24700465361	 
54.0	 -0.381186735108	 -1.25127977987	 
54.0	 -0.257542334686	 -1.13791366773	 
54.0	 -0.120235280364	 -0.920905850369	 
55.0	 0.969647652263	 -0.439140695139	 
55.0	 1.13279948116	 -0.358688049088	 
55.0	 1.2838172838	 -0.175109169191	 
55.0	 1.4122819982	 0.127189192734	 
55.0	 1.49332553101	 0.514374415378	 
55.0	 1.51282104436	 0.872210038625	 
55.0	 1.47642574862	 1.13669041013	 
55.0	 1.40953672727	 1.33385643642	 
55.0	 1.33096760055	 1.46579090959	 
55.0	 1.22094540677	 1.54473358144	 
55.0	 1.02504606534	 1.60735137302	 
55.0	 0.822314312434	 1.6393860383	 
55.0	 0.682222474338	 1.60026550446	 
55.0	 0.556664312861	 1.45425709933	 
55.0	 0.439422904418	 1.25662602195	 
55.0	 0.327759105598	 1.07950147152	 
55.0	 0.174302550471	 0.934120697085	 
55.0	 0.00675352857778	 0.856290534965	 
55.0	 -0.135842669207	 0.866004702378	 
55.0	 -0.307079402922	 0.894140555145	 
55.0	 -0.519980842051	 0.873045815069	 
55.0	 -0.748636360048	 0.766644491015	 
55.0	 -0.971765825078	 0.598294187185	 
55.0	 -1.2006575233	 0.359364075933	 
55.0	 -1.43987859373	 0.0469946435996	 
55.0	 -1.57689698239	 -0.195678039776	 
55.0	 -1.58929930847	 -0.392081452837	 
55.0	 -1.55837560203	 -0.702387921037	 
55.0	 -1.50721748897	 -1.01146972771	 
55.0	 -1.44396827079	 -1.21597209334	 
55.0	 -1.37410771631	 -1.32263799653	 
55.0	 -1.27461003484	 -1.36258520311	 
55.0	 -1.15062143018	 -1.36185461963	 
55.0	 -1.04756140878	 -1.32908484285	 
55.0	 -0.935745077491	 -1.26007902149	 
55.0	 -0.784004227631	 -1.17258440481	 
55.0	 -0.611981461503	 -1.11920090625	 
55.0	 -0.457522843299	 -1.08653513086	 
55.0	 -0.324470754815	 -1.04281451398	 
55.0	 -0.149626537025	 -0.983584727031	 
55.0	 0.0253717522377	 -0.89654767829	 
55.0	 0.134947064645	 -0.783706848063	 
55.0	 0.207410475115	 -0.689730829142	 
55.0	 0.309520132603	 -0.607389952716	 
55.0	 0.470729395532	 -0.514888017519	 
55.0	 0.579212527586	 -0.454326231221	 
55.0	 0.62343371935	 -0.439195603293	 
55.0	 0.681460809499	 -0.449719665963	 
55.0	 0.801476159959	 -0.459072354702	 
55.0	 0.969647652263	 -0.439140695139	 
56.0	 1.07180192525	 -0.358756742269	 
56.0	 1.24102672501	 -0.288397766718	 
56.0	 1.35986131512	 -0.145709044219	 
56.0	 1.44018052836	 0.0936143399352	 
56.0	 1.50822566532	 0.358398844574	 
56.0	 1.54764356849	 0.643340254196	 
56.0	 1.54451449307	 0.94386686561	 
56.0	 1.5201733	 1.20515070013	 
56.0	 1.46712347057	 1.40845091666	 
56.0	 1.35961787473	 1.56144146654	 
56.0	 1.18107219212	 1.67164765578	 
56.0	 0.958240789772	 1.73473584882	 
56.0	 0.742489365392	 1.73830989223	 
56.0	 0.512126562056	 1.68557990149	 
56.0	 0.277465728217	 1.58462561888	 
56.0	 0.119101490234	 1.44227794883	 
56.0	 0.0422211362252	 1.25536343989	 
56.0	 -0.0143926297694	 1.02487486934	 
56.0	 -0.162726957576	 0.775330038405	 
56.0	 -0.367293488786	 0.578178259732	 
56.0	 -0.513215250105	 0.499176470814	 
56.0	 -0.61485746242	 0.465134291688	 
56.0	 -0.683486005834	 0.374748430617	 
56.0	 -0.705154342393	 0.160191494104	 
56.0	 -0.737967286479	 -0.0733409153083	 
56.0	 -0.839940256714	 -0.226108632801	 
56.0	 -1.01849047945	 -0.322251517078	 
56.0	 -1.24566857481	 -0.436311409118	 
56.0	 -1.46504679414	 -0.616753787797	 
56.0	 -1.59351844547	 -0.785438130132	 
56.0	 -1.60400188885	 -0.928314332019	 
56.0	 -1.52668277303	 -1.08789387597	 
56.0	 -1.40825324547	 -1.22393329634	 
56.0	 -1.27638506681	 -1.30202693818	 
56.0	 -1.12905497057	 -1.32817124856	 
56.0	 -0.972918496676	 -1.31623622119	 
56.0	 -0.822827938638	 -1.27750542985	 
56.0	 -0.698201488006	 -1.2143137999	 
56.0	 -0.587161978003	 -1.14139534869	 
56.0	 -0.462734397768	 -1.07469418778	 
56.0	 -0.320887497279	 -1.00371418393	 
56.0	 -0.178351520456	 -0.916236355566	 
56.0	 -0.0545933852971	 -0.807964364093	 
56.0	 0.104324396606	 -0.696047849261	 
56.0	 0.313056623179	 -0.604724410413	 
56.0	 0.491018643555	 -0.554386172034	 
56.0	 0.614594278356	 -0.530995778799	 
56.0	 0.715618713531	 -0.502391948606	 
56.0	 0.871697700448	 -0.439151583966	 
56.0	 1.07180192525	 -0.358756742269	 
57.0	 0.880295741932	 -0.386889446183	 
57.0	 1.03971420415	 -0.274160031313	 
57.0	 1.16441323458	 -0.109971211712	 
57.0	 1.28086371645	 0.0997760030134	 
57.0	 1.43669105109	 0.318500651547	 
57.0	 1.54906101112	 0.49375479799	 
57.0	 1.59263098331	 0.686455022976	 
57.0	 1.60110420425	 0.997224834713	 
57.0	 1.54687902306	 1.31586170905	 
57.0	 1.42794497637	 1.54241179109	 
57.0	 1.26248283909	 1.65000785251	 
57.0	 1.03621859719	 1.69494274511	 
57.0	 0.782114498265	 1.72069911073	 
57.0	 0.561106329318	 1.73909159986	 
57.0	 0.395127962546	 1.72188546609	 
57.0	 0.257821751232	 1.48273523638	 
57.0	 0.115588372674	 0.973535768745	 
57.0	 -0.0122792177312	 0.720938015741	 
57.0	 -0.133474480273	 0.742845336971	 
57.0	 -0.268698115822	 0.765213133939	 
57.0	 -0.413704351016	 0.745378911933	 
57.0	 -0.546259305185	 0.693088547302	 
57.0	 -0.669916002208	 0.59844021434	 
57.0	 -0.849397625509	 0.401598116007	 
57.0	 -1.0351083599	 0.186631586464	 
57.0	 -1.17139006986	 0.0328207467952	 
57.0	 -1.31696181958	 -0.153369219224	 
57.0	 -1.47556973615	 -0.465400584088	 
57.0	 -1.59946507496	 -0.864444612183	 
57.0	 -1.62066022349	 -1.12010900876	 
57.0	 -1.54644291904	 -1.22356137833	 
57.0	 -1.42267121393	 -1.25759234896	 
57.0	 -1.29222956243	 -1.26527800309	 
57.0	 -1.15101911693	 -1.26567050595	 
57.0	 -1.00472020243	 -1.257427946	 
57.0	 -0.894196645001	 -1.22524084428	 
57.0	 -0.79207965609	 -1.17916584541	 
57.0	 -0.667034236396	 -1.11925401507	 
57.0	 -0.523341271596	 -1.02677668587	 
57.0	 -0.371485375358	 -0.941810630628	 
57.0	 -0.200269958435	 -0.878852848385	 
57.0	 0.00930902030972	 -0.803837767711	 
57.0	 0.162216746838	 -0.753552283676	 
57.0	 0.242860418669	 -0.735188988971	 
57.0	 0.349961207595	 -0.702385511301	 
57.0	 0.447726447256	 -0.666818736863	 
57.0	 0.516029751164	 -0.625712983374	 
57.0	 0.597605104684	 -0.551568476587	 
57.0	 0.720877279713	 -0.469913531384	 
57.0	 0.880295741932	 -0.386889446183	 
58.0	 0.941657036316	 -0.434937015033	 
58.0	 1.08048022583	 -0.219079045239	 
