0.5	 0.694444510357	 -0.315102673494	 
0.5	 0.864598832008	 -0.249654180946	 
0.5	 1.01548976193	 -0.149885285235	 
0.5	 1.15998729056	 -0.0387256586845	 
0.5	 1.29610703602	 0.0788642560821	 
0.5	 1.36612552554	 0.247189564575	 
0.5	 1.43614401506	 0.415514873068	 
0.5	 1.47712260152	 0.590625939733	 
0.5	 1.48845323119	 0.772578383934	 
0.5	 1.497919774	 0.95463986509	 
0.5	 1.50738631681	 1.13670134625	 
0.5	 1.51685285962	 1.3187628274	 
0.5	 1.42899984816	 1.47811408452	 
0.5	 1.33992851062	 1.6371810364	 
0.5	 1.20364619977	 1.74269313909	 
0.5	 1.03466422054	 1.81111162379	 
0.5	 0.865840567571	 1.75924394366	 
0.5	 0.697039284755	 1.69038085287	 
0.5	 0.528238001939	 1.62151776208	 
0.5	 0.376240462473	 1.52158568983	 
0.5	 0.226213709108	 1.41800976778	 
0.5	 0.0761869557426	 1.31443384573	 
0.5	 -0.0738397976228	 1.21085792369	 
0.5	 -0.20209384763	 1.08161839284	 
0.5	 -0.328732431165	 0.950474702505	 
0.5	 -0.4553710147	 0.819331012173	 
0.5	 -0.591162048697	 0.697871387942	 
0.5	 -0.729239442629	 0.578830925752	 
0.5	 -0.867316836561	 0.459790463561	 
0.5	 -0.983178266796	 0.321152124562	 
0.5	 -1.08406566931	 0.169304403579	 
0.5	 -1.18495307182	 0.017456682596	 
0.5	 -1.28020817983	 -0.137073090061	 
0.5	 -1.33450322663	 -0.311107702268	 
0.5	 -1.38879827343	 -0.485142314476	 
0.5	 -1.44309332024	 -0.659176926683	 
0.5	 -1.44375703186	 -0.838813484199	 
0.5	 -1.4265983923	 -1.02031163692	 
0.5	 -1.25115839283	 -1.05445106663	 
0.5	 -1.07133000387	 -1.08328370002	 
0.5	 -0.890718777289	 -1.05847275109	 
0.5	 -0.714778991185	 -1.02776394831	 
1.0	 -1.04717737238	 -1.15228156423	 
1.0	 -0.862098493834	 -1.14330717863	 
1.0	 -0.677019615289	 -1.13433279303	 
1.0	 -0.494410809285	 -1.11568365842	 
1.0	 -0.327681611547	 -1.03483747421	 
1.0	 -0.166116066619	 -0.944639171791	 
1.0	 -0.00887470851769	 -0.846609144847	 
1.0	 0.15090902858	 -0.753514405248	 
1.0	 0.322015042564	 -0.682398564125	 
1.0	 0.493490457342	 -0.612180498954	 
1.0	 0.665097698441	 -0.54228281886	 
1.0	 0.836232325856	 -0.471287944709	 
1.0	 1.00491711358	 -0.394605656862	 
1.0	 1.15410829136	 -0.290362742864	 
1.0	 1.28259905524	 -0.156852988626	 
1.0	 1.3811370646	 -0.00323697199746	 
1.0	 1.45603583005	 0.166247262709	 
1.0	 1.53093459551	 0.335731497416	 
1.0	 1.60583336096	 0.505215732123	 
1.0	 1.66202021249	 0.679430785481	 
1.0	 1.67667176672	 0.864146953801	 
1.0	 1.69132332095	 1.04886312212	 
1.0	 1.70597487517	 1.23357929044	 
1.0	 1.63039196283	 1.3905403146	 
1.0	 1.5144615296	 1.53509087853	 
1.0	 1.39853109637	 1.67964144245	 
1.0	 1.24878302467	 1.74941147803	 
1.0	 1.06367785453	 1.74099679634	 
1.0	 0.87857268439	 1.73258211466	 
1.0	 0.6979791092	 1.70105288352	 
1.0	 0.523295924675	 1.63924256137	 
1.0	 0.34861274015	 1.57743223922	 
1.0	 0.173929555625	 1.51562191706	 
1.0	 0.0075205449334	 1.43527050006	 
1.0	 -0.155146692808	 1.34653437074	 
1.0	 -0.315957954558	 1.25513417699	 
1.0	 -0.455558967567	 1.1332888322	 
1.0	 -0.595159980575	 1.01144348741	 
1.0	 -0.734760993584	 0.889598142617	 
1.0	 -0.765192601528	 0.710726652002	 
1.0	 -0.785451063613	 0.526541078207	 
1.0	 -0.805709525697	 0.342355504412	 
1.0	 -0.871387213243	 0.179187178426	 
1.0	 -0.998671329459	 0.0445265507752	 
1.0	 -1.12595544568	 -0.0901340768757	 
1.0	 -1.20292113156	 -0.243395998249	 
1.0	 -1.19383358299	 -0.428469354898	 
1.0	 -1.1656543932	 -0.610210620717	 
1.0	 -1.11459238977	 -0.788122447491	 
1.0	 -1.08661057064	 -0.971293811733	 
1.5	 -0.456838356389	 -0.714164241247	 
1.5	 -0.274879851884	 -0.788414544007	 
1.5	 -0.092921347378	 -0.862664846766	 
1.5	 0.0890371571276	 -0.936915149526	 
1.5	 0.271793200475	 -1.00910579229	 
1.5	 0.456305848443	 -1.07675996852	 
1.5	 0.640818496411	 -1.14441414476	 
1.5	 0.831532651603	 -1.15372813188	 
1.5	 0.996357902588	 -1.06855393679	 
1.5	 1.13161104023	 -0.925975559816	 
1.5	 1.25446731198	 -0.773192466298	 
1.5	 1.36839599817	 -0.613060460485	 
1.5	 1.44374956481	 -0.433952229422	 
1.5	 1.50106754428	 -0.245971767536	 
1.5	 1.55838552375	 -0.0579913056492	 
1.5	 1.61570350323	 0.129989156237	 
1.5	 1.66059806279	 0.31899663651	 
1.5	 1.63492713904	 0.513837619097	 
1.5	 1.60925621529	 0.708678601685	 
1.5	 1.58358529153	 0.903519584272	 
1.5	 1.55791436778	 1.09836056686	 
1.5	 1.42148826045	 1.23585762797	 
1.5	 1.27719801752	 1.36928300268	 
1.5	 1.13290777459	 1.50270837739	 
1.5	 0.988617531661	 1.6361337521	 
1.5	 0.84432728873	 1.76955912681	 
1.5	 0.688408250969	 1.86480944258	 
1.5	 0.494237047839	 1.83448538123	 
1.5	 0.300065844709	 1.80416131987	 
1.5	 0.10589464158	 1.77383725852	 
1.5	 -0.0881802503383	 1.74292328078	 
1.5	 -0.281913562329	 1.70991708974	 
1.5	 -0.47564687432	 1.6769108987	 
1.5	 -0.669380186312	 1.64390470766	 
1.5	 -0.826763640159	 1.54790621772	 
1.5	 -0.95228207929	 1.39668741512	 
1.5	 -1.07223198423	 1.2420391873	 
1.5	 -1.1507851367	 1.06189644651	 
1.5	 -1.22933828917	 0.881753705716	 
1.5	 -1.30789144163	 0.701610964926	 
1.5	 -1.3864445941	 0.521468224137	 
1.5	 -1.46499774657	 0.341325483347	 
1.5	 -1.43144995313	 0.152061657456	 
1.5	 -1.38305185117	 -0.0384104626799	 
1.5	 -1.27320194741	 -0.192598834728	 
1.5	 -1.12979620028	 -0.326974414767	 
1.5	 -0.952886973347	 -0.407849062503	 
1.5	 -0.765401564043	 -0.465453460209	 
1.5	 -0.574497475875	 -0.512118585759	 
1.5	 -0.383593387707	 -0.558783711309	 
2.0	 0.414461932057	 -0.684320729491	 
2.0	 0.601963746151	 -0.635506020733	 
2.0	 0.775967247862	 -0.558232802265	 
2.0	 0.932399560292	 -0.44391422238	 
2.0	 1.08126028394	 -0.321755426925	 
2.0	 1.20096097906	 -0.169402055882	 
2.0	 1.31283276356	 -0.0117016520597	 
2.0	 1.41119575248	 0.155225063869	 
2.0	 1.44555291508	 0.340563065616	 
2.0	 1.45091782154	 0.534240694314	 
2.0	 1.45628272801	 0.727918323012	 
2.0	 1.44580359313	 0.919582577781	 
2.0	 1.3921684329	 1.1057628014	 
2.0	 1.33853327267	 1.29194302502	 
2.0	 1.24252594097	 1.45389048724	 
2.0	 1.10925411956	 1.59452628531	 
2.0	 0.975982298158	 1.73516208338	 
2.0	 0.837305152379	 1.86463108911	 
2.0	 0.644325978666	 1.88191821127	 
2.0	 0.451346804953	 1.89920533343	 
2.0	 0.260514114519	 1.90304475153	 
2.0	 0.0825054649155	 1.82654163561	 
2.0	 -0.0955031846878	 1.75003851969	 
2.0	 -0.273511834291	 1.67353540376	 
2.0	 -0.451520483894	 1.59703228784	 
2.0	 -0.615310280266	 1.49450134229	 
2.0	 -0.775865295665	 1.3860490804	 
2.0	 -0.936420311063	 1.2775968185	 
2.0	 -1.09697532646	 1.16914455661	 
2.0	 -1.17953593088	 1.01180614234	 
2.0	 -1.20715905691	 0.820033440978	 
2.0	 -1.23478218295	 0.628260739617	 
2.0	 -1.25967980592	 0.436169293026	 
2.0	 -1.27705218384	 0.24319777553	 
2.0	 -1.29840745672	 0.0508589057227	 
2.0	 -1.34168511776	 -0.137997786333	 
2.0	 -1.3849627788	 -0.326854478389	 
2.0	 -1.42017841105	 -0.5166230834	 
2.0	 -1.42017841105	 -0.710375002306	 
2.0	 -1.42017841105	 -0.904126921211	 
2.0	 -1.34868250983	 -1.08087600802	 
2.0	 -1.22462391172	 -1.18913763452	 
2.0	 -1.03133723329	 -1.17571876643	 
2.0	 -0.843253740582	 -1.13812104723	 
2.0	 -0.661556885344	 -1.07084505688	 
2.0	 -0.479860030106	 -1.00356906654	 
2.0	 -0.294300852395	 -0.95062533237	 
2.0	 -0.10340287439	 -0.917492749116	 
2.0	 0.0659760856967	 -0.826189547269	 
2.0	 0.232478119603	 -0.727109383842	 
2.5	 0.474195958538	 -0.391582847717	 
2.5	 0.679764772214	 -0.391582847717	 
2.5	 0.854688881679	 -0.29343022701	 
2.5	 1.0237404147	 -0.176468197537	 
2.5	 1.16751140015	 -0.0297707145448	 
2.5	 1.29062733875	 0.130700140105	 
2.5	 1.36455796251	 0.322514633892	 
2.5	 1.43131532241	 0.516023619055	 
2.5	 1.45103198266	 0.720644709036	 
2.5	 1.4707486429	 0.925265799017	 
2.5	 1.44543123609	 1.1272394771	 
2.5	 1.40187517252	 1.32814096162	 
2.5	 1.32317419159	 1.51450346482	 
2.5	 1.21206975121	 1.68746109108	 
2.5	 1.10096531083	 1.86041871735	 
2.5	 0.930096382203	 1.89521926684	 
2.5	 0.727969251464	 1.85776048715	 
2.5	 0.545518881891	 1.77808160192	 
2.5	 0.386844049335	 1.64738793463	 
2.5	 0.247549212248	 1.50027128498	 
2.5	 0.14465920242	 1.3223044818	 
2.5	 0.0484773856707	 1.14129355643	 
2.5	 -0.0177103067656	 0.946671547078	 
2.5	 -0.0838979992019	 0.752049537721	 
2.5	 -0.164204024771	 0.562988051464	 
2.5	 -0.302395372517	 0.443650608087	 
2.5	 -0.504269801922	 0.404853032021	 
2.5	 -0.706144231327	 0.366055455955	 
2.5	 -0.892372523782	 0.286083861477	 
2.5	 -1.06906762062	 0.181024926058	 
2.5	 -1.24576271745	 0.0759659906394	 
2.5	 -1.37554321322	 -0.0782887083574	 
2.5	 -1.48886677841	 -0.249800535147	 
2.5	 -1.6021903436	 -0.421312361937	 
2.5	 -1.67745744104	 -0.605359584793	 
2.5	 -1.68824690176	 -0.810645056012	 
2.5	 -1.66299232691	 -1.01428882487	 
2.5	 -1.63358592622	 -1.21774348998	 
2.5	 -1.58304921192	 -1.41112087991	 
2.5	 -1.43267598143	 -1.49100900125	 
2.5	 -1.25458725924	 -1.38833016125	 
2.5	 -1.07649853705	 -1.28565132125	 
2.5	 -0.883721973677	 -1.22357013727	 
2.5	 -0.682195008198	 -1.18605377533	 
2.5	 -0.514753442196	 -1.06679833884	 
2.5	 -0.338912117815	 -0.962235329298	 
2.5	 -0.151195288397	 -0.878444344643	 
2.5	 0.0365215410208	 -0.794653359988	 
2.5	 0.217473933023	 -0.712690209855	 
2.5	 0.346805343088	 -0.552903090454	 
3.0	 0.379693816856	 -0.60062070363	 
3.0	 0.554749886591	 -0.519276326706	 
3.0	 0.729805956326	 -0.437931949781	 
3.0	 0.86455000026	 -0.303999507424	 
3.0	 0.988572985572	 -0.156081170756	 
3.0	 1.11259597088	 -0.00816283408794	 
3.0	 1.21151434631	 0.157460864072	 
3.0	 1.3092228537	 0.323937837835	 
3.0	 1.40451367165	 0.491545822795	 
3.0	 1.46968399225	 0.673244376783	 
3.0	 1.53485431285	 0.854942930772	 
3.0	 1.59522370003	 1.03773420374	 
3.0	 1.61511045199	 1.22973954821	 
3.0	 1.63499720396	 1.42174489268	 
3.0	 1.56200925843	 1.55159790195	 
3.0	 1.37693104234	 1.60643939297	 
3.0	 1.19003284318	 1.64095328056	 
3.0	 0.998156128092	 1.61986154245	 
3.0	 0.806279413008	 1.59876980434	 
3.0	 0.618811404159	 1.55869042452	 
3.0	 0.437271576617	 1.49307924998	 
3.0	 0.255731749075	 1.42746807544	 
3.0	 0.0802231260478	 1.35058744927	 
3.0	 -0.0750692123255	 1.23593220581	 
3.0	 -0.230361550699	 1.12127696236	 
3.0	 -0.385653889072	 1.00662171891	 
3.0	 -0.564516445731	 0.937810220898	 
3.0	 -0.748121944955	 0.878223679944	 
3.0	 -0.890360863263	 0.752867160902	 
3.0	 -1.02358647345	 0.613180110689	 
3.0	 -1.15681208365	 0.473493060476	 
3.0	 -1.25140850155	 0.314220375262	 
3.0	 -1.28535213551	 0.124195732329	 
3.0	 -1.31929576947	 -0.065828910604	 
3.0	 -1.35323940343	 -0.255853553537	 
3.0	 -1.37904424329	 -0.447098280052	 
3.0	 -1.40231353902	 -0.638723109039	 
3.0	 -1.42558283475	 -0.830347938027	 
3.0	 -1.44885213048	 -1.02197276701	 
3.0	 -1.44704230461	 -1.20922461641	 
3.0	 -1.35925528049	 -1.37872703925	 
3.0	 -1.18351205087	 -1.29887810405	 
3.0	 -1.01790486322	 -1.20167360547	 
3.0	 -0.862010293239	 -1.08783855701	 
3.0	 -0.704712473001	 -0.975952427082	 
3.0	 -0.534627718933	 -0.887351602427	 
3.0	 -0.355753408272	 -0.814787725781	 
3.0	 -0.177553296187	 -0.740602302119	 
3.0	 0.00483839953668	 -0.683150176174	 
3.0	 0.196637529199	 -0.661364192857	 
3.5	 -0.252261655723	 -0.952842428269	 
3.5	 -0.0929687616887	 -0.845575540919	 
3.5	 0.0663241323461	 -0.738308653568	 
3.5	 0.224031034784	 -0.628820285979	 
3.5	 0.377216154301	 -0.512998308918	 
3.5	 0.53038478448	 -0.397155345691	 
3.5	 0.679159493359	 -0.275720189292	 
3.5	 0.827934202238	 -0.154285032892	 
3.5	 0.978481045534	 -0.0351302942853	 
3.5	 1.13289636507	 0.0790464122031	 
3.5	 1.27598192716	 0.204845612313	 
3.5	 1.39405972188	 0.356298725874	 
3.5	 1.50360362778	 0.512398061664	 
3.5	 1.56672990156	 0.693769186074	 
3.5	 1.57048749641	 0.882025002117	 
3.5	 1.55054376101	 1.07302934403	 
3.5	 1.53060002561	 1.26403368595	 
3.5	 1.46839077497	 1.44560938109	 
3.5	 1.40526450118	 1.6269805055	 
3.5	 1.33001949669	 1.78655993136	 
3.5	 1.14263927562	 1.74449968925	 
3.5	 0.95525905456	 1.70243944715	 
3.5	 0.767878833496	 1.66037920505	 
3.5	 0.584969358636	 1.60188109341	 
3.5	 0.402098494094	 1.54324102081	 
3.5	 0.222965181571	 1.47633909975	 
3.5	 0.0581862125229	 1.37770694185	 
3.5	 -0.106592756525	 1.27907478396	 
3.5	 -0.254934256158	 1.15752029335	 
3.5	 -0.401215627326	 1.0330929183	 
3.5	 -0.539653367662	 0.900431780673	 
3.5	 -0.671029403583	 0.760357698853	 
3.5	 -0.802405439504	 0.620283617034	 
3.5	 -0.933781475424	 0.480209535215	 
3.5	 -1.06080414336	 0.337099383507	 
3.5	 -1.14685200418	 0.165413108982	 
3.5	 -1.232899865	 -0.00627316554373	 
3.5	 -1.31894772582	 -0.177959440069	 
3.5	 -1.40060574614	 -0.351614488088	 
3.5	 -1.4705702043	 -0.530173255755	 
3.5	 -1.44121247161	 -0.719958752417	 
3.5	 -1.41185473892	 -0.909744249079	 
3.5	 -1.38249700623	 -1.09952974574	 
3.5	 -1.24954150552	 -1.23321367906	 
3.5	 -1.06540249769	 -1.27714037699	 
3.5	 -0.901369641195	 -1.18364095992	 
3.5	 -0.739018369617	 -1.08107622777	 
3.5	 -0.571266600071	 -0.987589570829	 
3.5	 -0.403514830526	 -0.894102913887	 
3.5	 -0.23576306098	 -0.800616256946	 
4.0	 0.279047387019	 -0.533047591429	 
4.0	 0.441054464747	 -0.415209999171	 
4.0	 0.599553293352	 -0.293054029889	 
4.0	 0.748075514564	 -0.158617646461	 
4.0	 0.891348827608	 -0.0188178754553	 
4.0	 1.02902594664	 0.126704940155	 
4.0	 1.16757026814	 0.271402771391	 
4.0	 1.32264924744	 0.393995907462	 
4.0	 1.50058613973	 0.486030975475	 
4.0	 1.51221134481	 0.679285435617	 
4.0	 1.48996540558	 0.877938084635	 
4.0	 1.45993152854	 1.07600362332	 
4.0	 1.42989765151	 1.274069162	 
4.0	 1.34587154893	 1.45378674789	 
4.0	 1.24900750816	 1.6291416708	 
4.0	 1.14465659268	 1.79541409208	 
4.0	 0.954039595481	 1.85703512551	 
4.0	 0.76342259828	 1.91865615894	 
4.0	 0.57046220112	 1.95247994314	 
4.0	 0.372219137232	 1.92364109775	 
4.0	 0.173976073344	 1.89480225237	 
4.0	 -0.0242669905443	 1.86596340698	 
4.0	 -0.174300238315	 1.74687164241	 
4.0	 -0.308497269645	 1.59813311961	 
4.0	 -0.442694300974	 1.4493945968	 
4.0	 -0.576891332304	 1.300656074	 
4.0	 -0.704383943713	 1.14728109107	 
4.0	 -0.796184092453	 0.969222886893	 
4.0	 -0.887984241194	 0.791164682717	 
4.0	 -0.988853442622	 0.618951234517	 
4.0	 -1.11308877334	 0.461796616436	 
4.0	 -1.23732410406	 0.304641998356	 
4.0	 -1.3608257827	 0.14703699643	 
4.0	 -1.44473874894	 -0.0348712372468	 
4.0	 -1.52865171518	 -0.216779470923	 
4.0	 -1.61256468143	 -0.3986877046	 
4.0	 -1.65620511985	 -0.588834466757	 
4.0	 -1.65046955526	 -0.789082050217	 
4.0	 -1.64473399067	 -0.989329633678	 
4.0	 -1.58297054298	 -1.16230811251	 
4.0	 -1.42891674518	 -1.29036832791	 
4.0	 -1.2445663634	 -1.36050511705	 
4.0	 -1.05865331819	 -1.342132853	 
4.0	 -0.879903320894	 -1.25168712426	 
4.0	 -0.70465134132	 -1.15542374469	 
4.0	 -0.542328413194	 -1.03838624629	 
4.0	 -0.406969600756	 -0.890704211911	 
4.0	 -0.271610788319	 -0.743022177532	 
4.0	 -0.0889811515845	 -0.662147448461	 
4.0	 0.0891667019183	 -0.571780593439	 
4.5	 0.133292787462	 -0.537022674645	 
4.5	 0.311887068421	 -0.460924264557	 
4.5	 0.490481349381	 -0.384825854468	 
4.5	 0.644011573276	 -0.274492040507	 
4.5	 0.770507231677	 -0.127231273108	 
4.5	 0.897002890078	 0.020029494292	 
4.5	 1.02349854848	 0.167290261692	 
4.5	 1.15504815608	 0.310012167157	 
4.5	 1.27456422097	 0.462498878051	 
4.5	 1.38733650158	 0.620515642783	 
4.5	 1.50010878218	 0.778532407515	 
4.5	 1.61288106279	 0.936549172247	 
4.5	 1.66260760716	 1.12149161873	 
4.5	 1.69877932248	 1.31222308499	 
4.5	 1.60053782942	 1.47855172029	 
4.5	 1.49962945485	 1.644396181	 
4.5	 1.34097625229	 1.73361089541	 
4.5	 1.15374235427	 1.78489785908	 
4.5	 0.966508456253	 1.83618482275	 
4.5	 0.779274558235	 1.88747178642	 
4.5	 0.596589719149	 1.82895787953	 
4.5	 0.414239839884	 1.76235903012	 
4.5	 0.231889960619	 1.69576018072	 
4.5	 0.057029651875	 1.61994363046	 
4.5	 -0.0454828989147	 1.45508592776	 
4.5	 -0.147995449704	 1.29022822506	 
4.5	 -0.250508000494	 1.12537052236	 
4.5	 -0.353020551284	 0.960512819658	 
4.5	 -0.4546300193	 0.795152151172	 
4.5	 -0.540814840514	 0.621200830965	 
4.5	 -0.626999661728	 0.447249510758	 
4.5	 -0.713184482943	 0.273298190551	 
4.5	 -0.819985941134	 0.114481241763	 
4.5	 -0.960119427722	 -0.0198671528911	 
4.5	 -1.10025291431	 -0.154215547545	 
4.5	 -1.22009050541	 -0.306219699648	 
4.5	 -1.33374172654	 -0.463605484092	 
4.5	 -1.43407007329	 -0.62565011551	 
4.5	 -1.44326385767	 -0.819563393905	 
4.5	 -1.45245764206	 -1.0134766723	 
4.5	 -1.46165142644	 -1.2073899507	 
4.5	 -1.37031817055	 -1.32215193904	 
4.5	 -1.18850542957	 -1.28499042246	 
4.5	 -1.01190738088	 -1.20436775563	 
4.5	 -0.858931398154	 -1.08894108696	 
4.5	 -0.716309970921	 -0.957258808353	 
4.5	 -0.572605061194	 -0.826737606513	 
4.5	 -0.408036450032	 -0.73314869837	 
4.5	 -0.222072072535	 -0.677433929126	 
4.5	 -0.0361076950391	 -0.621719159882	 
5.0	 -0.372183159183	 -0.937098821726	 
5.0	 -0.18920415531	 -0.899415218995	 
5.0	 -0.0305545270356	 -0.822426421646	 
5.0	 0.0847790627003	 -0.675458626359	 
5.0	 0.201878632158	 -0.530362270272	 
5.0	 0.355281658887	 -0.423737314641	 
5.0	 0.507661528134	 -0.315687306415	 
5.0	 0.657733879209	 -0.204423389461	 
5.0	 0.813517738183	 -0.101593120577	 
5.0	 0.975800325715	 -0.00904188310882	 
5.0	 1.10786136958	 0.119073571506	 
5.0	 1.22538601627	 0.264295220002	 
5.0	 1.34291066297	 0.409516868498	 
5.0	 1.46043530967	 0.554738516994	 
5.0	 1.56445472361	 0.709754726168	 
5.0	 1.66598459224	 0.866576457917	 
5.0	 1.67882618578	 1.04960144764	 
5.0	 1.67882618578	 1.23642053064	 
5.0	 1.6497750457	 1.4116920538	 
5.0	 1.5215212806	 1.54753144981	 
5.0	 1.36962655852	 1.63301986769	 
5.0	 1.18318788778	 1.64493589986	 
5.0	 0.996749217027	 1.65685193204	 
5.0	 0.812386137421	 1.63228347907	 
5.0	 0.628501792637	 1.59929988441	 
5.0	 0.444620198453	 1.56630289799	 
5.0	 0.262622037844	 1.5241360946	 
5.0	 0.0806238772339	 1.48196929122	 
5.0	 -0.0996159400319	 1.43566181243	 
5.0	 -0.256344339684	 1.33398792928	 
5.0	 -0.413072739335	 1.23231404612	 
5.0	 -0.51059120144	 1.07427018423	 
5.0	 -0.604444965997	 0.912737399159	 
5.0	 -0.698298730554	 0.751204614092	 
5.0	 -0.792152495111	 0.589671829025	 
5.0	 -0.886006259668	 0.428139043958	 
5.0	 -0.969188794505	 0.260875696016	 
5.0	 -1.05200706641	 0.0934167350363	 
5.0	 -1.1572269308	 -0.0602121779033	 
5.0	 -1.26982585908	 -0.209285485783	 
5.0	 -1.38242478737	 -0.358358793663	 
5.0	 -1.42270014075	 -0.531676643084	 
5.0	 -1.42270014075	 -0.718495726084	 
5.0	 -1.42270014075	 -0.905314809084	 
5.0	 -1.37702478537	 -1.08525291364	 
5.0	 -1.25124354912	 -1.20198943619	 
5.0	 -1.0685218616	 -1.19622222544	 
5.0	 -0.890778282398	 -1.14649647953	 
5.0	 -0.721272858348	 -1.06795170892	 
5.0	 -0.543603708897	 -1.01065825332	 
5.5	 0.0	 -0.980313318613	 
5.5	 0.142846312885	 -0.855335247921	 
5.5	 0.268125337089	 -0.716213779539	 
5.5	 0.359731416196	 -0.549982273712	 
5.5	 0.451337495303	 -0.383750767886	 
5.5	 0.544477889005	 -0.219061486992	 
5.5	 0.711178265307	 -0.128311435757	 
5.5	 0.879054446309	 -0.0397914186579	 
5.5	 1.04811126335	 0.0464894011687	 
5.5	 1.21458437368	 0.136584811749	 
5.5	 1.34140584428	 0.27384020925	 
5.5	 1.40987549524	 0.448842005885	 
5.5	 1.4350085445	 0.636972059554	 
5.5	 1.45227928148	 0.825464073936	 
5.5	 1.44453795895	 1.01510757945	 
5.5	 1.43218614838	 1.20346400385	 
5.5	 1.34058006927	 1.36969550968	 
5.5	 1.21245405713	 1.48825317014	 
5.5	 1.02810373409	 1.53341449931	 
5.5	 0.843525175219	 1.57053364189	 
5.5	 0.656910291846	 1.53590023948	 
5.5	 0.470295408472	 1.50126683707	 
5.5	 0.285036015371	 1.4621679164	 
5.5	 0.110657470008	 1.38722320227	 
5.5	 -0.054643899481	 1.29815970704	 
5.5	 -0.195209637052	 1.17062202367	 
5.5	 -0.336637579219	 1.044102181	 
5.5	 -0.485553664393	 0.926422162158	 
5.5	 -0.634469749566	 0.808742143314	 
5.5	 -0.78338583474	 0.691062124469	 
5.5	 -0.939852427549	 0.584205048897	 
5.5	 -1.08450071833	 0.463933849256	 
5.5	 -1.21441452046	 0.325561195611	 
5.5	 -1.34432832258	 0.187188541967	 
5.5	 -1.40678306761	 0.0208289268161	 
5.5	 -1.41297798089	 -0.168871390285	 
5.5	 -1.41917289417	 -0.358571707385	 
5.5	 -1.41399800511	 -0.548225675062	 
5.5	 -1.40625668258	 -0.737869180578	 
5.5	 -1.39851536005	 -0.927512686093	 
5.5	 -1.39077403752	 -1.11715619161	 
5.5	 -1.36904733822	 -1.30505851142	 
5.5	 -1.30822419923	 -1.46758323919	 
5.5	 -1.12040902319	 -1.49497022346	 
5.5	 -0.994288316109	 -1.36647102787	 
5.5	 -0.874622886774	 -1.21984441916	 
5.5	 -0.703383979887	 -1.13840029314	 
5.5	 -0.541525563304	 -1.03927189035	 
5.5	 -0.378116365613	 -0.946751985354	 
5.5	 -0.189058182807	 -0.963532651983	 
6.0	 0.0513241780998	 -0.848140561799	 
6.0	 0.208985897787	 -0.740992649161	 
6.0	 0.366647617475	 -0.633844736522	 
6.0	 0.517936311116	 -0.518293503396	 
6.0	 0.66363661002	 -0.395373545956	 
6.0	 0.809336908924	 -0.272453588517	 
6.0	 0.952537086779	 -0.146755352744	 
6.0	 1.09008972949	 -0.0147812510444	 
6.0	 1.21461793605	 0.12736226024	 
6.0	 1.31338622925	 0.289717627152	 
6.0	 1.44687674017	 0.425799134098	 
6.0	 1.53508387092	 0.583495487596	 
6.0	 1.55693828579	 0.772863588364	 
6.0	 1.57879270065	 0.962231689132	 
6.0	 1.58422885392	 1.1518734539	 
6.0	 1.56869770274	 1.34186470733	 
6.0	 1.49803321712	 1.49379945619	 
6.0	 1.32589429963	 1.57569015236	 
6.0	 1.15375538213	 1.65758084854	 
6.0	 0.972673051869	 1.68357263571	 
6.0	 0.78357708051	 1.65947685489	 
6.0	 0.59448110915	 1.63538107407	 
6.0	 0.419066714596	 1.56515137425	 
6.0	 0.247407092397	 1.4822606803	 
6.0	 0.0757474701972	 1.39936998634	 
6.0	 -0.0991552928356	 1.32675316187	 
6.0	 -0.28729415742	 1.29606667183	 
6.0	 -0.473903893257	 1.26178164552	 
6.0	 -0.626582014261	 1.1476445157	 
6.0	 -0.779260135265	 1.03350738587	 
6.0	 -0.931938256269	 0.919370256049	 
6.0	 -1.01239487222	 0.750518307177	 
6.0	 -1.08094328033	 0.572644731895	 
6.0	 -1.15241484081	 0.396007595268	 
6.0	 -1.23231061524	 0.222933743209	 
6.0	 -1.31220638966	 0.0498598911496	 
6.0	 -1.39157412188	 -0.123382797869	 
6.0	 -1.42691150951	 -0.310703811302	 
6.0	 -1.46224889713	 -0.498024824735	 
6.0	 -1.45225255233	 -0.686260781589	 
6.0	 -1.42450203666	 -0.874855060181	 
6.0	 -1.39675152099	 -1.06344933877	 
6.0	 -1.33712210274	 -1.2270532922	 
6.0	 -1.1606077322	 -1.29902946901	 
6.0	 -0.974209681479	 -1.28604223767	 
6.0	 -0.807906572238	 -1.20076821052	 
6.0	 -0.65024485255	 -1.09362029788	 
6.0	 -0.489888413297	 -0.990566698321	 
6.0	 -0.322715464646	 -0.903500972645	 
6.0	 -0.138161877198	 -0.856123908799	 
6.5	 -0.376562325179	 -1.02389340819	 
6.5	 -0.191942465253	 -1.0039714878	 
6.5	 -0.00732260532663	 -0.984049567409	 
6.5	 0.1772972546	 -0.964127647017	 
6.5	 0.337066603845	 -0.874184928316	 
6.5	 0.492940158969	 -0.773265106655	 
6.5	 0.648813714094	 -0.672345284993	 
6.5	 0.808760255768	 -0.581800741601	 
6.5	 0.991661268171	 -0.549729021139	 
6.5	 1.17456228057	 -0.517657300677	 
6.5	 1.33806962525	 -0.456828834663	 
6.5	 1.43634454339	 -0.299274348668	 
6.5	 1.48200250949	 -0.124091005853	 
6.5	 1.49848370837	 0.0608677616454	 
6.5	 1.51496490726	 0.245826529144	 
6.5	 1.50763065524	 0.43127816188	 
6.5	 1.4988158034	 0.616760435907	 
6.5	 1.4765916036	 0.800417728546	 
6.5	 1.43551657623	 0.98150946695	 
6.5	 1.39444154886	 1.16260120535	 
6.5	 1.35336652149	 1.34369294376	 
6.5	 1.247789531	 1.48442939083	 
6.5	 1.08389210117	 1.56267405034	 
6.5	 0.904165864736	 1.60936297332	 
6.5	 0.724439628303	 1.6560518963	 
6.5	 0.545042525492	 1.68279733939	 
6.5	 0.366954787548	 1.63020329805	 
6.5	 0.188867049604	 1.5776092567	 
6.5	 0.0558110769294	 1.45398783567	 
6.5	 -0.0667076169183	 1.31467586788	 
6.5	 -0.146412652504	 1.1469603859	 
6.5	 -0.22611768809	 0.979244903929	 
6.5	 -0.337312492445	 0.83179677736	 
6.5	 -0.45695341601	 0.689784718014	 
6.5	 -0.589433362895	 0.562124809478	 
6.5	 -0.74384299658	 0.458979084328	 
6.5	 -0.898252630265	 0.355833359179	 
6.5	 -1.04962337981	 0.248516722706	 
6.5	 -1.19512761473	 0.133148212223	 
6.5	 -1.34063184965	 0.0177797017392	 
6.5	 -1.48613608457	 -0.0975888087443	 
6.5	 -1.47264509452	 -0.265575452236	 
6.5	 -1.42468950869	 -0.444967863948	 
6.5	 -1.37621309029	 -0.624198133864	 
6.5	 -1.31386888595	 -0.799111185913	 
6.5	 -1.2401374325	 -0.968083635853	 
6.5	 -1.10173588126	 -1.07460028009	 
6.5	 -0.921498975937	 -1.1164216787	 
6.5	 -0.736732577842	 -1.09790806949	 
6.5	 -0.551790610365	 -1.08534602134	 
7.0	 0.375846208389	 -0.510783961376	 
7.0	 0.518067592999	 -0.363786755862	 
7.0	 0.660288977609	 -0.216789550348	 
7.0	 0.849965179679	 -0.141116446152	 
7.0	 1.04886789867	 -0.129751131842	 
7.0	 1.24442714525	 -0.12693384415	 
7.0	 1.38141211259	 0.0181916438678	 
7.0	 1.43644944499	 0.215184011009	 
7.0	 1.47300205623	 0.414710069539	 
7.0	 1.47300205623	 0.619246376022	 
7.0	 1.47300205623	 0.823782682504	 
7.0	 1.46949275789	 1.02824988105	 
7.0	 1.46144009304	 1.23262760797	 
7.0	 1.43710731716	 1.43440632719	 
7.0	 1.38112648063	 1.63113265134	 
7.0	 1.21777390242	 1.73671696563	 
7.0	 1.03275276995	 1.82390802716	 
7.0	 0.845495176386	 1.88459945311	 
7.0	 0.648478037345	 1.82965086265	 
7.0	 0.488880387949	 1.70207452603	 
7.0	 0.32977588656	 1.57354103504	 
7.0	 0.170671385171	 1.44500754404	 
7.0	 0.115082108544	 1.25192665632	 
7.0	 0.0494301610783	 1.05985293559	 
7.0	 -0.0617237042692	 0.891014320739	 
7.0	 -0.208086907249	 0.748140553087	 
7.0	 -0.354450110229	 0.605266785435	 
7.0	 -0.50399401151	 0.465784274531	 
7.0	 -0.659934189775	 0.334778787472	 
7.0	 -0.843745070467	 0.24506445858	 
7.0	 -1.02832745469	 0.156994524387	 
7.0	 -1.21481116041	 0.0729770966149	 
7.0	 -1.40129486613	 -0.0110403311573	 
7.0	 -1.49643518515	 -0.188799204532	 
7.0	 -1.58525596516	 -0.373043525225	 
7.0	 -1.67407674517	 -0.557287845918	 
7.0	 -1.67491901418	 -0.759489028455	 
7.0	 -1.66540515297	 -0.963803949874	 
7.0	 -1.65589129176	 -1.16811887129	 
7.0	 -1.59898363742	 -1.35115543439	 
7.0	 -1.41455360852	 -1.40053666829	 
7.0	 -1.21522870495	 -1.37797802367	 
7.0	 -1.03629367841	 -1.28108264331	 
7.0	 -0.885098983242	 -1.14333190892	 
7.0	 -0.711341820104	 -1.04796995691	 
7.0	 -0.532200508167	 -0.952674369657	 
7.0	 -0.358093872613	 -0.845333882769	 
7.0	 -0.162696954698	 -0.786063561318	 
7.0	 0.03276329645	 -0.725810836146	 
7.0	 0.200512970288	 -0.616108964517	 
7.5	 -0.317177094329	 -1.01353536931	 
7.5	 -0.138407399881	 -0.956948473692	 
7.5	 0.0403622945684	 -0.900361578076	 
7.5	 0.219131989017	 -0.843774682459	 
7.5	 0.378012217305	 -0.744956256786	 
7.5	 0.53549894432	 -0.643178993985	 
7.5	 0.702435786885	 -0.557901964711	 
7.5	 0.869911030551	 -0.47356500266	 
7.5	 1.03738627422	 -0.389228040609	 
7.5	 1.18417132773	 -0.277963123152	 
7.5	 1.29254462938	 -0.124940549986	 
7.5	 1.40091793103	 0.0280820231798	 
7.5	 1.47280003617	 0.200165123747	 
7.5	 1.49048184554	 0.385656084337	 
7.5	 1.49893593379	 0.572977222495	 
7.5	 1.48667560169	 0.760065383694	 
7.5	 1.44216519245	 0.941227037777	 
7.5	 1.38672925698	 1.12035698353	 
7.5	 1.32729579965	 1.29814751003	 
7.5	 1.26313681544	 1.47425460963	 
7.5	 1.14677018278	 1.61832901436	 
7.5	 0.96066309594	 1.64123824039	 
7.5	 0.774315407225	 1.66207062703	 
7.5	 0.608136559906	 1.62722381303	 
7.5	 0.479148088149	 1.4911258536	 
7.5	 0.344422957719	 1.36084010819	 
7.5	 0.212554429851	 1.23020954043	 
7.5	 0.170159003835	 1.04755328332	 
7.5	 0.126346326343	 0.865232063153	 
7.5	 0.0797633895807	 0.683617853484	 
7.5	 0.0229679683227	 0.505496845453	 
7.5	 -0.057330511296	 0.336048226162	 
7.5	 -0.215343474623	 0.243156678064	 
7.5	 -0.39063234495	 0.18015676131	 
7.5	 -0.569372694159	 0.123942528887	 
7.5	 -0.733989002773	 0.0352883746316	 
7.5	 -0.895974826432	 -0.0591641178846	 
7.5	 -1.04563842548	 -0.172123670551	 
7.5	 -1.1952614699	 -0.285144133244	 
7.5	 -1.30298872987	 -0.434183344736	 
7.5	 -1.38623492123	 -0.601264725261	 
7.5	 -1.42355515901	 -0.785025113431	 
7.5	 -1.4608753968	 -0.968785501601	 
7.5	 -1.45587632446	 -1.15300643192	 
7.5	 -1.37489136816	 -1.31310331317	 
7.5	 -1.19143300937	 -1.33155583971	 
7.5	 -1.0134610896	 -1.28317532374	 
7.5	 -0.839212562979	 -1.21591203229	 
7.5	 -0.663318968675	 -1.15785627722	 
7.5	 -0.490248031502	 -1.08569582326	 
8.0	 0.407946279282	 -0.831539701523	 
8.0	 0.604546208692	 -0.820949853517	 
8.0	 0.801146138102	 -0.810360005512	 
8.0	 0.997746067512	 -0.799770157506	 
8.0	 1.1584228923	 -0.729079910511	 
8.0	 1.26084984682	 -0.560935936157	 
8.0	 1.36327680135	 -0.392791961803	 
8.0	 1.46570375588	 -0.22464798745	 
8.0	 1.5681307104	 -0.0565040130961	 
8.0	 1.63455513394	 0.127932249015	 
8.0	 1.6932623028	 0.315860813766	 
8.0	 1.73975793096	 0.50527294171	 
8.0	 1.72775674387	 0.701791766847	 
8.0	 1.71575555677	 0.898310591984	 
8.0	 1.70375436968	 1.09482941712	 
8.0	 1.61750206942	 1.24529740076	 
8.0	 1.4467888012	 1.34338234953	 
8.0	 1.27607553297	 1.44146729831	 
8.0	 1.10536226475	 1.53955224709	 
8.0	 0.913701494922	 1.5826097506	 
8.0	 0.72097802105	 1.62287561386	 
8.0	 0.528254547178	 1.66314147711	 
8.0	 0.335000863502	 1.69552160539	 
8.0	 0.138621750436	 1.68141766707	 
8.0	 -0.0577573626306	 1.66731372875	 
8.0	 -0.235526728415	 1.60615285774	 
8.0	 -0.388433382542	 1.48212369887	 
8.0	 -0.541340036669	 1.35809454001	 
8.0	 -0.600464323892	 1.17183995613	 
8.0	 -0.655315064235	 0.982749836322	 
8.0	 -0.710165804577	 0.793659716515	 
8.0	 -0.754374976319	 0.601927974845	 
8.0	 -0.794320701673	 0.409137891722	 
8.0	 -0.834266427026	 0.216347808598	 
8.0	 -0.957375629231	 0.0647832422717	 
8.0	 -1.08662369088	 -0.0837381894629	 
8.0	 -1.1989207808	 -0.243124665396	 
8.0	 -1.27989911442	 -0.422585487333	 
8.0	 -1.32202052386	 -0.609430028485	 
8.0	 -1.31251298888	 -0.806085269715	 
8.0	 -1.29289376326	 -0.999010989589	 
8.0	 -1.17242979783	 -1.15474187977	 
8.0	 -1.01648566423	 -1.16324595326	 
8.0	 -0.836154738561	 -1.08489871017	 
8.0	 -0.649093845343	 -1.02348291942	 
8.0	 -0.462032952125	 -0.962067128665	 
8.0	 -0.289453161856	 -0.869449100654	 
8.0	 -0.121790560008	 -0.766236073054	 
8.0	 0.0660296462717	 -0.709976869652	 
8.0	 0.245854173831	 -0.719781809294	 
8.5	 0.40825654636	 -0.596441844146	 
8.5	 0.579084588497	 -0.495404697744	 
8.5	 0.749912630633	 -0.394367551341	 
8.5	 0.92074067277	 -0.293330404939	 
8.5	 1.09156871491	 -0.192293258537	 
8.5	 1.25133868711	 -0.0772303880815	 
8.5	 1.38944963922	 0.0653041335001	 
8.5	 1.52756059132	 0.207838655082	 
8.5	 1.66567154342	 0.350373176663	 
8.5	 1.80378249553	 0.492907698245	 
8.5	 1.82408220467	 0.683157061537	 
8.5	 1.75142364245	 0.859880966965	 
8.5	 1.64238503548	 1.02571614756	 
8.5	 1.53334642851	 1.19155132816	 
8.5	 1.40261639095	 1.339256879	 
8.5	 1.25876478921	 1.4759954676	 
8.5	 1.10670863546	 1.59706169369	 
8.5	 0.912373051854	 1.6373656126	 
8.5	 0.718037468252	 1.67766953151	 
8.5	 0.521147762192	 1.69806140499	 
8.5	 0.322931349385	 1.70811021722	 
8.5	 0.124714936578	 1.71815902945	 
8.5	 -0.0628919745115	 1.69044187721	 
8.5	 -0.226877331837	 1.57864059137	 
8.5	 -0.390862689163	 1.46683930553	 
8.5	 -0.554848046488	 1.35503801968	 
8.5	 -0.650371580747	 1.20883279809	 
8.5	 -0.64222239474	 1.01052920332	 
8.5	 -0.634073208732	 0.812225608542	 
8.5	 -0.636439207053	 0.613898043419	 
8.5	 -0.643684209822	 0.415559356148	 
8.5	 -0.650929212592	 0.217220668878	 
8.5	 -0.753079186368	 0.068119232796	 
8.5	 -0.911060584308	 -0.0520165355601	 
8.5	 -1.0642450011	 -0.178097499593	 
8.5	 -1.21505791373	 -0.307117615535	 
8.5	 -1.32942201834	 -0.457350665413	 
8.5	 -1.36710532236	 -0.652211368304	 
8.5	 -1.40478862639	 -0.847072071195	 
8.5	 -1.41371493603	 -1.04200943415	 
8.5	 -1.35187641272	 -1.21816659324	 
8.5	 -1.17485426793	 -1.30791003416	 
8.5	 -1.00143038251	 -1.26899823248	 
8.5	 -0.829700969141	 -1.16950082791	 
8.5	 -0.657971555772	 -1.07000342333	 
8.5	 -0.468551258788	 -1.01118653441	 
8.5	 -0.278670235265	 -0.953429094721	 
8.5	 -0.0871744234049	 -0.901466430934	 
8.5	 0.0464316650335	 -0.759249429857	 
8.5	 0.228495015103	 -0.680563879389	 
9.0	 -1.11698611806	 -0.873258973556	 
9.0	 -0.944458864686	 -0.936752195123	 
9.0	 -0.771931611313	 -1.00024541669	 
9.0	 -0.59940435794	 -1.06373863826	 
9.0	 -0.425620613062	 -1.12329198221	 
9.0	 -0.248188817905	 -1.17140643335	 
9.0	 -0.0697055013131	 -1.21476149417	 
9.0	 0.111481552413	 -1.24587891539	 
9.0	 0.292668606139	 -1.27699633661	 
9.0	 0.473985262316	 -1.294949819	 
9.0	 0.655749853867	 -1.2674057525	 
9.0	 0.837514445419	 -1.23986168599	 
9.0	 1.01927903697	 -1.21231761949	 
9.0	 1.12151671358	 -1.07775931843	 
9.0	 1.20031867484	 -0.911665088418	 
9.0	 1.2694134583	 -0.742550278063	 
9.0	 1.29876647993	 -0.561069032579	 
9.0	 1.32811950156	 -0.379587787094	 
9.0	 1.35621348212	 -0.197986442148	 
9.0	 1.36170047978	 -0.0142286254484	 
9.0	 1.36718747744	 0.169529191251	 
9.0	 1.37267447511	 0.35328700795	 
9.0	 1.36348577093	 0.536632343766	 
9.0	 1.34768605429	 0.71979186794	 
9.0	 1.31038154615	 0.897274824359	 
9.0	 1.23372532371	 1.06437020401	 
9.0	 1.15706910127	 1.23146558367	 
9.0	 1.06155807945	 1.3810572517	 
9.0	 0.900612797092	 1.46990351459	 
9.0	 0.739667514739	 1.55874977748	 
9.0	 0.57897595006	 1.64489342509	 
9.0	 0.437378554259	 1.52764488632	 
9.0	 0.295781158458	 1.41039634755	 
9.0	 0.154183762657	 1.29314780878	 
9.0	 -0.00278311793583	 1.21855908344	 
9.0	 -0.186622837097	 1.21855908344	 
9.0	 -0.362519847538	 1.17547179727	 
9.0	 -0.534275985026	 1.10992127037	 
9.0	 -0.706032122513	 1.04437074347	 
9.0	 -0.87938612599	 0.983228734165	 
9.0	 -1.0331491218	 0.904335651671	 
9.0	 -1.08453765648	 0.727824289871	 
9.0	 -1.13592619116	 0.551312928071	 
9.0	 -1.18731472585	 0.374801566271	 
9.0	 -1.23870326053	 0.198290204471	 
9.0	 -1.29009179521	 0.0217788426707	 
9.0	 -1.28577786104	 -0.159558531353	 
9.0	 -1.26551275652	 -0.342277900551	 
9.0	 -1.21549142249	 -0.519061969817	 
9.0	 -1.16410288781	 -0.695573331617	 
9.5	 -0.924320544917	 -1.14825486976	 
9.5	 -0.729761743609	 -1.12562320527	 
9.5	 -0.5352029423	 -1.10299154078	 
9.5	 -0.342221574451	 -1.07390770713	 
9.5	 -0.166659141095	 -0.991810375226	 
9.5	 -0.0197334607533	 -0.862279823386	 
9.5	 0.136082286525	 -0.769362801423	 
9.5	 0.326048398887	 -0.817093248291	 
9.5	 0.516839101707	 -0.860166370528	 
9.5	 0.711645129982	 -0.880560750931	 
9.5	 0.900706350298	 -0.85153403671	 
9.5	 0.997793623135	 -0.712706369103	 
9.5	 1.03072771368	 -0.519624352632	 
9.5	 1.05806617937	 -0.325946019835	 
9.5	 1.06656247552	 -0.130259708725	 
9.5	 1.12678156988	 0.0433791810205	 
9.5	 1.26207362113	 0.185017383042	 
9.5	 1.40621528739	 0.316335195774	 
9.5	 1.44672272502	 0.493012347498	 
9.5	 1.45164471275	 0.688821166096	 
9.5	 1.45656670048	 0.884629984695	 
9.5	 1.43439199616	 1.07811226129	 
9.5	 1.39616353674	 1.27021615062	 
9.5	 1.31121903215	 1.4418127576	 
9.5	 1.19568573097	 1.59998157793	 
9.5	 1.08015242979	 1.75815039825	 
9.5	 0.955456711579	 1.89133036455	 
9.5	 0.765063642325	 1.84533255391	 
9.5	 0.575159035301	 1.79845978168	 
9.5	 0.436089005195	 1.66052919722	 
9.5	 0.297018975089	 1.52259861275	 
9.5	 0.189971810956	 1.35916354343	 
9.5	 0.0866544479481	 1.19275788876	 
9.5	 -0.0685390862195	 1.07439002058	 
9.5	 -0.226527714949	 0.958610434311	 
9.5	 -0.405850379343	 0.879929898452	 
9.5	 -0.585383587394	 0.801615489746	 
9.5	 -0.776793392928	 0.761734038559	 
9.5	 -0.963169061154	 0.711993125227	 
9.5	 -1.11607538738	 0.589579993561	 
9.5	 -1.26898171361	 0.467166861896	 
9.5	 -1.42188803983	 0.34475373023	 
9.5	 -1.46584746057	 0.170001550898	 
9.5	 -1.46584746057	 -0.0258691191981	 
9.5	 -1.46584746057	 -0.221739789295	 
9.5	 -1.44490453275	 -0.416079865362	 
9.5	 -1.4164265968	 -0.609869252501	 
9.5	 -1.35650195848	 -0.794077725907	 
9.5	 -1.2537334914	 -0.956592435485	 
9.5	 -1.09219936545	 -1.05106715351	 
10.0	 -0.179588030753	 -0.925283897307	 
10.0	 -0.00492161946098	 -0.851935910206	 
10.0	 0.169744791831	 -0.778587923104	 
10.0	 0.342429809744	 -0.700845991098	 
10.0	 0.513037372063	 -0.618497086278	 
10.0	 0.683644934382	 -0.536148181458	 
10.0	 0.848503374556	 -0.443548765016	 
10.0	 1.00772924266	 -0.340906642218	 
10.0	 1.16982858455	 -0.243096662638	 
10.0	 1.33604576355	 -0.152211395118	 
10.0	 1.45014342463	 -0.00821512244142	 
10.0	 1.53556044106	 0.159998128394	 
10.0	 1.59194084378	 0.340855897467	 
10.0	 1.62539106798	 0.524759417036	 
10.0	 1.61817829091	 0.714064087587	 
10.0	 1.61096551385	 0.903368758138	 
10.0	 1.53086138415	 1.07374544653	 
10.0	 1.41686670057	 1.20814489512	 
10.0	 1.23426513574	 1.25859240217	 
10.0	 1.04885268332	 1.29365311362	 
10.0	 0.860208874112	 1.3110253815	 
10.0	 0.721510849833	 1.42019559266	 
10.0	 0.602608495313	 1.56719347334	 
10.0	 0.446718699671	 1.57185441811	 
10.0	 0.290096488459	 1.46528160075	 
10.0	 0.175049439186	 1.32586031402	 
10.0	 0.10759940278	 1.14883270309	 
10.0	 0.040149366374	 0.97180509215	 
10.0	 -0.110450603672	 0.865300192736	 
10.0	 -0.297292969546	 0.855682896182	 
10.0	 -0.465845851339	 0.802163067819	 
10.0	 -0.605199388261	 0.673831956266	 
10.0	 -0.744097253548	 0.545069193754	 
10.0	 -0.864701067094	 0.398976748353	 
10.0	 -0.983247758511	 0.251355571858	 
10.0	 -1.08834309702	 0.0937381481113	 
10.0	 -1.18274631206	 -0.0704884414174	 
10.0	 -1.27674737942	 -0.234963612133	 
10.0	 -1.37074844677	 -0.399438782849	 
10.0	 -1.44037889668	 -0.569566199076	 
10.0	 -1.42837306168	 -0.758627412368	 
10.0	 -1.39315864131	 -0.944321357069	 
10.0	 -1.3493460768	 -1.12856467321	 
10.0	 -1.29201641976	 -1.30912378505	 
10.0	 -1.18294463882	 -1.44143501535	 
10.0	 -1.00728206635	 -1.3705058741	 
10.0	 -0.838562774964	 -1.28478291565	 
10.0	 -0.675768683902	 -1.18833669695	 
10.0	 -0.518601945405	 -1.08256856018	 
10.0	 -0.358397639778	 -0.987857103758	 
10.5	 -0.430874988501	 -1.0019219237	 
10.5	 -0.245107874433	 -0.952172320731	 
10.5	 -0.059340760365	 -0.902422717767	 
10.5	 0.126426353703	 -0.852673114803	 
10.5	 0.274647380279	 -0.746523338938	 
10.5	 0.39222103022	 -0.594336347038	 
10.5	 0.530193433124	 -0.473400200087	 
10.5	 0.716829462218	 -0.427016622086	 
10.5	 0.903465491313	 -0.380633044086	 
10.5	 1.09014919753	 -0.334442577958	 
10.5	 1.2769273025	 -0.288634465491	 
10.5	 1.45546014754	 -0.232059314235	 
10.5	 1.54837591496	 -0.0636814539653	 
10.5	 1.58804190658	 0.120255021441	 
10.5	 1.60039747123	 0.312171106453	 
10.5	 1.59298050235	 0.50419290301	 
10.5	 1.5826776993	 0.696230128343	 
10.5	 1.57987495784	 0.888468398379	 
10.5	 1.57987495784	 1.08078179798	 
10.5	 1.48514425542	 1.23852821523	 
10.5	 1.36128661032	 1.38564628827	 
10.5	 1.23742896523	 1.53276436131	 
10.5	 1.06345881384	 1.5721857854	 
10.5	 0.871145414241	 1.5721857854	 
10.5	 0.678832014645	 1.5721857854	 
10.5	 0.486518615049	 1.5721857854	 
10.5	 0.294344534854	 1.57112700407	 
10.5	 0.108577420786	 1.52137740111	 
10.5	 -0.0771896932822	 1.47162779814	 
10.5	 -0.26295680735	 1.42187819518	 
10.5	 -0.4513871969	 1.38520161605	 
10.5	 -0.595374584432	 1.31029170711	 
10.5	 -0.628632576099	 1.12087589559	 
10.5	 -0.645077436965	 0.930978374733	 
10.5	 -0.622718921099	 0.73996910681	 
10.5	 -0.604287835563	 0.548624957726	 
10.5	 -0.593985032511	 0.356587732393	 
10.5	 -0.607901112554	 0.172620286893	 
10.5	 -0.731330823678	 0.0251430002479	 
10.5	 -0.854760534802	 -0.122334286397	 
10.5	 -0.973933425016	 -0.273255242634	 
10.5	 -1.09237777467	 -0.424765571325	 
10.5	 -1.21082212432	 -0.576275900017	 
10.5	 -1.24843265899	 -0.755632790353	 
10.5	 -1.24843265899	 -0.947946189949	 
10.5	 -1.21070556806	 -1.12916540059	 
10.5	 -1.10660274003	 -1.29086587944	 
10.5	 -0.93210939795	 -1.27378406526	 
10.5	 -0.753099917886	 -1.20355540334	 
10.5	 -0.578783113102	 -1.12232674317	 
11.0	 0.0465203194421	 -0.777614282493	 
11.0	 0.21870830065	 -0.694076212856	 
11.0	 0.390896281857	 -0.610538143219	 
11.0	 0.562231620999	 -0.525283302186	 
11.0	 0.732842113326	 -0.438569001987	 
11.0	 0.903452605653	 -0.351854701788	 
11.0	 1.04476866109	 -0.234592518377	 
11.0	 1.13855092502	 -0.0677626741557	 
11.0	 1.24475241882	 0.0908401484408	 
11.0	 1.36179367083	 0.242262258048	 
11.0	 1.47007627892	 0.399927274365	 
11.0	 1.57503302271	 0.55996287004	 
11.0	 1.66985569126	 0.724243698887	 
11.0	 1.71029981355	 0.911304071289	 
11.0	 1.75074393584	 1.09836444369	 
11.0	 1.65882485462	 1.24930985374	 
11.0	 1.52898011997	 1.38990734602	 
11.0	 1.39913538532	 1.53050483829	 
11.0	 1.24743683402	 1.60912212197	 
11.0	 1.05812305802	 1.58105783559	 
11.0	 0.868809282031	 1.5529935492	 
11.0	 0.683870898769	 1.59778548341	 
11.0	 0.499276479841	 1.64830489009	 
11.0	 0.313351543613	 1.68459377218	 
11.0	 0.122591517696	 1.66916903675	 
11.0	 -0.0681685082207	 1.65374430131	 
11.0	 -0.20013288513	 1.51542014143	 
11.0	 -0.331846573142	 1.37657197133	 
11.0	 -0.463560261155	 1.23772380123	 
11.0	 -0.593837443555	 1.09775350082	 
11.0	 -0.696670167534	 0.936344886332	 
11.0	 -0.799502891514	 0.774936271847	 
11.0	 -0.902335615493	 0.613527657362	 
11.0	 -0.952388125659	 0.430163007031	 
11.0	 -1.05169289292	 0.267174616773	 
11.0	 -1.15398607767	 0.105423529278	 
11.0	 -1.25627926241	 -0.0563275582169	 
11.0	 -1.35857244716	 -0.218078645712	 
11.0	 -1.4608656319	 -0.379829733207	 
11.0	 -1.499430994	 -0.565424137644	 
11.0	 -1.52843334276	 -0.754596476313	 
11.0	 -1.48185242179	 -0.938067487382	 
11.0	 -1.39922571522	 -1.08875672876	 
11.0	 -1.2084656893	 -1.10418146419	 
11.0	 -1.01770566338	 -1.11960619962	 
11.0	 -0.830623198565	 -1.150244041	 
11.0	 -0.658435217357	 -1.06670597136	 
11.0	 -0.477725355298	 -1.00463204958	 
11.0	 -0.295333809533	 -0.946767666287	 
11.0	 -0.118097373089	 -0.875227423293	 
11.5	 0.313288152705	 -0.73743821865	 
11.5	 0.494773414742	 -0.671388837851	 
11.5	 0.67625867678	 -0.605339457052	 
11.5	 0.857743938818	 -0.539290076252	 
11.5	 1.02838701341	 -0.457588584994	 
11.5	 1.15401464829	 -0.310901440374	 
11.5	 1.27964228316	 -0.164214295754	 
11.5	 1.36897014341	 0.00595624157496	 
11.5	 1.45126888179	 0.180674124753	 
11.5	 1.53356762017	 0.35539200793	 
11.5	 1.60566549646	 0.534546119025	 
11.5	 1.67531384571	 0.714329231772	 
11.5	 1.68540800965	 0.907195840845	 
11.5	 1.6896367208	 1.09919912024	 
11.5	 1.62439893479	 1.2809777007	 
11.5	 1.45441863654	 1.35033937817	 
11.5	 1.26826712784	 1.40165938461	 
11.5	 1.07885171081	 1.43935846727	 
11.5	 0.890983376371	 1.48340347314	 
11.5	 0.704587099037	 1.53348665788	 
11.5	 0.51517168201	 1.57118574054	 
11.5	 0.323936281991	 1.59525967005	 
11.5	 0.131266826734	 1.60859766285	 
11.5	 -0.0529438900073	 1.59474742792	 
11.5	 -0.2040395043	 1.47445804193	 
11.5	 -0.338713824222	 1.33718795812	 
11.5	 -0.463995311898	 1.19020506835	 
11.5	 -0.589276799573	 1.04322217857	 
11.5	 -0.685588009036	 0.877786040633	 
11.5	 -0.765828876835	 0.702113549401	 
11.5	 -0.884349272051	 0.553089988199	 
11.5	 -1.01818455741	 0.413910165733	 
11.5	 -1.14922153154	 0.272034401584	 
11.5	 -1.28025850566	 0.130158637435	 
11.5	 -1.41129547979	 -0.0117171267134	 
11.5	 -1.46893109122	 -0.190108509634	 
11.5	 -1.49533774402	 -0.381319757236	 
11.5	 -1.51661260761	 -0.573274963522	 
11.5	 -1.53788747119	 -0.765230169808	 
11.5	 -1.49447639468	 -0.95089461685	 
11.5	 -1.42744878618	 -1.12945503653	 
11.5	 -1.26669635853	 -1.21829043807	 
11.5	 -1.07572659476	 -1.23564121349	 
11.5	 -0.89487152253	 -1.16788529944	 
11.5	 -0.724289447559	 -1.0846808731	 
11.5	 -0.579720776572	 -0.960019288607	 
11.5	 -0.402887592145	 -0.894548891066	 
11.5	 -0.210870834429	 -0.877686436016	 
11.5	 -0.0384089816836	 -0.817486475143	 
11.5	 0.120157572421	 -0.73743821865	 
12.0	 0.277124886126	 -0.649781457323	 
12.0	 0.447878705913	 -0.541398296275	 
12.0	 0.6186325257	 -0.433015135228	 
12.0	 0.773238887119	 -0.307889075018	 
12.0	 0.887731590588	 -0.141170157607	 
12.0	 1.00222429406	 0.0255487598044	 
12.0	 1.13552013851	 0.174616648805	 
12.0	 1.29467660988	 0.299408452196	 
12.0	 1.4273883684	 0.445206707222	 
12.0	 1.5129363195	 0.628469700304	 
12.0	 1.58602735852	 0.816664020792	 
12.0	 1.64912352894	 1.00881662189	 
12.0	 1.71322736493	 1.20063548119	 
12.0	 1.77733120092	 1.39245434048	 
12.0	 1.66064983319	 1.54795968796	 
12.0	 1.52744712946	 1.70014646888	 
12.0	 1.39312360932	 1.84861950358	 
12.0	 1.19796862407	 1.79553176202	 
12.0	 1.00281363882	 1.74244402046	 
12.0	 0.809188285865	 1.68465786086	 
12.0	 0.620184051443	 1.61267747505	 
12.0	 0.431179817022	 1.54069708924	 
12.0	 0.241038230001	 1.47221019531	 
12.0	 0.0458832447538	 1.41912245375	 
12.0	 -0.148900396536	 1.36481216933	 
12.0	 -0.340612608014	 1.30039008817	 
12.0	 -0.526419035564	 1.22258463573	 
12.0	 -0.703226858113	 1.12438702651	 
12.0	 -0.880034680663	 1.02618941729	 
12.0	 -0.999459442459	 0.869058543762	 
12.0	 -1.1023341425	 0.694930508505	 
12.0	 -1.20520884254	 0.520802473248	 
12.0	 -1.29370763022	 0.339990704006	 
12.0	 -1.36053750554	 0.149104496189	 
12.0	 -1.42736738087	 -0.0417817116285	 
12.0	 -1.49419725619	 -0.232667919446	 
12.0	 -1.56609126484	 -0.421562838992	 
12.0	 -1.64717566388	 -0.606843968096	 
12.0	 -1.72826006293	 -0.7921250972	 
12.0	 -1.62212221579	 -0.961607309525	 
12.0	 -1.51113532467	 -1.13068033093	 
12.0	 -1.36674398882	 -1.23786649345	 
12.0	 -1.1644971679	 -1.23786649345	 
12.0	 -0.965288373867	 -1.21198295965	 
12.0	 -0.807142063044	 -1.09402717243	 
12.0	 -0.65613860537	 -0.960364266093	 
12.0	 -0.482915453825	 -0.856079229885	 
12.0	 -0.304440036387	 -0.761236572943	 
12.0	 -0.110764135983	 -0.723292086839	 
12.0	 0.0851439710166	 -0.69522984524	 
12.5	 0.180738168412	 -0.952980856223	 
12.5	 0.313144186356	 -0.819047749576	 
12.5	 0.4455502043	 -0.68511464293	 
12.5	 0.56296915841	 -0.540517757755	 
12.5	 0.646103663595	 -0.371526383148	 
12.5	 0.729238168779	 -0.202535008541	 
12.5	 0.812372673964	 -0.0335436339341	 
12.5	 0.931066372186	 0.100347570172	 
12.5	 1.09896340064	 0.185670594493	 
12.5	 1.27330864396	 0.254662999211	 
12.5	 1.45420556554	 0.30706275501	 
12.5	 1.62120244761	 0.390017025866	 
12.5	 1.61603575997	 0.575754933853	 
12.5	 1.59452450279	 0.761546939744	 
12.5	 1.53306641721	 0.93957034933	 
12.5	 1.44371818957	 1.10307909134	 
12.5	 1.29986445552	 1.2104394806	 
12.5	 1.12159826047	 1.2711897427	 
12.5	 0.936344437939	 1.30313099584	 
12.5	 0.750055270427	 1.33080366668	 
12.5	 0.562746754778	 1.34467677646	 
12.5	 0.374413458084	 1.34467677646	 
12.5	 0.189066588433	 1.3758921481	 
12.5	 0.0040274579986	 1.4103241374	 
12.5	 -0.184305838696	 1.4103241374	 
12.5	 -0.37263913539	 1.4103241374	 
12.5	 -0.522912686525	 1.34286435019	 
12.5	 -0.620300020058	 1.18166528719	 
12.5	 -0.717687353591	 1.0204662242	 
12.5	 -0.883374140297	 0.932370110506	 
12.5	 -1.0452020772	 0.836783040337	 
12.5	 -1.20023852209	 0.729857218383	 
12.5	 -1.26430770356	 0.556027604138	 
12.5	 -1.31818996362	 0.3756820705	 
12.5	 -1.35243985925	 0.190489264773	 
12.5	 -1.38668975488	 0.00529645904627	 
12.5	 -1.40701013367	 -0.181602266565	 
12.5	 -1.41846254418	 -0.369587034399	 
12.5	 -1.4299149547	 -0.557571802232	 
12.5	 -1.42065832838	 -0.745042195013	 
12.5	 -1.39988739375	 -0.932226593184	 
12.5	 -1.35758412895	 -1.10883072686	 
12.5	 -1.22209940867	 -1.23964862019	 
12.5	 -1.03803749251	 -1.26448697733	 
12.5	 -0.850471832993	 -1.28121766089	 
12.5	 -0.663267905426	 -1.26825303628	 
12.5	 -0.478490559414	 -1.23211449641	 
12.5	 -0.294837263967	 -1.19039043003	 
12.5	 -0.117057024427	 -1.13154219646	 
12.5	 0.0236630671951	 -1.01947278536	 
13.0	 0.114660375182	 -0.874674979428	 
13.0	 0.265258052943	 -0.766078902542	 
13.0	 0.415855730705	 -0.657482825656	 
13.0	 0.566453408467	 -0.548886748769	 
13.0	 0.704467300909	 -0.426108483132	 
13.0	 0.830214366721	 -0.289505247805	 
13.0	 0.955961432534	 -0.152902012478	 
13.0	 1.08829202803	 -0.0230411631804	 
13.0	 1.22785404415	 0.099413775954	 
13.0	 1.35544093742	 0.234007521679	 
13.0	 1.47702932026	 0.373380478231	 
13.0	 1.52425550766	 0.552942321856	 
13.0	 1.53675021053	 0.734876290999	 
13.0	 1.5143764768	 0.91919173935	 
13.0	 1.48713869154	 1.10183550223	 
