4.0	 -1.25001344558	 -0.782565867164	 
4.0	 -1.11451584787	 -0.792619889685	 
4.0	 -0.967130543379	 -0.79265492956	 
4.0	 -0.815211469598	 -0.788634190371	 
4.0	 -0.661652712122	 -0.774971900872	 
4.0	 -0.512909892643	 -0.765488697191	 
4.0	 -0.380699383147	 -0.802170949147	 
4.0	 -0.272560083385	 -0.901567362132	 
4.0	 -0.183779041874	 -1.00641754142	 
4.0	 -0.106773818478	 -1.06030501457	 
4.0	 -0.029522710032	 -1.07545509025	 
4.0	 0.0595284126637	 -1.08475182644	 
4.0	 0.150773325316	 -1.10089458327	 
4.0	 0.222677362119	 -1.12347676968	 
4.0	 0.287494947914	 -1.13484421917	 
4.0	 0.395532505776	 -1.09829921085	 
4.0	 0.566359667342	 -1.00171666293	 
4.0	 0.751766782908	 -0.8859024128	 
5.0	 0.935154281751	 -0.806817952911	 
5.0	 1.07661966257	 -0.680900928772	 
5.0	 1.20214305974	 -0.545350482002	 
5.0	 1.31429075454	 -0.441054188347	 
5.0	 1.41059219097	 -0.362357092948	 
5.0	 1.48238580182	 -0.246396648474	 
5.0	 1.51928000009	 -0.0372073545339	 
5.0	 1.50215290801	 0.253850343107	 
5.0	 1.40863431563	 0.588610630968	 
5.0	 1.24034933374	 0.926885471513	 
5.0	 1.04389224943	 1.22482697115	 
5.0	 0.866167045321	 1.44205047095	 
5.0	 0.70349995335	 1.58036353892	 
5.0	 0.521096316091	 1.6675379348	 
5.0	 0.298102236702	 1.72315530337	 
5.0	 0.0557874249022	 1.74172104645	 
5.0	 -0.177639633799	 1.71342266586	 
5.0	 -0.388752990583	 1.63343015649	 
5.0	 -0.577928274358	 1.50156537142	 
5.0	 -0.746197789041	 1.32295894174	 
5.0	 -0.895194181295	 1.12678033514	 
5.0	 -1.02680113223	 0.948529319552	 
5.0	 -1.14646243786	 0.790444241303	 
5.0	 -1.26464851515	 0.607799228435	 
5.0	 -1.38894681765	 0.360733799137	 
5.0	 -1.50200006879	 0.0737062783047	 
5.0	 -1.57499146503	 -0.199223345839	 
5.0	 -1.58924824867	 -0.420135537536	 
5.0	 -1.54820776369	 -0.586423047065	 
5.0	 -1.45819921553	 -0.700012793549	 
5.0	 -1.32555180964	 -0.761713500437	 
5.0	 -1.15659497117	 -0.771542713612	 
5.0	 -0.959414883037	 -0.735754000659	 
5.0	 -0.748101155682	 -0.681968783891	 
5.0	 -0.537960650756	 -0.641798976478	 
5.0	 -0.342627311399	 -0.631970545292	 
5.0	 -0.173943258125	 -0.653265479528	 
5.0	 -0.0413959716086	 -0.7044831814	 
5.0	 0.0579861623736	 -0.777824041814	 
5.0	 0.131447067292	 -0.8632014754	 
5.0	 0.187207275423	 -0.948362640099	 
5.0	 0.235067873751	 -1.01753867494	 
5.0	 0.284130739452	 -1.05624792203	 
5.0	 0.33582008546	 -1.06464814771	 
5.0	 0.387476673517	 -1.05071021668	 
5.0	 0.442192032602	 -1.0219631698	 
5.0	 0.517608176412	 -0.984641318157	 
5.0	 0.632125516865	 -0.943933111183	 
5.0	 0.779856652444	 -0.891254800119	 
5.0	 0.935154281751	 -0.806817952911	 
6.0	 -0.205710251538	 -1.10822459317	 
6.0	 0.0673641062964	 -1.05279772672	 
6.0	 0.345711427123	 -0.984094659523	 
6.0	 0.594215499914	 -0.920150075064	 
6.0	 0.794759985467	 -0.870206635589	 
6.0	 0.959831810884	 -0.827679556532	 
6.0	 1.10437937702	 -0.784234239892	 
6.0	 1.23007102978	 -0.729845053501	 
6.0	 1.32708822263	 -0.653023665848	 
6.0	 1.38644416097	 -0.544299974736	 
6.0	 1.40719949234	 -0.407941693737	 
6.0	 1.39169990788	 -0.253815873467	 
6.0	 1.34444418489	 -0.0869274174179	 
6.0	 1.27609660993	 0.101752319856	 
6.0	 1.19830796448	 0.323517575842	 
6.0	 1.11793643603	 0.579593106905	 
6.0	 1.03542957546	 0.857734599209	 
6.0	 0.95105853605	 1.1433738386	 
6.0	 0.868246628033	 1.40585857002	 
6.0	 0.792450811272	 1.60415973784	 
6.0	 0.724536328367	 1.70563700089	 
6.0	 0.643503863784	 1.71811968159	 
6.0	 0.522020601471	 1.6613829984	 
6.0	 0.352321012619	 1.55520391243	 
6.0	 0.167674098918	 1.4193593848	 
6.0	 0.00529020149148	 1.27338603159	 
6.0	 -0.125809990905	 1.1312925336	 
6.0	 -0.244795441879	 1.00155963631	 
6.0	 -0.370399938227	 0.890747632917	 
6.0	 -0.508167596226	 0.792073924036	 
6.0	 -0.657352632259	 0.692393337691	 
6.0	 -0.816402191631	 0.580458688065	 
6.0	 -0.981160496062	 0.451585437487	 
6.0	 -1.14677099653	 0.302518119106	 
6.0	 -1.29937098134	 0.132442866211	 
6.0	 -1.4111381866	 -0.0556697076976	 
6.0	 -1.45516793421	 -0.258021934753	 
6.0	 -1.43489922614	 -0.463632642979	 
6.0	 -1.37645600912	 -0.656150270469	 
6.0	 -1.30421266803	 -0.820444432174	 
6.0	 -1.22969877685	 -0.948941269398	 
6.0	 -1.15996759383	 -1.036710436	 
6.0	 -1.09837464089	 -1.08442845868	 
6.0	 -1.03922206752	 -1.10650967992	 
6.0	 -0.975346907757	 -1.11916964039	 
6.0	 -0.896453406813	 -1.13057903436	 
6.0	 -0.788623976716	 -1.1396078682	 
6.0	 -0.638773521196	 -1.14409068185	 
6.0	 -0.443704153095	 -1.13691593811	 
6.0	 -0.205710251538	 -1.10822459317	 
7.0	 0.616288439443	 -1.21533588307	 
7.0	 0.933106513002	 -1.24159658611	 
7.0	 1.21142010023	 -1.24653516609	 
7.0	 1.43348210282	 -1.20194220905	 
7.0	 1.58287839616	 -1.08818689068	 
7.0	 1.64820447289	 -0.894140556318	 
7.0	 1.64187058234	 -0.639895142728	 
7.0	 1.58570950603	 -0.355067768611	 
7.0	 1.51201364534	 -0.0664762670685	 
7.0	 1.44854636054	 0.203394503324	 
7.0	 1.36780665673	 0.454119825517	 
7.0	 1.22720624939	 0.690006388449	 
7.0	 1.04072015462	 0.882991759719	 
7.0	 0.846612510218	 0.996500709014	 
7.0	 0.66856232243	 1.04914529964	 
7.0	 0.520887765579	 1.08773850624	 
7.0	 0.399983539277	 1.15677410569	 
7.0	 0.291744000615	 1.29268936787	 
7.0	 0.179637617901	 1.4553750765	 
7.0	 0.047034617435	 1.55919817516	 
7.0	 -0.103894686223	 1.56996375691	 
7.0	 -0.257479545034	 1.49256322246	 
7.0	 -0.398810568385	 1.35547749982	 
7.0	 -0.515052806659	 1.20457976309	 
7.0	 -0.616666508036	 1.06889759758	 
7.0	 -0.733439784837	 0.961346300321	 
7.0	 -0.860361207169	 0.881925871316	 
7.0	 -0.958102312564	 0.817997038129	 
7.0	 -1.02027536466	 0.748595617934	 
7.0	 -1.07898875138	 0.644075406797	 
7.0	 -1.17007496983	 0.474334583911	 
7.0	 -1.32981451514	 0.210669752901	 
7.0	 -1.51880632486	 -0.112279035188	 
7.0	 -1.59404795646	 -0.373146135963	 
7.0	 -1.50056216794	 -0.51417003084	 
7.0	 -1.33140692986	 -0.58603275684	 
7.0	 -1.15806887823	 -0.634026198075	 
7.0	 -0.992462001264	 -0.677853762323	 
7.0	 -0.836141930313	 -0.72925157615	 
7.0	 -0.682119296419	 -0.789442049047	 
7.0	 -0.530500921151	 -0.860915209141	 
7.0	 -0.398990134956	 -0.951520545026	 
7.0	 -0.300270186324	 -1.05632072101	 
7.0	 -0.229030230797	 -1.13731408588	 
7.0	 -0.177725717279	 -1.16877466943	 
7.0	 -0.140111765128	 -1.17263942866	 
7.0	 -0.0940553323572	 -1.17355024765	 
7.0	 0.0328501150753	 -1.17911962991	 
7.0	 0.290700363573	 -1.19283790762	 
7.0	 0.616288439443	 -1.21533588307	 
8.0	 -0.50704410422	 -1.0153781212	 
8.0	 -0.312434140311	 -1.07512265845	 
8.0	 -0.106343515186	 -1.12798869499	 
8.0	 0.0959505418357	 -1.14866740401	 
8.0	 0.279728137421	 -1.12375771407	 
8.0	 0.430766896337	 -1.0503186876	 
8.0	 0.545984898862	 -0.938393800836	 
8.0	 0.655353231148	 -0.835553726306	 
8.0	 0.792201459998	 -0.792149143171	 
8.0	 0.955845529348	 -0.80714665404	 
8.0	 1.12267940019	 -0.844890804312	 
8.0	 1.27268517294	 -0.876414021251	 
8.0	 1.39480933989	 -0.889118698556	 
8.0	 1.48028764625	 -0.870614612392	 
8.0	 1.52972373792	 -0.791038146341	 
8.0	 1.54845124762	 -0.611925881754	 
8.0	 1.53461067271	 -0.325466610545	 
8.0	 1.47408207552	 0.0240672141988	 
8.0	 1.35637019547	 0.386295333605	 
8.0	 1.20134527809	 0.704131815841	 
8.0	 1.04010622503	 0.918795978986	 
8.0	 0.8811086344	 1.00702032107	 
8.0	 0.703359297117	 0.991677803637	 
8.0	 0.493583880881	 0.908368669435	 
8.0	 0.283536527873	 0.837520112284	 
8.0	 0.116473317156	 0.869167704629	 
8.0	 -0.000498675276226	 1.01499191935	 
8.0	 -0.0964222421139	 1.20831764306	 
8.0	 -0.196851148432	 1.38757288529	 
8.0	 -0.309908782088	 1.5204955851	 
8.0	 -0.439693192438	 1.58309145556	 
8.0	 -0.586179595833	 1.58072832285	 
8.0	 -0.746158988008	 1.54134052456	 
8.0	 -0.911670942715	 1.47714118474	 
8.0	 -1.06275006618	 1.3584329715	 
8.0	 -1.17965363023	 1.15273465282	 
8.0	 -1.2645786325	 0.867393678735	 
8.0	 -1.33256852053	 0.533281322764	 
8.0	 -1.38711988458	 0.18484416464	 
8.0	 -1.40897869907	 -0.137117254963	 
8.0	 -1.37972925448	 -0.394837804182	 
8.0	 -1.30646987963	 -0.578381294091	 
8.0	 -1.20774999729	 -0.690525676412	 
8.0	 -1.10300718697	 -0.746980213793	 
8.0	 -1.01291588714	 -0.782539683026	 
8.0	 -0.951342549781	 -0.827551250478	 
8.0	 -0.894789359327	 -0.87995223116	 
8.0	 -0.807881163942	 -0.927166757427	 
8.0	 -0.675777022212	 -0.968222538065	 
8.0	 -0.50704410422	 -1.0153781212	 
9.0	 -0.204885235586	 -1.19709566063	 
9.0	 0.0519093580426	 -1.29589886814	 
9.0	 0.292857088596	 -1.36038194406	 
9.0	 0.520809029318	 -1.36864738912	 
9.0	 0.725785488339	 -1.33406963388	 
9.0	 0.906722785949	 -1.27328021796	 
9.0	 1.08496678479	 -1.19676520097	 
9.0	 1.25663322968	 -1.11054941375	 
9.0	 1.37701347337	 -1.01508987202	 
9.0	 1.43048049863	 -0.910386575791	 
9.0	 1.43729176743	 -0.793770964419	 
9.0	 1.41826967542	 -0.618753944254	 
9.0	 1.39276727617	 -0.31331302885	 
9.0	 1.37576645626	 0.086301589024	 
9.0	 1.37270405034	 0.482731096644	 
9.0	 1.33900280415	 0.811877202439	 
9.0	 1.22529937248	 1.03105712207	 
9.0	 1.06853817218	 1.1300724191	 
9.0	 0.918566957732	 1.11807271005	 
9.0	 0.774388260451	 1.03683916623	 
9.0	 0.626178058039	 0.935420280941	 
9.0	 0.470562067514	 0.8627528749	 
9.0	 0.314054555292	 0.856520233518	 
9.0	 0.179110459554	 0.932693302666	 
9.0	 0.0709942932227	 1.06334658947	 
9.0	 -0.0305171658535	 1.1665437245	 
9.0	 -0.143921841047	 1.21040318711	 
9.0	 -0.282735270521	 1.2163369497	 
9.0	 -0.440075250103	 1.19737177415	 
9.0	 -0.594415924207	 1.16083167918	 
9.0	 -0.72685971777	 1.13459025155	 
9.0	 -0.824857502242	 1.14687916513	 
9.0	 -0.906093303594	 1.15646151871	 
9.0	 -0.993922960236	 1.10127549874	 
9.0	 -1.08384346785	 0.948562947881	 
9.0	 -1.17531880016	 0.685017992588	 
9.0	 -1.30507387897	 0.333101750746	 
9.0	 -1.46246554572	 -0.0531297390381	 
9.0	 -1.5133302042	 -0.36461827562	 
9.0	 -1.4098658825	 -0.550399118242	 
9.0	 -1.27443316767	 -0.668027829182	 
9.0	 -1.17777452508	 -0.757959741153	 
9.0	 -1.10780535578	 -0.827012741695	 
9.0	 -1.04986951925	 -0.877497862459	 
9.0	 -0.991784047218	 -0.910180997786	 
9.0	 -0.924246560127	 -0.934099393963	 
9.0	 -0.83701724637	 -0.963865879725	 
9.0	 -0.696969359061	 -1.01419500306	 
9.0	 -0.472588860948	 -1.09584002846	 
9.0	 -0.204885235586	 -1.19709566063	 
10.0	 0.722212610968	 -1.08944252446	 
10.0	 0.904485317545	 -0.99190246202	 
10.0	 1.0661233781	 -0.865146031417	 
10.0	 1.20676286588	 -0.710965440424	 
10.0	 1.32180920584	 -0.520146035891	 
10.0	 1.40403845222	 -0.276557947896	 
10.0	 1.45218595962	 0.02488801732	 
10.0	 1.47429450893	 0.371984557783	 
10.0	 1.47429450893	 0.740993374365	 
10.0	 1.43646432455	 1.06800366172	 
10.0	 1.34242565553	 1.2840661436	 
10.0	 1.20003022123	 1.37841066578	 
10.0	 1.03389766547	 1.37783580668	 
10.0	 0.859649543461	 1.31179464116	 
10.0	 0.678523206107	 1.21288506146	 
10.0	 0.493712110534	 1.11123644724	 
10.0	 0.321183542358	 1.02602204011	 
10.0	 0.177550757156	 0.973405525234	 
10.0	 0.0498124722228	 0.966405770363	 
10.0	 -0.0938476074847	 1.01565766877	 
10.0	 -0.268095729496	 1.1104586967	 
10.0	 -0.460521992055	 1.20708574764	 
10.0	 -0.659580819409	 1.26490980962	 
10.0	 -0.866500464298	 1.2670401698	 
10.0	 -1.08431971498	 1.20252069011	 
10.0	 -1.30000089608	 1.06039523251	 
10.0	 -1.49015261653	 0.830028903717	 
10.0	 -1.63230240027	 0.520061497789	 
10.0	 -1.70567003059	 0.169008574137	 
10.0	 -1.69576212516	 -0.178848809246	 
10.0	 -1.61265035644	 -0.466447433304	 
10.0	 -1.47247487524	 -0.639750543039	 
10.0	 -1.29052970273	 -0.717052183791	 
10.0	 -1.08167214796	 -0.762838020001	 
10.0	 -0.867301103121	 -0.813966664278	 
10.0	 -0.67896901636	 -0.863269285545	 
10.0	 -0.539521388642	 -0.902528780258	 
10.0	 -0.433482235444	 -0.934484182931	 
10.0	 -0.337105337132	 -0.964072518739	 
10.0	 -0.241874808045	 -0.989941178046	 
10.0	 -0.149146275278	 -1.00678116803	 
10.0	 -0.0631685834965	 -1.01530260874	 
10.0	 0.00757877431262	 -1.02565007246	 
10.0	 0.05818278719	 -1.04695367424	 
10.0	 0.0994520792453	 -1.08103943709	 
10.0	 0.146635180788	 -1.12669001234	 
10.0	 0.220903529785	 -1.16853637299	 
10.0	 0.346858573703	 -1.1822653608	 
10.0	 0.525692172609	 -1.15457067848	 
10.0	 0.722212610968	 -1.08944252446	 
11.0	 0.719756435897	 -1.00978004006	 
11.0	 0.896634986579	 -0.913964244683	 
11.0	 1.03904735147	 -0.773783579415	 
11.0	 1.16193951546	 -0.585061721633	 
11.0	 1.27036439159	 -0.359540299708	 
11.0	 1.36297453638	 -0.118990962752	 
11.0	 1.43725235807	 0.12902098349	 
11.0	 1.48903141959	 0.399215364676	 
11.0	 1.51256735664	 0.698986325787	 
11.0	 1.49637144064	 0.998757286897	 
11.0	 1.42844078691	 1.25970898686	 
11.0	 1.30749000529	 1.44302216451	 
11.0	 1.13934324294	 1.51045950531	 
11.0	 0.941641371674	 1.45870049045	 
11.0	 0.750162561735	 1.3385456345	 
11.0	 0.591235149486	 1.20221608641	 
11.0	 0.447147345006	 1.08899324139	 
11.0	 0.291375787217	 1.032184984	 
11.0	 0.122954217308	 1.03326329681	 
11.0	 -0.0427370066072	 1.07309240646	 
11.0	 -0.198552888195	 1.12808635976	 
11.0	 -0.350539193584	 1.1682920231	 
11.0	 -0.504440287073	 1.16459495061	 
11.0	 -0.660256168661	 1.09342630516	 
11.0	 -0.816621665351	 0.937670010421	 
11.0	 -0.972996026802	 0.73910640874	 
11.0	 -1.12933492921	 0.576418103078	 
11.0	 -1.28347537121	 0.463195258055	 
11.0	 -1.42995666082	 0.31115315188	 
11.0	 -1.55800811496	 0.0528202116014	 
11.0	 -1.63675377555	 -0.260968816036	 
11.0	 -1.63305717075	 -0.552678105188	 
11.0	 -1.54593431223	 -0.778199527112	 
11.0	 -1.39520680272	 -0.915419111172	 
11.0	 -1.20476516967	 -0.96825643885	 
11.0	 -1.00427089909	 -0.980425969131	 
11.0	 -0.818616236288	 -0.99167123129	 
11.0	 -0.651630757454	 -1.01215917468	 
11.0	 -0.502162043825	 -1.04384103199	 
11.0	 -0.372355367254	 -1.07911726534	 
11.0	 -0.266421488607	 -1.10436347795	 
11.0	 -0.184883428708	 -1.11406829323	 
11.0	 -0.122493249803	 -1.11545469542	 
11.0	 -0.0723098450312	 -1.11545469542	 
11.0	 -0.0226051372845	 -1.11545469542	 
11.0	 0.0401839558081	 -1.1151808382	 
11.0	 0.137040320502	 -1.11117567633	 
11.0	 0.293237386758	 -1.09789360109	 
11.0	 0.504342774716	 -1.06770084242	 
11.0	 0.719756435897	 -1.00978004006	 
12.0	 0.528748952773	 -1.09929777298	 
12.0	 0.771888961725	 -1.01280629943	 
12.0	 0.993275962262	 -0.890891696788	 
12.0	 1.16997415828	 -0.723451813418	 
12.0	 1.30296063525	 -0.506485147699	 
12.0	 1.40852872219	 -0.240073697616	 
12.0	 1.49654355411	 0.0667791581865	 
12.0	 1.56650801735	 0.391343578537	 
12.0	 1.61171107739	 0.708823373069	 
12.0	 1.60415152127	 0.990880038503	 
12.0	 1.51413966376	 1.20842069011	 
12.0	 1.35423191041	 1.33387760566	 
12.0	 1.16411164537	 1.34127382382	 
12.0	 0.976202679062	 1.24105588775	 
12.0	 0.8109723811	 1.10010135322	 
12.0	 0.67976008566	 0.981286274373	 
12.0	 0.561507029275	 0.912063576262	 
12.0	 0.429317648351	 0.908931253273	 
12.0	 0.28260054904	 0.963984699744	 
12.0	 0.137460499985	 1.05355929749	 
12.0	 -0.00617106621706	 1.15274405896	 
12.0	 -0.173869790666	 1.23510283411	 
12.0	 -0.380677647265	 1.27495385434	 
12.0	 -0.590725313628	 1.25015766398	 
12.0	 -0.759735389648	 1.14326509201	 
12.0	 -0.893647526558	 0.981056680018	 
12.0	 -1.03046520715	 0.818126685768	 
12.0	 -1.18867591729	 0.666250019765	 
12.0	 -1.35568039678	 0.470094442391	 
12.0	 -1.50671724245	 0.194236824548	 
12.0	 -1.57907299384	 -0.0940188884782	 
12.0	 -1.50987134296	 -0.309165198952	 
12.0	 -1.344641045	 -0.452628871794	 
12.0	 -1.1977268144	 -0.581464104288	 
12.0	 -1.1172715386	 -0.7261085481	 
12.0	 -1.04699852205	 -0.874295304823	 
12.0	 -0.938542033287	 -1.00919838813	 
12.0	 -0.811109515905	 -1.1104494988	 
12.0	 -0.698264713385	 -1.15928749808	 
12.0	 -0.604078815248	 -1.16592933479	 
12.0	 -0.513766975346	 -1.15907430333	 
12.0	 -0.422512333661	 -1.15494160493	 
12.0	 -0.341439951235	 -1.14992332831	 
12.0	 -0.278417937493	 -1.14180552789	 
12.0	 -0.222801203212	 -1.14077235329	 
12.0	 -0.158836387687	 -1.15813952631	 
12.0	 -0.065190457843	 -1.18234533119	 
12.0	 0.0827351419351	 -1.18726521023	 
12.0	 0.289542998534	 -1.15833632147	 
12.0	 0.528748952773	 -1.09929777298	 
13.0	 1.01090360841	 -0.720611136886	 
13.0	 1.21362805018	 -0.556860441714	 
13.0	 1.3581964227	 -0.339655215155	 
13.0	 1.46201706658	 -0.0346823125403	 
13.0	 1.53256447015	 0.323398711753	 
13.0	 1.57224794335	 0.677420673762	 
13.0	 1.57072036813	 0.995931720736	 
13.0	 1.511946635	 1.26021227471	 
13.0	 1.39538561175	 1.43822708406	 
13.0	 1.23254807419	 1.48963171011	 
13.0	 1.04411226206	 1.41987946824	 
13.0	 0.859795045534	 1.28315545715	 
13.0	 0.690186102066	 1.13598630775	 
13.0	 0.516740041653	 1.03477766402	 
13.0	 0.329183141359	 1.01517188116	 
13.0	 0.139881956805	 1.06867742063	 
13.0	 -0.0399763491137	 1.17210254447	 
13.0	 -0.211787381541	 1.27429882851	 
13.0	 -0.381315585146	 1.32492333099	 
13.0	 -0.563205247491	 1.30181802609	 
13.0	 -0.770147242823	 1.19649364981	 
13.0	 -0.984348036822	 1.03884263046	 
13.0	 -1.17724668024	 0.869982803456	 
13.0	 -1.34044052917	 0.681216758909	 
13.0	 -1.47723989191	 0.436207289619	 
13.0	 -1.58517771995	 0.134871059805	 
13.0	 -1.65633403122	 -0.191721622089	 
13.0	 -1.66844101171	 -0.503804634773	 
13.0	 -1.58292442692	 -0.752747581941	 
13.0	 -1.39908576856	 -0.91171314821	 
13.0	 -1.1812505829	 -0.991283525864	 
13.0	 -0.980150504863	 -1.01124994649	 
13.0	 -0.798961363428	 -1.00494933561	 
13.0	 -0.636034434367	 -0.999684469426	 
13.0	 -0.49733228736	 -0.99457320822	 
13.0	 -0.387824697578	 -0.983894274807	 
13.0	 -0.298640395348	 -0.968915563561	 
13.0	 -0.217339482197	 -0.953168827439	 
13.0	 -0.138629981499	 -0.940186980872	 
13.0	 -0.0607606040458	 -0.933502938289	 
13.0	 0.0158375844981	 -0.936649614123	 
13.0	 0.0891477342213	 -0.952825418207	 
13.0	 0.15430624196	 -0.978267077042	 
13.0	 0.204032719172	 -1.0027393404	 
13.0	 0.241085886781	 -1.02008334564	 
13.0	 0.281802380671	 -1.02981708096	 
13.0	 0.353904412153	 -1.02274902594	 
13.0	 0.50476701772	 -0.972538879408	 
13.0	 0.749705077991	 -0.864469987763	 
13.0	 1.01090360841	 -0.720611136886	 
14.0	 0.445299669392	 -1.26366465182	 
14.0	 0.660582977542	 -1.28640380361	 
14.0	 0.841287104458	 -1.28571305035	 
14.0	 1.05351883625	 -1.23258580002	 
14.0	 1.26789422119	 -1.14147174484	 
14.0	 1.45110917856	 -1.02778691687	 
14.0	 1.59625705747	 -0.892868205339	 
14.0	 1.69427390089	 -0.717471215929	 
14.0	 1.72841344939	 -0.456039499127	 
14.0	 1.69261080563	 -0.116142331719	 
14.0	 1.59380073755	 0.234056224515	 
14.0	 1.44705883936	 0.534869706201	 
14.0	 1.27299692133	 0.740431129667	 
14.0	 1.08613553669	 0.850663137276	 
14.0	 0.897531065207	 0.893385732632	 
14.0	 0.720444741604	 0.900305037082	 
14.0	 0.563988747669	 0.901760537873	 
14.0	 0.411368295054	 0.913445745546	 
14.0	 0.248280737503	 0.946446346076	 
14.0	 0.0983238327194	 1.01180934662	 
14.0	 -0.0182054386427	 1.10512157796	 
14.0	 -0.110919214296	 1.18289475127	 
14.0	 -0.197611924095	 1.21909949259	 
14.0	 -0.302095684297	 1.23111273449	 
14.0	 -0.430138000573	 1.23651400038	 
14.0	 -0.562600841079	 1.24612505637	 
14.0	 -0.688792705353	 1.2544039003	 
14.0	 -0.80826811421	 1.24159732218	 
14.0	 -0.92102706765	 1.21151938994	 
14.0	 -1.02869214132	 1.17834804554	 
14.0	 -1.14795227917	 1.08639398731	 
14.0	 -1.29323770172	 0.860287909526	 
14.0	 -1.41241700311	 0.542210325998	 
14.0	 -1.44510190087	 0.211689776784	 
14.0	 -1.41144230195	 -0.0921883707057	 
14.0	 -1.34456946196	 -0.345170657371	 
14.0	 -1.24702239598	 -0.534039595188	 
14.0	 -1.12219596495	 -0.65853242044	 
14.0	 -0.989195859376	 -0.742925400118	 
14.0	 -0.86302332556	 -0.812943732908	 
14.0	 -0.748092703332	 -0.890572281071	 
14.0	 -0.643237271147	 -0.98081427602	 
14.0	 -0.542413388419	 -1.0682852699	 
14.0	 -0.453570604522	 -1.13635925628	 
14.0	 -0.394968226542	 -1.1707339534	 
14.0	 -0.352968413758	 -1.18541697978	 
14.0	 -0.289353093849	 -1.20911133024	 
14.0	 -0.141222038667	 -1.23652893749	 
14.0	 0.13904722699	 -1.25073058074	 
14.0	 0.445299669392	 -1.26366465182	 
15.0	 1.02717176483	 -1.09156322662	 
15.0	 1.21774542993	 -0.97510071308	 
15.0	 1.35697124698	 -0.82500027835	 
15.0	 1.4423908782	 -0.646907279329	 
15.0	 1.48574919484	 -0.433816891309	 
15.0	 1.50205503279	 -0.177474316259	 
15.0	 1.48864695338	 0.0996790284363	 
15.0	 1.43385040993	 0.36008376381	 
15.0	 1.33117687092	 0.582935297922	 
15.0	 1.17881184892	 0.760430976813	 
15.0	 0.993098221045	 0.89231730157	 
15.0	 0.809221204437	 0.985947231859	 
15.0	 0.648538945749	 1.0460868668	 
15.0	 0.510395303582	 1.07312896993	 
15.0	 0.388064629279	 1.07281907283	 
15.0	 0.265736346742	 1.06304493226	 
15.0	 0.131099333892	 1.06656893995	 
15.0	 -0.0137650737417	 1.11640847732	 
15.0	 -0.164360487173	 1.22997455275	 
15.0	 -0.317802734433	 1.34455318592	 
15.0	 -0.471666729932	 1.38849519888	 
15.0	 -0.623527421297	 1.38456085313	 
15.0	 -0.771231886087	 1.38871759624	 
15.0	 -0.915479716133	 1.39303900714	 
15.0	 -1.05925703247	 1.35149996151	 
15.0	 -1.21563623667	 1.21958056473	 
15.0	 -1.40461575587	 0.956325724025	 
15.0	 -1.5965967765	 0.580362976277	 
15.0	 -1.70362087315	 0.180630391627	 
15.0	 -1.69133898378	 -0.170311534033	 
15.0	 -1.62084859575	 -0.434268715843	 
15.0	 -1.5281602519	 -0.597011237261	 
15.0	 -1.36715091908	 -0.693998856524	 
15.0	 -1.11038035339	 -0.762845007513	 
15.0	 -0.838426851106	 -0.823070384729	 
15.0	 -0.636801561764	 -0.88677375639	 
15.0	 -0.493466755532	 -0.948107658793	 
15.0	 -0.368662363043	 -0.996343442744	 
15.0	 -0.252903168086	 -1.0280337893	 
15.0	 -0.150283543486	 -1.04351820593	 
15.0	 -0.0567348943508	 -1.04756279175	 
15.0	 0.0372261352694	 -1.04788861241	 
15.0	 0.138795641303	 -1.05227126779	 
15.0	 0.252524691187	 -1.06836988672	 
15.0	 0.367009472988	 -1.09907419706	 
15.0	 0.450102114283	 -1.140865783	 
15.0	 0.505707174612	 -1.18227072983	 
15.0	 0.608383404363	 -1.19765582388	 
15.0	 0.802225618304	 -1.16726018575	 
15.0	 1.02717176483	 -1.09156322662	 
16.0	 0.899995741263	 -1.09204487867	 
16.0	 1.17616366019	 -1.04593699823	 
16.0	 1.40846588603	 -0.954377328898	 
16.0	 1.56337025529	 -0.791118824681	 
16.0	 1.65177822161	 -0.563473670292	 
16.0	 1.70449566859	 -0.294617844904	 
16.0	 1.72278125526	 -0.000981978998578	 
16.0	 1.68178393342	 0.306833988019	 
16.0	 1.57292472653	 0.601402806798	 
16.0	 1.41536614136	 0.827807055607	 
16.0	 1.22470495931	 0.951238349434	 
16.0	 0.997965476879	 1.00587774656	 
16.0	 0.734229565435	 1.03539287718	 
16.0	 0.466375517143	 1.06151555765	 
16.0	 0.237407923083	 1.09762766552	 
16.0	 0.0576526753519	 1.15521016834	 
16.0	 -0.085457569931	 1.24376936098	 
16.0	 -0.205871660532	 1.34862651698	 
16.0	 -0.318673783183	 1.42454330985	 
16.0	 -0.433143527223	 1.44628623026	 
16.0	 -0.544754608118	 1.44023599597	 
16.0	 -0.649515976924	 1.4298908684	 
16.0	 -0.754967639423	 1.39159792238	 
16.0	 -0.870423129376	 1.29253000229	 
16.0	 -0.990825271542	 1.14056105272	 
16.0	 -1.10373985205	 0.964317879184	 
16.0	 -1.2080825504	 0.757044134683	 
16.0	 -1.31400895953	 0.476817324843	 
16.0	 -1.41356033533	 0.123653947132	 
16.0	 -1.46481131554	 -0.223061617928	 
16.0	 -1.43625903584	 -0.492862980797	 
16.0	 -1.3454076145	 -0.67590670608	 
16.0	 -1.21886567381	 -0.778346348736	 
16.0	 -1.07219713697	 -0.825690798884	 
16.0	 -0.916188012676	 -0.850645807722	 
16.0	 -0.760449866671	 -0.869725973606	 
16.0	 -0.613612490297	 -0.886629319953	 
16.0	 -0.480893004893	 -0.903387573199	 
16.0	 -0.362662151399	 -0.92014725411	 
16.0	 -0.257864665732	 -0.937730274921	 
16.0	 -0.162628915412	 -0.959152129254	 
16.0	 -0.0742469505127	 -0.986098942773	 
16.0	 0.00141726278883	 -1.0113549775	 
16.0	 0.0570655387458	 -1.02621507033	 
16.0	 0.100531706028	 -1.03768852943	 
16.0	 0.149364621647	 -1.06188661124	 
16.0	 0.231017988141	 -1.09681185331	 
16.0	 0.383771061987	 -1.11997297418	 
16.0	 0.620443428038	 -1.11691121363	 
16.0	 0.899995741263	 -1.09204487867	 
17.0	 0.635655296384	 -1.2024149369	 
17.0	 0.963055537543	 -1.2328207716	 
17.0	 1.23535808512	 -1.21224722253	 
17.0	 1.39489243979	 -1.08653197896	 
17.0	 1.4862502788	 -0.895319284262	 
17.0	 1.55923852958	 -0.678989709695	 
17.0	 1.60865215881	 -0.414732296725	 
17.0	 1.62071592302	 -0.0919634935323	 
17.0	 1.58793576608	 0.230860334092	 
17.0	 1.50555841798	 0.504015799514	 
17.0	 1.37299369224	 0.729555518231	 
17.0	 1.19933938582	 0.904678563967	 
17.0	 1.01382257726	 0.998187695938	 
17.0	 0.838519562098	 1.00144133788	 
17.0	 0.675738908447	 0.9585133611	 
17.0	 0.522227039092	 0.916369160067	 
17.0	 0.369181386984	 0.91568898501	 
17.0	 0.221097442693	 0.980137156773	 
17.0	 0.104268608288	 1.10646443967	 
17.0	 0.0208917839015	 1.25971607979	 
17.0	 -0.0644669079938	 1.36388098315	 
17.0	 -0.187523795215	 1.38978115514	 
17.0	 -0.378815765696	 1.3730790907	 
17.0	 -0.614980906946	 1.3449059368	 
17.0	 -0.812129364255	 1.32507349805	 
17.0	 -0.939604449215	 1.30929964848	 
17.0	 -1.02688821786	 1.26747662033	 
17.0	 -1.11261423865	 1.14602926299	 
17.0	 -1.23783163482	 0.876716426617	 
17.0	 -1.38105402394	 0.504760133917	 
17.0	 -1.47081724552	 0.166576160928	 
17.0	 -1.48914781147	 -0.0959626520401	 
17.0	 -1.45918026623	 -0.314644628536	 
17.0	 -1.38719063749	 -0.503431089697	 
17.0	 -1.26920353821	 -0.662332245134	 
17.0	 -1.12517558828	 -0.7881589884	 
17.0	 -0.986729534027	 -0.876527957191	 
17.0	 -0.85308161518	 -0.929065811271	 
17.0	 -0.707788482043	 -0.952247593639	 
17.0	 -0.555913361889	 -0.96499751752	 
17.0	 -0.413392314675	 -0.988588436631	 
17.0	 -0.296242588584	 -1.01574600287	 
17.0	 -0.217000486542	 -1.0298635848	 
17.0	 -0.165540271577	 -1.03695254785	 
17.0	 -0.123756832253	 -1.05095739417	 
17.0	 -0.0797978149575	 -1.07926622843	 
17.0	 -0.0182296314863	 -1.12299684187	 
17.0	 0.106001853935	 -1.16329928274	 
17.0	 0.332708054118	 -1.18315907251	 
17.0	 0.635655296384	 -1.2024149369	 
18.0	 1.05229085714	 -1.37598182025	 
18.0	 1.37659739014	 -1.27349573088	 
18.0	 1.60721371547	 -1.13033707501	 
18.0	 1.70380616151	 -0.931875433005	 
18.0	 1.71238884931	 -0.600569580952	 
18.0	 1.6639189881	 -0.185577728732	 
18.0	 1.56425066551	 0.147611789846	 
18.0	 1.4181465291	 0.386672846263	 
18.0	 1.23433809943	 0.581257427067	 
18.0	 1.03740758349	 0.70230586131	 
18.0	 0.852904601043	 0.725202467999	 
18.0	 0.699755715106	 0.67348393468	 
18.0	 0.577960925674	 0.59630847124	 
18.0	 0.469598290718	 0.56055538332	 
18.0	 0.358866734706	 0.612493372933	 
18.0	 0.236228559767	 0.762747782321	 
18.0	 0.111134644674	 0.923920142343	 
18.0	 -0.0112058647914	 1.0305027492	 
18.0	 -0.142377116627	 1.10636147487	 
18.0	 -0.279997787048	 1.16554152219	 
18.0	 -0.408390827801	 1.20288566824	 
18.0	 -0.534501766594	 1.22095423646	 
18.0	 -0.672519324312	 1.22673325221	 
18.0	 -0.81765604793	 1.22720874084	 
18.0	 -0.957360376663	 1.22494102581	 
18.0	 -1.07384679849	 1.213895059	 
18.0	 -1.16235266584	 1.18704823902	 
18.0	 -1.23180794291	 1.13885929443	 
18.0	 -1.29173792484	 1.07668001109	 
18.0	 -1.35087413217	 0.977046853549	 
18.0	 -1.41466136252	 0.668363287816	 
18.0	 -1.47424406806	 0.138522641664	 
18.0	 -1.49503104027	 -0.255255102122	 
18.0	 -1.45082771751	 -0.414653523766	 
18.0	 -1.32986391086	 -0.527911259567	 
18.0	 -1.14709731034	 -0.654610693384	 
18.0	 -0.926229529263	 -0.784821427907	 
18.0	 -0.672221658839	 -0.921890171622	 
18.0	 -0.409283824221	 -1.05275927503	 
18.0	 -0.20558141876	 -1.12803278392	 
18.0	 -0.0730210613828	 -1.14771069829	 
18.0	 0.0350935190119	 -1.1606951957	 
18.0	 0.141905812962	 -1.17525246321	 
18.0	 0.251496317994	 -1.18337234609	 
18.0	 0.345670232063	 -1.20023390469	 
18.0	 0.408179981425	 -1.24244266526	 
18.0	 0.440129408876	 -1.31654574058	 
18.0	 0.508195580404	 -1.394452725	 
18.0	 0.72520611306	 -1.41936101439	 
18.0	 1.05229085714	 -1.37598182025	 
19.0	 1.15753281738	 -1.2238188458	 
19.0	 1.36364805618	 -1.12785078384	 
19.0	 1.50302086359	 -0.947080989717	 
19.0	 1.62040580259	 -0.72193103686	 
19.0	 1.69552836177	 -0.463716370442	 
19.0	 1.700968605	 -0.177299448341	 
19.0	 1.63223552234	 0.1324418673	 
19.0	 1.49889489161	 0.44816709217	 
19.0	 1.3372501927	 0.717668106814	 
19.0	 1.17202341157	 0.907695553938	 
19.0	 0.987434478425	 1.047477603	 
19.0	 0.775736850275	 1.16210453666	 
19.0	 0.560924052051	 1.24605675205	 
19.0	 0.359617389404	 1.29716701928	 
19.0	 0.165227506503	 1.32819058972	 
19.0	 -0.0220975291779	 1.34877629138	 
19.0	 -0.185440007887	 1.35983157561	 
19.0	 -0.322078596824	 1.3613564424	 
19.0	 -0.454785070812	 1.3534265127	 
19.0	 -0.601299871253	 1.33989202328	 
19.0	 -0.76832072147	 1.32974180455	 
19.0	 -0.944715645714	 1.32029177975	 
19.0	 -1.09798183174	 1.29245206892	 
19.0	 -1.21638954993	 1.20464515626	 
19.0	 -1.31365097202	 0.993984083086	 
19.0	 -1.39023913341	 0.691443250667	 
19.0	 -1.43141820839	 0.422688072228	 
19.0	 -1.42791502146	 0.198659726321	 
19.0	 -1.37745072639	 -0.0764455368397	 
19.0	 -1.29749647759	 -0.385066386588	 
19.0	 -1.21971227016	 -0.614662570928	 
19.0	 -1.13891692006	 -0.735884294116	 
19.0	 -1.02432470654	 -0.78549474594	 
19.0	 -0.885063563736	 -0.796518910438	 
19.0	 -0.754617196239	 -0.796678243458	 
19.0	 -0.624910123143	 -0.796678243458	 
19.0	 -0.466548410844	 -0.797585694796	 
19.0	 -0.296994163501	 -0.809049425486	 
19.0	 -0.156424468937	 -0.843468936509	 
19.0	 -0.0542188851576	 -0.895326077271	 
19.0	 0.0171603358525	 -0.950100692758	 
19.0	 0.0753132388669	 -0.993205409341	 
19.0	 0.139493507465	 -1.01341518466	 
19.0	 0.210719648038	 -1.0213948022	 
19.0	 0.283061021651	 -1.03436177147	 
19.0	 0.352627669353	 -1.05685355662	 
19.0	 0.428135621153	 -1.09013787175	 
19.0	 0.578719669699	 -1.14190035666	 
19.0	 0.857340397797	 -1.20824212408	 
19.0	 1.15753281738	 -1.2238188458	 
20.0	 1.09246184864	 -1.05909934449	 
20.0	 1.33034758912	 -0.943096922937	 
20.0	 1.51606511147	 -0.774940582045	 
20.0	 1.64255636263	 -0.55113541719	 
20.0	 1.70276328957	 -0.274012018784	 
20.0	 1.69073618104	 0.0477398683885	 
20.0	 1.61052995468	 0.367360306412	 
20.0	 1.47221408143	 0.620588102237	 
20.0	 1.29613633852	 0.781899452742	 
20.0	 1.11012651122	 0.855952779709	 
20.0	 0.93672685544	 0.871038833924	 
20.0	 0.792338096789	 0.879420424775	 
20.0	 0.674306576707	 0.919216978898	 
20.0	 0.552035248848	 1.00564955945	 
20.0	 0.402321802373	 1.14023950022	 
20.0	 0.222538006356	 1.29934809577	 
20.0	 0.0187172673094	 1.45325038581	 
20.0	 -0.184489727995	 1.5633667361	 
20.0	 -0.365027651483	 1.59855397933	 
20.0	 -0.528995074014	 1.56932809845	 
20.0	 -0.688518075293	 1.49722663789	 
20.0	 -0.842191947877	 1.39806734884	 
20.0	 -0.983769229074	 1.28252329554	 
20.0	 -1.11528606306	 1.13230297293	 
20.0	 -1.24260131128	 0.914524590287	 
20.0	 -1.35211380137	 0.642510256604	 
20.0	 -1.41439883291	 0.367763493893	 
20.0	 -1.42010116457	 0.111684139892	 
20.0	 -1.38426244888	 -0.141223791412	 
20.0	 -1.32251449145	 -0.389755887781	 
20.0	 -1.24908683977	 -0.601161750035	 
20.0	 -1.17244225433	 -0.752779556263	 
20.0	 -1.08751235395	 -0.8534110069	 
20.0	 -0.990357015959	 -0.915636397467	 
20.0	 -0.887984856156	 -0.949060369892	 
20.0	 -0.785031244735	 -0.9626347163	 
20.0	 -0.661308511541	 -0.965311228816	 
20.0	 -0.494603026188	 -0.964968985428	 
20.0	 -0.309716429853	 -0.961100874874	 
20.0	 -0.151398131098	 -0.950081704604	 
20.0	 -0.0378599860993	 -0.938409684531	 
20.0	 0.0315147138304	 -0.938963147638	 
20.0	 0.0773757514033	 -0.955926145035	 
20.0	 0.138331713846	 -0.985193901982	 
20.0	 0.22678271274	 -1.02416550362	 
20.0	 0.319575938945	 -1.0725932496	 
20.0	 0.418376080516	 -1.12174349578	 
20.0	 0.576251474406	 -1.14657815241	 
20.0	 0.820445136688	 -1.12667776009	 
20.0	 1.09246184864	 -1.05909934449	 
21.0	 1.38778460084	 -0.958321319207	 
21.0	 1.56770042568	 -0.544751985221	 
21.0	 1.65489832174	 -0.100696965445	 
21.0	 1.68664833158	 0.217646497496	 
21.0	 1.64085012874	 0.525064927057	 
21.0	 1.50913331948	 0.879206857536	 
21.0	 1.3323719618	 1.1241693507	 
21.0	 1.13682392676	 1.16542891441	 
21.0	 0.918945267566	 1.04142604055	 
21.0	 0.705761629283	 0.844740959968	 
21.0	 0.556131761763	 0.710001787194	 
21.0	 0.452365516674	 0.677698555513	 
21.0	 0.320868268686	 0.710049826347	 
21.0	 0.173713125974	 0.774941683607	 
21.0	 0.0657947217698	 0.846865272015	 
21.0	 -0.0187337441968	 0.913313365412	 
21.0	 -0.118952970035	 0.971022981755	 
21.0	 -0.233169917396	 1.03475776692	 
21.0	 -0.350903366373	 1.11731886404	 
21.0	 -0.476202427275	 1.20434037078	 
21.0	 -0.618199191944	 1.27885671755	 
21.0	 -0.790566838583	 1.33250650884	 
21.0	 -0.992201346835	 1.34044885314	 
21.0	 -1.19341578881	 1.24623567846	 
21.0	 -1.36144499447	 1.04496079248	 
21.0	 -1.46473731863	 0.80410764861	 
21.0	 -1.49965218682	 0.547508316111	 
21.0	 -1.49003588643	 0.253227691173	 
21.0	 -1.45497202036	 -0.0580866879394	 
21.0	 -1.40770572591	 -0.337165116014	 
21.0	 -1.34818646256	 -0.575086257281	 
21.0	 -1.26993931317	 -0.781809325681	 
21.0	 -1.17111333479	 -0.945561629215	 
21.0	 -1.051164699	 -1.04896300234	 
21.0	 -0.907129466721	 -1.08820543814	 
21.0	 -0.727797067266	 -1.07461565223	 
21.0	 -0.478113611484	 -1.05544544709	 
21.0	 -0.169823556085	 -1.06617457886	 
21.0	 0.0689572671395	 -1.09913137548	 
21.0	 0.181266655124	 -1.1382588789	 
21.0	 0.25378774321	 -1.16402181223	 
21.0	 0.333689197028	 -1.17406935623	 
21.0	 0.404225741203	 -1.18663559823	 
21.0	 0.466656746049	 -1.20414367448	 
21.0	 0.540074514083	 -1.21448481261	 
21.0	 0.619491276037	 -1.21658665473	 
21.0	 0.69303180506	 -1.2155675015	 
21.0	 0.827462888759	 -1.20403087286	 
21.0	 1.09575775264	 -1.15425933929	 
21.0	 1.38778460084	 -0.958321319207	 
22.0	 0.978986546821	 -1.17504074611	 
22.0	 1.14765036753	 -1.01920985039	 
22.0	 1.29909850241	 -0.780513805242	 
22.0	 1.43096949441	 -0.501688663436	 
22.0	 1.5268786692	 -0.163109619988	 
22.0	 1.56691661952	 0.266312669488	 
22.0	 1.54589304734	 0.714211180565	 
22.0	 1.46632858663	 1.05932351212	 
22.0	 1.32935160797	 1.26668766124	 
22.0	 1.13611856115	 1.36635997653	 
22.0	 0.916596077476	 1.38255762749	 
22.0	 0.730590638845	 1.33162987808	 
22.0	 0.602523622017	 1.22954794425	 
22.0	 0.501865778547	 1.09236508362	 
22.0	 0.394396312299	 0.950214217014	 
22.0	 0.247587333541	 0.863143137577	 
22.0	 0.0498386274299	 0.876833230476	 
22.0	 -0.146504716572	 0.980795413529	 
22.0	 -0.298797736488	 1.14596957924	 
22.0	 -0.464677989738	 1.30790247913	 
22.0	 -0.71414171906	 1.39906528657	 
22.0	 -1.00702054053	 1.3995584117	 
22.0	 -1.2619551754	 1.30871910368	 
22.0	 -1.44654558471	 1.11968780378	 
22.0	 -1.55827327454	 0.824110117625	 
22.0	 -1.60479279712	 0.452243450595	 
22.0	 -1.60197063459	 0.0668058516335	 
22.0	 -1.5647531495	 -0.273121738089	 
22.0	 -1.50648696484	 -0.514456753818	 
22.0	 -1.4253077841	 -0.639947035665	 
22.0	 -1.29408194953	 -0.691793505926	 
22.0	 -1.10691249707	 -0.706538618237	 
22.0	 -0.914705909202	 -0.693508286215	 
22.0	 -0.759382844746	 -0.6660895226	 
22.0	 -0.621978147187	 -0.66598385293	 
22.0	 -0.476660982004	 -0.72962368561	 
22.0	 -0.331349425281	 -0.833760307484	 
22.0	 -0.202741265818	 -0.937089639327	 
22.0	 -0.0907171024439	 -1.00827241959	 
22.0	 0.0121351249634	 -1.02386223294	 
22.0	 0.105640926869	 -0.99966220104	 
22.0	 0.184698818151	 -0.976516678072	 
22.0	 0.248093718481	 -0.969529061432	 
22.0	 0.298533296616	 -0.969341495943	 
22.0	 0.345481386751	 -0.978687391267	 
22.0	 0.407153899366	 -1.01750352951	 
22.0	 0.498902149986	 -1.08977152052	 
22.0	 0.629518138281	 -1.16712390729	 
22.0	 0.798045326567	 -1.21251490141	 
22.0	 0.978986546821	 -1.17504074611	 
23.0	 0.610371459332	 -1.09972125231	 
23.0	 0.796372552851	 -1.02482906125	 
23.0	 0.97478956703	 -0.963844024584	 
23.0	 1.15110335337	 -0.918386931713	 
23.0	 1.32076516941	 -0.830433480352	 
23.0	 1.46669298597	 -0.611944989062	 
23.0	 1.56714321146	 -0.219339951866	 
23.0	 1.60599905965	 0.220812441971	 
23.0	 1.58247616772	 0.631736432376	 
23.0	 1.51071898265	 1.01033942253	 
23.0	 1.40064946168	 1.25467531403	 
23.0	 1.26346420006	 1.27823095459	 
23.0	 1.11730149124	 1.12597227445	 
23.0	 0.973149390343	 0.908909693424	 
23.0	 0.83354942281	 0.759307324519	 
23.0	 0.69299801813	 0.714942468511	 
23.0	 0.540880701114	 0.787329745952	 
23.0	 0.362338611292	 0.985435329732	 
23.0	 0.146569829552	 1.23080443246	 
23.0	 -0.0991703848539	 1.41798764759	 
23.0	 -0.313782168453	 1.54717407774	 
23.0	 -0.464436797999	 1.60408287949	 
23.0	 -0.570556021312	 1.53424788322	 
23.0	 -0.65024490106	 1.36401174785	 
23.0	 -0.723004338278	 1.14882076266	 
23.0	 -0.818521535833	 0.912467983616	 
23.0	 -0.968186507986	 0.70174330668	 
23.0	 -1.18636115509	 0.574434669015	 
23.0	 -1.38574374387	 0.484404029849	 
23.0	 -1.49372103319	 0.333612956022	 
23.0	 -1.54299899585	 0.0120415976603	 
23.0	 -1.55811415966	 -0.378143598451	 
23.0	 -1.54024394081	 -0.620205952625	 
23.0	 -1.45924462485	 -0.71957960452	 
23.0	 -1.30247330224	 -0.741117135422	 
23.0	 -1.10052390162	 -0.744789433318	 
23.0	 -0.915258002924	 -0.790138872669	 
23.0	 -0.79162930371	 -0.902325919195	 
23.0	 -0.667562016241	 -0.99577332356	 
23.0	 -0.520312331297	 -1.02498156165	 
23.0	 -0.393162718817	 -1.02031958656	 
23.0	 -0.279275096713	 -1.02185509336	 
23.0	 -0.159727099353	 -1.05425827788	 
23.0	 -0.0455731465412	 -1.09878671473	 
23.0	 0.0495516758361	 -1.13438484568	 
23.0	 0.118577009274	 -1.14906222163	 
23.0	 0.180334149612	 -1.15873769994	 
23.0	 0.267450158629	 -1.16931977843	 
23.0	 0.417569196057	 -1.15249458346	 
23.0	 0.610371459332	 -1.09972125231	 
24.0	 0.763272966119	 -1.04058490033	 
24.0	 0.9766336499	 -0.930657312445	 
24.0	 1.16842574141	 -0.793988096604	 
24.0	 1.31732349224	 -0.63194839952	 
24.0	 1.41945850289	 -0.431330018272	 
24.0	 1.47883334525	 -0.173395389488	 
24.0	 1.51204457297	 0.167786339102	 
24.0	 1.52704734604	 0.582540978635	 
24.0	 1.50066445423	 0.957499981376	 
24.0	 1.41719673623	 1.1979211889	 
24.0	 1.29314263595	 1.30070458684	 
24.0	 1.14455473883	 1.27992228587	 
24.0	 0.975464273451	 1.15681075229	 
24.0	 0.790482244766	 0.987357990038	 
24.0	 0.598654905013	 0.894238727374	 
24.0	 0.4119492753	 0.932905614301	 
24.0	 0.246308913275	 1.02492669705	 
24.0	 0.0974232511933	 1.12741491675	 
24.0	 -0.0716369795912	 1.27592148105	 
24.0	 -0.269315375391	 1.45787694103	 
24.0	 -0.459333322178	 1.58180503696	 
24.0	 -0.630559627633	 1.58636130292	 
24.0	 -0.807949031545	 1.45890796059	 
24.0	 -0.982130717871	 1.23586573671	 
24.0	 -1.1034869149	 1.00370759075	 
24.0	 -1.19120096485	 0.759912291465	 
24.0	 -1.33442967801	 0.411792880787	 
24.0	 -1.51918011173	 0.00480347450849	 
24.0	 -1.6343474549	 -0.288757179368	 
24.0	 -1.63864468685	 -0.443825117352	 
24.0	 -1.55449999893	 -0.560863285777	 
24.0	 -1.41537059309	 -0.670741190192	 
24.0	 -1.25997136065	 -0.749675882178	 
24.0	 -1.10580227925	 -0.800060760348	 
24.0	 -0.955296063175	 -0.842282820646	 
24.0	 -0.807817785912	 -0.884385173019	 
24.0	 -0.660859146682	 -0.926146638375	 
24.0	 -0.510456028546	 -0.963942603395	 
24.0	 -0.354463709379	 -0.992313322933	 
24.0	 -0.212774033871	 -1.0057790031	 
24.0	 -0.110620928272	 -1.00026267726	 
24.0	 -0.0311883072487	 -0.982055148781	 
24.0	 0.0558028864517	 -0.962635402217	 
24.0	 0.145428867413	 -0.957028477114	 
24.0	 0.220807533008	 -0.979180463522	 
24.0	 0.277485948211	 -1.02872510663	 
24.0	 0.322890218466	 -1.09449952562	 
24.0	 0.402275120745	 -1.13637830241	 
24.0	 0.557769968826	 -1.11555140322	 
24.0	 0.763272966119	 -1.04058490033	 
25.0	 0.986466490921	 -0.835034025368	 
25.0	 1.18243583052	 -0.633936462891	 
25.0	 1.33812521224	 -0.37412398444	 
25.0	 1.46190623731	 -0.0781590497664	 
25.0	 1.54791528973	 0.189312564009	 
25.0	 1.58342571309	 0.455487672673	 
25.0	 1.55755303004	 0.784021744899	 
25.0	 1.48827451454	 1.07400326656	 
25.0	 1.38891129607	 1.22054329188	 
25.0	 1.24738349149	 1.21489685665	 
25.0	 1.07773068264	 1.10223080729	 
25.0	 0.91023041636	 0.968378490467	 
25.0	 0.719181190519	 0.919994678048	 
25.0	 0.495078218412	 1.00245251769	 
25.0	 0.315445145901	 1.09999612894	 
25.0	 0.181081978541	 1.18660759742	 
25.0	 0.00947124740272	 1.33989947011	 
25.0	 -0.203618861658	 1.52339762544	 
25.0	 -0.422360848359	 1.64762737748	 
25.0	 -0.605359425684	 1.6290064641	 
25.0	 -0.755780794929	 1.42685312469	 
25.0	 -0.926876898968	 1.06900120369	 
25.0	 -1.1065355102	 0.737781465375	 
25.0	 -1.25448412242	 0.609077877478	 
25.0	 -1.36599569642	 0.536809891966	 
25.0	 -1.44444618784	 0.3996842552	 
25.0	 -1.49352802937	 0.21937567015	 
25.0	 -1.52077050594	 -0.0222673514054	 
25.0	 -1.52865878634	 -0.347100657526	 
25.0	 -1.48623641373	 -0.641297995266	 
25.0	 -1.37338877484	 -0.813826143406	 
25.0	 -1.20720590964	 -0.884874446409	 
25.0	 -1.01937673096	 -0.906438576914	 
25.0	 -0.844902248929	 -0.935677363512	 
25.0	 -0.690229686568	 -0.970211753439	 
25.0	 -0.55588792836	 -0.998190597276	 
25.0	 -0.449558407235	 -1.03098535891	 
25.0	 -0.351931337175	 -1.06820187327	 
25.0	 -0.225430427024	 -1.09660873619	 
25.0	 -0.089664867944	 -1.11215419341	 
25.0	 0.0280486697122	 -1.11668693528	 
25.0	 0.143372157032	 -1.11667141451	 
25.0	 0.25657973728	 -1.10918279932	 
25.0	 0.344537714619	 -1.08294551085	 
25.0	 0.403472679913	 -1.05418521188	 
25.0	 0.443491067789	 -1.04552904939	 
25.0	 0.486322590522	 -1.05399599391	 
25.0	 0.572211424099	 -1.05008705157	 
25.0	 0.754273535595	 -0.979539527767	 
25.0	 0.986466490921	 -0.835034025368	 
26.0	 0.329054218313	 -1.24969480791	 
26.0	 0.512108966185	 -0.914776326041	 
26.0	 0.618142120352	 -0.552403792205	 
26.0	 0.688864916579	 -0.289695722527	 
26.0	 0.757022314396	 -0.168694445447	 
26.0	 0.838191824171	 -0.149143044434	 
26.0	 0.933286109536	 -0.148061031315	 
26.0	 1.02982356767	 -0.139511929633	 
26.0	 1.12051970623	 -0.112989670454	 
26.0	 1.21536814091	 -0.0541866694133	 
26.0	 1.30618274532	 0.0313435709957	 
26.0	 1.37124913762	 0.12616969306	 
26.0	 1.41408829537	 0.248604026193	 
26.0	 1.43913197608	 0.424254104798	 
26.0	 1.4299651703	 0.661892774612	 
26.0	 1.37636727085	 0.930534164623	 
26.0	 1.27566970963	 1.16530234592	 
26.0	 1.10899381871	 1.33970739007	 
26.0	 0.877258162315	 1.44028510196	 
26.0	 0.660444300995	 1.43874985669	 
26.0	 0.497001574608	 1.33446143991	 
26.0	 0.353597959521	 1.17566618147	 
26.0	 0.180465770548	 1.11407064675	 
26.0	 -0.0505985793665	 1.27008682898	 
26.0	 -0.267428644636	 1.45214528742	 
26.0	 -0.442735067767	 1.49466371476	 
26.0	 -0.644287758852	 1.38213243572	 
26.0	 -0.865225911157	 1.16563763377	 
26.0	 -1.05540583524	 0.928977639051	 
26.0	 -1.21662344616	 0.739924635113	 
26.0	 -1.35545094333	 0.595346752243	 
26.0	 -1.46105342193	 0.379346266011	 
26.0	 -1.52951944371	 0.0823518543428	 
26.0	 -1.56317615909	 -0.223686850005	 
26.0	 -1.56017640859	 -0.537550578698	 
26.0	 -1.5152837747	 -0.843963739783	 
26.0	 -1.41985347298	 -1.04549170563	 
26.0	 -1.28095687073	 -1.10397139925	 
26.0	 -1.11870833458	 -1.05477166809	 
26.0	 -0.936875033169	 -0.976890246743	 
26.0	 -0.743515730769	 -0.950691623218	 
26.0	 -0.576090985891	 -1.01311183804	 
26.0	 -0.454796434542	 -1.13709284982	 
26.0	 -0.37341783935	 -1.23947714452	 
26.0	 -0.316172462615	 -1.31234691786	 
26.0	 -0.267894337978	 -1.37928079973	 
26.0	 -0.227690137613	 -1.43736612393	 
26.0	 -0.149854783375	 -1.46546690015	 
26.0	 0.0607415725507	 -1.42308260984	 
26.0	 0.329054218313	 -1.24969480791	 
27.0	 0.432363366663	 -1.2466401113	 
27.0	 0.620419730145	 -1.26411517367	 
27.0	 0.804141623785	 -1.25670210989	 
27.0	 0.987519511883	 -1.21305399029	 
27.0	 1.18851048378	 -1.07483494492	 
27.0	 1.37629164283	 -0.872408883053	 
27.0	 1.47992904607	 -0.71096223781	 
27.0	 1.51790725801	 -0.527908982642	 
27.0	 1.5426756571	 -0.213911368701	 
27.0	 1.55425717705	 0.174177346791	 
27.0	 1.54223991675	 0.547321325684	 
27.0	 1.50095925159	 0.837280844777	 
27.0	 1.41060046231	 1.02887394943	 
27.0	 1.24029478485	 1.15570652882	 
27.0	 0.990867832501	 1.23501642728	 
27.0	 0.694472656691	 1.26308722883	 
27.0	 0.441651516322	 1.19121016233	 
27.0	 0.282124679203	 1.03583234531	 
27.0	 0.158924827419	 0.957629464374	 
27.0	 0.0280192514737	 1.03251129273	 
27.0	 -0.128067530216	 1.2270696229	 
27.0	 -0.314931341149	 1.43843089766	 
27.0	 -0.537755198173	 1.56186335179	 
27.0	 -0.821697373327	 1.61855846365	 
27.0	 -1.13322879303	 1.62306560643	 
27.0	 -1.32137689132	 1.51718728735	 
27.0	 -1.37073021988	 1.27055959713	 
27.0	 -1.40360568294	 0.895063205993	 
27.0	 -1.44373966295	 0.455260957507	 
27.0	 -1.46515974142	 0.0394968038689	 
27.0	 -1.45903644276	 -0.27418451935	 
27.0	 -1.41816858426	 -0.458107574002	 
27.0	 -1.33106638078	 -0.575293286382	 
27.0	 -1.21093964518	 -0.648514588449	 
27.0	 -1.08981529351	 -0.653357790125	 
27.0	 -0.944232147728	 -0.5957138061	 
27.0	 -0.745809750552	 -0.510868820011	 
27.0	 -0.562443329305	 -0.484339935731	 
27.0	 -0.44323394182	 -0.552105222849	 
27.0	 -0.354755716172	 -0.632047702752	 
27.0	 -0.277193933087	 -0.690007977499	 
27.0	 -0.212704360635	 -0.750459041678	 
27.0	 -0.153673009464	 -0.812689241167	 
27.0	 -0.0906053265886	 -0.865430719006	 
27.0	 -0.0286269945995	 -0.912498732025	 
27.0	 0.0248544004785	 -0.963895974297	 
27.0	 0.0665020048789	 -1.03347993306	 
27.0	 0.124937079775	 -1.11745511967	 
27.0	 0.252379666589	 -1.19437306955	 
27.0	 0.432363366663	 -1.2466401113	 
28.0	 1.05605572664	 -1.21271595464	 
28.0	 1.27345402567	 -1.08925841288	 
28.0	 1.44327544964	 -0.864298878657	 
28.0	 1.5643857219	 -0.568542249614	 
28.0	 1.64295142095	 -0.235550373547	 
28.0	 1.68156897997	 0.101960409812	 
28.0	 1.65384916003	 0.419780691767	 
28.0	 1.53085586148	 0.695947619425	 
28.0	 1.32302154365	 0.905698264564	 
28.0	 1.05661836438	 1.02905718184	 
28.0	 0.76849806987	 1.08461549981	 
28.0	 0.49845836188	 1.10492142003	 
28.0	 0.275970709626	 1.10908353877	 
28.0	 0.121131426611	 1.11425262172	 
28.0	 0.0136974674329	 1.17435719662	 
28.0	 -0.0873319124089	 1.34879131738	 
28.0	 -0.223129008647	 1.56184629693	 
28.0	 -0.428766517648	 1.66955375814	 
28.0	 -0.668409293124	 1.64045995144	 
28.0	 -0.864607612536	 1.5164835434	 
28.0	 -0.99525102384	 1.34313651924	 
28.0	 -1.07984113622	 1.16621995198	 
28.0	 -1.15765629862	 1.00883517531	 
28.0	 -1.27960020266	 0.873748129287	 
28.0	 -1.42912139747	 0.724172919495	 
28.0	 -1.53089416599	 0.491534350791	 
28.0	 -1.55609790119	 0.180128803809	 
28.0	 -1.52422299392	 -0.132599989455	 
28.0	 -1.44693439849	 -0.393217245235	 
28.0	 -1.32501230238	 -0.579062228496	 
28.0	 -1.16566503421	 -0.683696998504	 
28.0	 -0.984840802653	 -0.719100181887	 
28.0	 -0.800125396016	 -0.708650131075	 
28.0	 -0.630434488655	 -0.689726662904	 
28.0	 -0.48361284309	 -0.686437246481	 
28.0	 -0.350206245764	 -0.700726918131	 
28.0	 -0.222090832479	 -0.735575338824	 
28.0	 -0.0960840697571	 -0.79895441216	 
28.0	 0.0244544974379	 -0.885806940102	 
28.0	 0.124477238211	 -0.964841043608	 
28.0	 0.201024827621	 -1.01288069546	 
28.0	 0.280380774241	 -1.03103464407	 
28.0	 0.375455896731	 -1.02698068075	 
28.0	 0.45693737106	 -1.01665976377	 
28.0	 0.500818746668	 -1.0162420601	 
28.0	 0.515314031572	 -1.03909351747	 
28.0	 0.528087450404	 -1.09173909822	 
28.0	 0.610279849718	 -1.16085356828	 
28.0	 0.808921880693	 -1.22035023515	 
28.0	 1.05605572664	 -1.21271595464	 
29.0	 0.897763715808	 -1.21356577338	 
29.0	 1.10732482444	 -1.1612145451	 
29.0	 1.28120749647	 -1.06674329431	 
29.0	 1.39606034567	 -0.914712172412	 
29.0	 1.46349398021	 -0.707404372918	 
29.0	 1.49265752423	 -0.448590648628	 
29.0	 1.47530552928	 -0.139169622959	 
29.0	 1.41725563614	 0.193661732996	 
29.0	 1.34781658616	 0.484030471719	 
29.0	 1.27556727397	 0.699769402181	 
29.0	 1.1844187522	 0.849086143533	 
29.0	 1.06448487638	 0.933755833086	 
29.0	 0.913200561337	 0.948861365169	 
29.0	 0.740742210822	 0.892460804143	 
29.0	 0.565792253791	 0.77452754849	 
29.0	 0.413917604984	 0.677167097699	 
29.0	 0.304769555551	 0.689945371499	 
29.0	 0.213188250964	 0.780708033228	 
