4.0	 -0.829299982625	 -1.10654581582	 
4.5	 -0.733560982876	 -0.983489209192	 
4.5	 -0.513967417898	 -0.920587170277	 
4.5	 -0.381734191745	 -0.744392649596	 
4.5	 -0.264366908292	 -0.556008460424	 
4.5	 -0.0918121265952	 -0.453083908848	 
4.5	 0.126193859643	 -0.433307932387	 
4.5	 0.31421029954	 -0.533845389625	 
4.5	 0.499882200943	 -0.631474821477	 
4.5	 0.718963532569	 -0.618804639289	 
4.5	 0.928120432868	 -0.571421743129	 
4.5	 1.14274850835	 -0.572505227239	 
4.5	 1.35868361768	 -0.562888609727	 
4.5	 1.53214076649	 -0.452626572594	 
4.5	 1.61593074835	 -0.2443498144	 
4.5	 1.6448101218	 -0.0258084641698	 
4.5	 1.63822191912	 0.187858166653	 
4.5	 1.61142423855	 0.39835691064	 
4.5	 1.57242728342	 0.607168265122	 
4.5	 1.50561721028	 0.815029897351	 
4.5	 1.39659834487	 1.01596415151	 
4.5	 1.24887235062	 1.18449218421	 
4.5	 1.06924869461	 1.29153092327	 
4.5	 0.864710224194	 1.31857281844	 
4.5	 0.643082901834	 1.29853707283	 
4.5	 0.426218388946	 1.29407035754	 
4.5	 0.28537890429	 1.40971546772	 
4.5	 0.201442806501	 1.61862223039	 
4.5	 0.123216253998	 1.85036963298	 
4.5	 0.00200799037895	 2.03778480874	 
4.5	 -0.173306462574	 2.16245437035	 
4.5	 -0.384773281348	 2.24284914232	 
4.5	 -0.611244773373	 2.28170774437	 
4.5	 -0.829117471463	 2.26499486448	 
4.5	 -1.01477402984	 2.17806514919	 
4.5	 -1.15570663322	 2.02106831926	 
4.5	 -1.26086193966	 1.82272600727	 
4.5	 -1.34119398283	 1.61344190857	 
4.5	 -1.40240253336	 1.40480360537	 
4.5	 -1.44673408164	 1.19603209094	 
4.5	 -1.47637464522	 0.986131798398	 
4.5	 -1.49350917213	 0.774119236276	 
4.5	 -1.50024536533	 0.559883060399	 
4.5	 -1.49856300559	 0.344756252301	 
4.5	 -1.49042985305	 0.130207513905	 
4.5	 -1.47633075161	 -0.0827401412816	 
4.5	 -1.44891794433	 -0.295417777051	 
4.5	 -1.39699360706	 -0.508153151254	 
4.5	 -1.28646803935	 -0.689206559815	 
4.5	 -1.12730729726	 -0.832943963826	 
4.5	 -0.939485134947	 -0.937044834951	 
5.0	 -0.672454344417	 -0.9012772883	 
5.0	 -0.505785574776	 -0.767123077422	 
5.0	 -0.318782528703	 -0.716751452386	 
5.0	 -0.118952344884	 -0.714077574708	 
5.0	 0.086197837993	 -0.723016605901	 
5.0	 0.289304734372	 -0.719819356388	 
5.0	 0.485449907184	 -0.758425501715	 
5.0	 0.681079448765	 -0.811816916203	 
5.0	 0.883071320633	 -0.816120901223	 
5.0	 1.08117201727	 -0.795554283577	 
5.0	 1.28107059967	 -0.773735912899	 
5.0	 1.49343138461	 -0.75711988077	 
5.0	 1.65677293393	 -0.679741048082	 
5.0	 1.71820081495	 -0.496372325927	 
5.0	 1.70935791009	 -0.263425534683	 
5.0	 1.66750645104	 -0.0430194678923	 
5.0	 1.61429753067	 0.147782682512	 
5.0	 1.55483466695	 0.339454738351	 
5.0	 1.48287704534	 0.539639731514	 
5.0	 1.36777495685	 0.697886380356	 
5.0	 1.18763350546	 0.771758174545	 
5.0	 0.976565974668	 0.793240130721	 
5.0	 0.774668113348	 0.816424821934	 
5.0	 0.590467034983	 0.894414604216	 
5.0	 0.44224481277	 1.03443017202	 
5.0	 0.343980923798	 1.21084348835	 
5.0	 0.26490548685	 1.39829801906	 
5.0	 0.166912879145	 1.57193156546	 
5.0	 0.0307219722888	 1.71932008892	 
5.0	 -0.138523073351	 1.84404605124	 
5.0	 -0.329047153915	 1.93396203154	 
5.0	 -0.518844872121	 1.94262705292	 
5.0	 -0.693555975076	 1.85280420439	 
5.0	 -0.85478264553	 1.70717331858	 
5.0	 -1.00418923942	 1.5490807045	 
5.0	 -1.13340918574	 1.38694436666	 
5.0	 -1.23018582748	 1.21563679095	 
5.0	 -1.2826270793	 1.03012572839	 
5.0	 -1.29430120774	 0.830559712086	 
5.0	 -1.28943084001	 0.62400857573	 
5.0	 -1.29136840913	 0.417514992323	 
5.0	 -1.30247460278	 0.213490859824	 
5.0	 -1.31391217484	 0.0118778141095	 
5.0	 -1.31673905965	 -0.187405632113	 
5.0	 -1.30215452075	 -0.384480767975	 
5.0	 -1.27080450919	 -0.582129306622	 
5.0	 -1.2379365114	 -0.787032313711	 
5.0	 -1.17463391811	 -0.97794209962	 
5.0	 -1.00415931142	 -1.08272274367	 
5.0	 -0.818034337806	 -1.01168806975	 
5.5	 -0.994780371872	 -1.04558233686	 
5.5	 -0.808245824968	 -1.03753926406	 
5.5	 -0.616528093963	 -1.04931398792	 
5.5	 -0.42930293629	 -1.04391006175	 
5.5	 -0.252102170512	 -0.99487487088	 
5.5	 -0.0769418130482	 -0.91014538803	 
5.5	 0.104015562102	 -0.811243966238	 
5.5	 0.283822145184	 -0.753297345184	 
5.5	 0.452319705975	 -0.796121814261	 
5.5	 0.62862235978	 -0.88118523394	 
5.5	 0.821619939884	 -0.885140858402	 
5.5	 0.97407871101	 -0.78107255466	 
5.5	 1.10804610451	 -0.644469390284	 
5.5	 1.25386988717	 -0.525940934675	 
5.5	 1.40839159766	 -0.414662690679	 
5.5	 1.55797322236	 -0.296511559582	 
5.5	 1.67984137627	 -0.155849830335	 
5.5	 1.75850090247	 0.0151957542027	 
5.5	 1.79593739088	 0.206606854601	 
5.5	 1.7965680753	 0.405876336643	 
5.5	 1.76481018955	 0.60049706611	 
5.5	 1.70511265124	 0.779844271388	 
5.5	 1.62216490896	 0.947583337532	 
5.5	 1.52074966434	 1.11384930203	 
5.5	 1.40385169579	 1.27972996625	 
5.5	 1.27109947927	 1.42936546167	 
5.5	 1.12175428415	 1.5450417078	 
5.5	 0.955077625288	 1.60904596659	 
5.5	 0.772176013534	 1.61375502731	 
5.5	 0.580439272645	 1.58590654342	 
5.5	 0.388400362038	 1.55812692491	 
5.5	 0.200780211505	 1.53504385795	 
5.5	 0.0188093470969	 1.4956504333	 
5.5	 -0.156136224553	 1.42539284598	 
5.5	 -0.321802781755	 1.3333073064	 
5.5	 -0.475631324535	 1.22424848308	 
5.5	 -0.619512403829	 1.09584417835	 
5.5	 -0.780219979423	 1.00042775109	 
5.5	 -0.975896186354	 0.980971496722	 
5.5	 -1.14648356509	 0.949969161806	 
5.5	 -1.23900818033	 0.825978547745	 
5.5	 -1.27082246305	 0.63132267394	 
5.5	 -1.26940527767	 0.403265989285	 
5.5	 -1.26205299113	 0.178849677904	 
5.5	 -1.26257178756	 -0.0213887702392	 
5.5	 -1.2622496193	 -0.204460343659	 
5.5	 -1.25023637924	 -0.379991701806	 
5.5	 -1.21882735824	 -0.557454228184	 
5.5	 -1.17818566291	 -0.745437242413	 
5.5	 -1.13368159453	 -0.94110873554	 
6.0	 -1.14236287809	 -0.837831423498	 
6.0	 -1.08964050595	 -1.07730889899	 
6.0	 -0.936885754878	 -1.20346545727	 
6.0	 -0.732860530349	 -1.24249357795	 
6.0	 -0.523443918264	 -1.22139472799	 
6.0	 -0.320149616801	 -1.1768141151	 
6.0	 -0.116472697931	 -1.13190816313	 
6.0	 0.065140770133	 -1.0288132738	 
6.0	 0.214927317649	 -0.882105322643	 
6.0	 0.412521081159	 -0.833789031915	 
6.0	 0.625904746064	 -0.840748601999	 
6.0	 0.836884381083	 -0.8359304773	 
6.0	 1.06110451801	 -0.800465373173	 
6.0	 1.22219859828	 -0.690968766124	 
6.0	 1.27426235547	 -0.491088725472	 
6.0	 1.31125225324	 -0.279343378033	 
6.0	 1.39276626076	 -0.0892450383768	 
6.0	 1.50440226848	 0.0916772151056	 
6.0	 1.60998667971	 0.273383224937	 
6.0	 1.67317424363	 0.465644813929	 
6.0	 1.68413048824	 0.672343765511	 
6.0	 1.67639041843	 0.887692990751	 
6.0	 1.66869279273	 1.10356460481	 
6.0	 1.63988683073	 1.30877073116	 
6.0	 1.56437523233	 1.49194122902	 
6.0	 1.43421064334	 1.64746565014	 
6.0	 1.26095317379	 1.77609940112	 
6.0	 1.05717191944	 1.87892715011	 
6.0	 0.836640073341	 1.95336208745	 
6.0	 0.618227703978	 1.98127624603	 
6.0	 0.422153256242	 1.94043025169	 
6.0	 0.267429505048	 1.81306942917	 
6.0	 0.161652213262	 1.62390660847	 
6.0	 0.105371585745	 1.42009110105	 
6.0	 0.0772259968454	 1.22063944381	 
6.0	 0.0311230506413	 1.01244347111	 
6.0	 -0.0734081773819	 0.803056105058	 
6.0	 -0.229797992307	 0.746606994657	 
6.0	 -0.415314138325	 0.871587064147	 
6.0	 -0.61255986084	 0.984453099226	 
6.0	 -0.814109782992	 1.0067379992	 
6.0	 -1.0115339242	 0.934747909256	 
6.0	 -1.1760017735	 0.791701686506	 
6.0	 -1.27742685749	 0.605805068198	 
6.0	 -1.31746933577	 0.398889096381	 
6.0	 -1.31634257808	 0.188467272337	 
6.0	 -1.29281354558	 -0.0186497497325	 
6.0	 -1.26414969739	 -0.225057637111	 
6.0	 -1.23757467351	 -0.431956266199	 
6.0	 -1.19595833011	 -0.636272396326	 
6.5	 -0.908317427782	 -0.867883888677	 
6.5	 -0.692181152113	 -0.75680023299	 
6.5	 -0.515412048964	 -0.792321524724	 
6.5	 -0.352343475945	 -0.896904171377	 
6.5	 -0.178342885118	 -0.990559042127	 
6.5	 0.0160339265627	 -1.00096927237	 
6.5	 0.213094363539	 -0.99898216964	 
6.5	 0.406452231226	 -1.05154800737	 
6.5	 0.58502616626	 -1.01661925085	 
6.5	 0.747880744022	 -0.890920498167	 
6.5	 0.928043223745	 -0.780211530761	 
6.5	 1.09296752052	 -0.672710970143	 
6.5	 1.18793788935	 -0.51035491529	 
6.5	 1.30853652685	 -0.357344510079	 
6.5	 1.44937637902	 -0.217866107241	 
6.5	 1.59618836638	 -0.0869558697648	 
6.5	 1.75461718568	 0.0295559741145	 
6.5	 1.83470890931	 0.196567493592	 
6.5	 1.83328048609	 0.404434263247	 
6.5	 1.77898022355	 0.616637646615	 
6.5	 1.68935602179	 0.807486959286	 
6.5	 1.56585956688	 0.966990023938	 
6.5	 1.40868216881	 1.08638389784	 
6.5	 1.21854491321	 1.15765583939	 
6.5	 1.02221636681	 1.2096782511	 
6.5	 0.881923782997	 1.32207954879	 
6.5	 0.796565055779	 1.50355768808	 
6.5	 0.687449264972	 1.67333937818	 
6.5	 0.52718097236	 1.78576585112	 
6.5	 0.334220483665	 1.83139868501	 
6.5	 0.134168599656	 1.81179604554	 
6.5	 -0.0460056288693	 1.72544745115	 
6.5	 -0.178436949088	 1.56506443709	 
6.5	 -0.250528043741	 1.34308546746	 
6.5	 -0.332301413761	 1.18046492179	 
6.5	 -0.502690969944	 1.19881703651	 
6.5	 -0.706061144929	 1.26347481052	 
6.5	 -0.893251375537	 1.24603625273	 
6.5	 -1.06135308751	 1.14090532603	 
6.5	 -1.19831888724	 0.986579764891	 
6.5	 -1.29699199775	 0.811509982131	 
6.5	 -1.35884001117	 0.623875533085	 
6.5	 -1.38606797847	 0.430192450906	 
6.5	 -1.38526207693	 0.234838771541	 
6.5	 -1.37143538109	 0.0380801904916	 
6.5	 -1.36017172867	 -0.160235974368	 
6.5	 -1.35021039011	 -0.358143273549	 
6.5	 -1.31728395613	 -0.55078090108	 
6.5	 -1.23838676754	 -0.730490042747	 
6.5	 -1.10630738198	 -0.87234649121	 
7.0	 -1.18351847154	 -1.03880146975	 
7.0	 -1.08841821691	 -1.14562213535	 
7.0	 -0.935690492538	 -1.27868916047	 
7.0	 -0.746641258325	 -1.41131143272	 
7.0	 -0.542576474185	 -1.5167978397	 
7.0	 -0.344802100025	 -1.56845726902	 
7.0	 -0.174550042667	 -1.53972929151	 
7.0	 -0.0428280142062	 -1.42209635228	 
7.0	 0.0599320423644	 -1.24335143491	 
7.0	 0.145765724236	 -1.03564204856	 
7.0	 0.23073986139	 -0.834842674357	 
7.0	 0.361436648612	 -0.705031688932	 
7.0	 0.551001545206	 -0.650080126577	 
7.0	 0.717977661374	 -0.542655103551	 
7.0	 0.890515247971	 -0.45927139184	 
7.0	 1.08714215488	 -0.435495485912	 
7.0	 1.27545039275	 -0.375372997774	 
7.0	 1.43679581765	 -0.237869846282	 
7.0	 1.61462792645	 -0.207713503478	 
7.0	 1.75710205552	 -0.23614555844	 
7.0	 1.76795281036	 -0.0984207390163	 
7.0	 1.68483219483	 0.141777988223	 
7.0	 1.55082330056	 0.408718323479	 
7.0	 1.40705938708	 0.62951897027	 
7.0	 1.26326650057	 0.777221595848	 
7.0	 1.10379843171	 0.861966643347	 
7.0	 0.914203299709	 0.897256356217	 
7.0	 0.735313969175	 0.96260393944	 
7.0	 0.61314677421	 1.12227200291	 
7.0	 0.494164471558	 1.28325434108	 
7.0	 0.323723098048	 1.35355661804	 
7.0	 0.122061380641	 1.38034532585	 
7.0	 -0.058645141218	 1.46768640062	 
7.0	 -0.216668795569	 1.59302139599	 
7.0	 -0.385679498086	 1.64603136871	 
7.0	 -0.577436395483	 1.59908898177	 
7.0	 -0.778324953977	 1.51823257027	 
7.0	 -0.964864599353	 1.4355999056	 
7.0	 -1.0996569141	 1.3193604796	 
7.0	 -1.16526712155	 1.15086246627	 
7.0	 -1.18421503229	 0.947469329907	 
7.0	 -1.18342332056	 0.730513300902	 
7.0	 -1.18833553362	 0.520209362784	 
7.0	 -1.20468072365	 0.321881310836	 
7.0	 -1.22416030782	 0.130257276964	 
7.0	 -1.23817540462	 -0.0601614351613	 
7.0	 -1.23934828265	 -0.254152511897	 
7.0	 -1.22954268791	 -0.451037146291	 
7.0	 -1.21479656324	 -0.647693214389	 
7.0	 -1.19905661402	 -0.843064546013	 
7.5	 -1.31257937887	 -1.00204364458	 
7.5	 -1.3524637725	 -0.806330149016	 
7.5	 -1.3758382574	 -0.610712343461	 
7.5	 -1.38365640429	 -0.414698129429	 
7.5	 -1.37687178392	 -0.217795408437	 
7.5	 -1.35643796702	 -0.0195120820004	 
7.5	 -1.3217965822	 0.179624389833	 
7.5	 -1.25405136829	 0.36672062917	 
7.5	 -1.1236927444	 0.519723006764	 
7.5	 -0.943031279328	 0.591887216052	 
7.5	 -0.752697880065	 0.55101520351	 
7.5	 -0.555300653934	 0.467056358665	 
7.5	 -0.382416295535	 0.485767713414	 
7.5	 -0.249875778732	 0.647029350297	 
7.5	 -0.119214546614	 0.804948136117	 
7.5	 -0.0167489324826	 0.971205088381	 
7.5	 0.0849959983713	 1.14027173876	 
7.5	 0.247987820981	 1.25622687605	 
7.5	 0.43680832015	 1.27616977919	 
7.5	 0.62035119036	 1.19007653275	 
7.5	 0.810577152511	 1.22701679258	 
7.5	 0.933787917498	 1.38602366095	 
7.5	 1.07287804521	 1.51848118998	 
7.5	 1.27420853596	 1.5163060677	 
7.5	 1.41886619291	 1.38441277495	 
7.5	 1.47411009265	 1.19600602914	 
7.5	 1.49816247305	 0.992081569059	 
7.5	 1.5361431158	 0.797148933722	 
7.5	 1.57210497475	 0.6048375557	 
7.5	 1.59115336958	 0.408504390466	 
7.5	 1.59566071741	 0.208987264563	 
7.5	 1.58398549677	 0.00926059862261	 
7.5	 1.53315262721	 -0.18190945978	 
7.5	 1.4212250861	 -0.350442904755	 
7.5	 1.25623394858	 -0.463393781647	 
7.5	 1.0610749669	 -0.508366063068	 
7.5	 0.880853581475	 -0.574493362323	 
7.5	 0.725982870523	 -0.699340868864	 
7.5	 0.549728015559	 -0.80125738152	 
7.5	 0.350745029346	 -0.792593540681	 
7.5	 0.158783268931	 -0.712017794074	 
7.5	 0.00652993359986	 -0.754175252706	 
7.5	 -0.110169136684	 -0.935301059103	 
7.5	 -0.224277449156	 -1.1278238115	 
7.5	 -0.366116958924	 -1.25707300392	 
7.5	 -0.555348789983	 -1.29648573892	 
7.5	 -0.754867852174	 -1.30126534918	 
7.5	 -0.952754442001	 -1.29751627895	 
7.5	 -1.14542528813	 -1.31747115276	 
7.5	 -1.30856266571	 -1.21132378944	 
8.0	 0.775623978576	 0.861113131805	 
8.0	 1.0213614704	 0.882948089935	 
8.0	 1.17413909711	 0.792464839766	 
8.0	 1.26616044661	 0.629003353788	 
8.0	 1.32962910678	 0.431903604492	 
8.0	 1.39445979219	 0.237818607989	 
8.0	 1.46478157903	 0.0531310791059	 
8.0	 1.52847188054	 -0.134797508047	 
8.0	 1.57335933135	 -0.332239496563	 
8.0	 1.58766380436	 -0.532775114056	 
8.0	 1.55979109112	 -0.728587625961	 
8.0	 1.48589050848	 -0.913320108985	 
8.0	 1.37368646893	 -1.08279777967	 
8.0	 1.23185076505	 -1.2330244549	 
8.0	 1.06825722075	 -1.35727521177	 
8.0	 0.887236799972	 -1.43670993629	 
8.0	 0.692598804247	 -1.45612242211	 
8.0	 0.491120014512	 -1.44531110331	 
8.0	 0.29003898742	 -1.44590287754	 
8.0	 0.0910678108959	 -1.45311647837	 
8.0	 -0.106664075967	 -1.44049609754	 
8.0	 -0.303821865377	 -1.40670553325	 
8.0	 -0.50045579336	 -1.41651908194	 
8.0	 -0.696764650517	 -1.4632466051	 
8.0	 -0.893114766493	 -1.4836891294	 
8.0	 -1.08608780671	 -1.43494019055	 
8.0	 -1.26249132475	 -1.32912719306	 
8.0	 -1.40795937305	 -1.18549755889	 
8.0	 -1.51000930752	 -1.01522299855	 
8.0	 -1.56076787284	 -0.826753198064	 
8.0	 -1.57653139472	 -0.627120979253	 
8.0	 -1.58253460324	 -0.422830935124	 
8.0	 -1.59237024128	 -0.219417386956	 
8.0	 -1.59063788775	 -0.0200035190515	 
8.0	 -1.55750672039	 0.172656004445	 
8.0	 -1.48052482021	 0.355635931655	 
8.0	 -1.37194971542	 0.525460930004	 
8.0	 -1.247804159	 0.682433864892	 
8.0	 -1.12108194488	 0.835264972131	 
8.0	 -1.00247140485	 0.992462891277	 
8.0	 -0.87026553021	 1.14057486352	 
8.0	 -0.681054003138	 1.24705052635	 
8.0	 -0.470856557008	 1.26718317734	 
8.0	 -0.332006925008	 1.15278171075	 
8.0	 -0.243550363558	 0.965496960818	 
8.0	 -0.101190515466	 0.834726489003	 
8.0	 0.06701837703	 0.7085983065	 
8.0	 0.228642350424	 0.762616064656	 
8.0	 0.402826796452	 0.887079839574	 
8.0	 0.591255002132	 0.947389427015	 
8.5	 0.0686021403092	 -0.818830881267	 
8.5	 0.268234015106	 -0.824980899427	 
8.5	 0.47777194431	 -0.819910629606	 
8.5	 0.682624405472	 -0.786158395735	 
8.5	 0.868402376708	 -0.706605541814	 
8.5	 1.03196144609	 -0.583180899213	 
8.5	 1.18707793285	 -0.446465378162	 
8.5	 1.34482259735	 -0.316250584948	 
8.5	 1.49992459413	 -0.17809801997	 
8.5	 1.61930744761	 -0.0176779485805	 
8.5	 1.68201501477	 0.169794134848	 
8.5	 1.70044834934	 0.376379300189	 
8.5	 1.69012330841	 0.592950674153	 
8.5	 1.66647648871	 0.810390812589	 
8.5	 1.63533958208	 1.02072490984	 
8.5	 1.58388237721	 1.21819825608	 
8.5	 1.4971306456	 1.39731142157	 
8.5	 1.36574667232	 1.55292523238	 
8.5	 1.19904535943	 1.68109268994	 
8.5	 1.01019477532	 1.77811306941	 
8.5	 0.812197188934	 1.84053287933	 
8.5	 0.611628005317	 1.87448210197	 
8.5	 0.406724645185	 1.89852397716	 
8.5	 0.197142541511	 1.92385531079	 
8.5	 -0.00952172401906	 1.92870533518	 
8.5	 -0.203671022818	 1.88309220743	 
8.5	 -0.374981946394	 1.77076181924	 
8.5	 -0.511574425206	 1.60488319523	 
8.5	 -0.601367304092	 1.40242616753	 
8.5	 -0.633272969989	 1.18058802368	 
8.5	 -0.636952305804	 0.965894759881	 
8.5	 -0.695825259403	 0.797038388607	 
8.5	 -0.851226575223	 0.688281929037	 
8.5	 -1.05906074443	 0.606757306044	 
8.5	 -1.26658976693	 0.515042825974	 
8.5	 -1.44160481292	 0.393425442663	 
8.5	 -1.57541534758	 0.242479203321	 
8.5	 -1.66096106294	 0.0641195094201	 
8.5	 -1.69737693082	 -0.135578415369	 
8.5	 -1.68921102389	 -0.346904719375	 
8.5	 -1.64119356309	 -0.560027247439	 
8.5	 -1.55656545585	 -0.762561406024	 
8.5	 -1.42342981274	 -0.916178907676	 
8.5	 -1.22908768151	 -0.973577241124	 
8.5	 -1.02140373284	 -0.933769890691	 
8.5	 -0.849515862163	 -0.827201637022	 
8.5	 -0.669087381501	 -0.720583348153	 
8.5	 -0.4676001715	 -0.705042860071	 
8.5	 -0.30104537222	 -0.827004521894	 
8.5	 -0.113913786411	 -0.903215596817	 
9.0	 -1.27156627149	 0.631607867143	 
9.0	 -1.30362263926	 0.733272908276	 
9.0	 -1.22751515081	 0.93447819289	 
9.0	 -1.07419476804	 1.18425625796	 
9.0	 -0.874612452867	 1.43163964048	 
9.0	 -0.659719167196	 1.62566087742	 
9.0	 -0.460465872941	 1.71535250577	 
9.0	 -0.306906331906	 1.65174768828	 
9.0	 -0.198260987834	 1.45463340391	 
9.0	 -0.0959172189986	 1.22815846091	 
9.0	 0.022799281941	 1.04064374133	 
9.0	 0.130267582774	 0.847466299299	 
9.0	 0.205533910508	 0.609167911158	 
9.0	 0.329905855785	 0.450184741934	 
9.0	 0.551699995767	 0.494208448196	 
9.0	 0.717713405882	 0.646671017682	 
9.0	 0.856100267505	 0.821556772865	 
9.0	 1.01940409399	 0.97118964003	 
9.0	 1.16995865595	 1.13257320531	 
9.0	 1.33027833779	 1.32672696237	 
9.0	 1.49205408741	 1.2462146565	 
9.0	 1.58744671802	 1.01925188095	 
9.0	 1.6091522023	 0.796584952388	 
9.0	 1.5886330881	 0.576766568642	 
9.0	 1.55625134656	 0.357851516517	 
9.0	 1.52697227497	 0.13683125866	 
9.0	 1.50477588602	 -0.0898427500326	 
9.0	 1.48234972515	 -0.319355489242	 
9.0	 1.43909932638	 -0.541246160997	 
9.0	 1.35364613969	 -0.744602610071	 
9.0	 1.2073610577	 -0.915898224887	 
9.0	 1.00604163328	 -1.01838358543	 
9.0	 0.783520500272	 -1.01060331438	 
9.0	 0.586461524679	 -0.909593204886	 
9.0	 0.360197808693	 -0.842136359482	 
9.0	 0.147446532749	 -0.890073867722	 
9.0	 0.0153873185293	 -1.06230515061	 
9.0	 -0.111892446823	 -1.25734057658	 
9.0	 -0.303133912896	 -1.38036567554	 
9.0	 -0.526022304133	 -1.41789628292	 
9.0	 -0.749142017311	 -1.41553687438	 
9.0	 -0.947050745536	 -1.36044168363	 
9.0	 -1.04708026513	 -1.13882824029	 
9.0	 -1.09071177493	 -0.913239155446	 
9.0	 -1.13315876451	 -0.695241610115	 
9.0	 -1.18169156443	 -0.475756787026	 
9.0	 -1.23529136647	 -0.257663145738	 
9.0	 -1.27515860753	 -0.0383964746626	 
9.0	 -1.28687695785	 0.185240991612	 
9.0	 -1.28663233642	 0.408641855546	 
9.5	 -0.0572657574708	 1.11030846492	 
9.5	 0.262499622019	 1.2061393016	 
9.5	 0.385312514648	 1.04304264384	 
9.5	 0.402646061841	 0.752973263906	 
9.5	 0.405973405023	 0.467885934051	 
9.5	 0.486684879761	 0.319596903536	 
9.5	 0.681497138732	 0.348460743599	 
9.5	 0.886697140405	 0.365618328736	 
9.5	 1.07824588827	 0.376500283531	 
9.5	 1.27726587746	 0.411076497745	 
9.5	 1.47012628163	 0.394157322415	 
9.5	 1.61481232293	 0.258607229136	 
9.5	 1.68732568989	 0.0718176735192	 
9.5	 1.70994879383	 -0.121780629027	 
9.5	 1.71671443774	 -0.311262004187	 
9.5	 1.71874867639	 -0.504400768703	 
9.5	 1.72402562048	 -0.711497831016	 
9.5	 1.73179776467	 -0.933368990209	 
9.5	 1.7029327116	 -1.12908492645	 
9.5	 1.58974655969	 -1.24826807177	 
9.5	 1.39636902227	 -1.29306245874	 
9.5	 1.18206488957	 -1.32150076663	 
9.5	 0.988663862724	 -1.37400804277	 
9.5	 0.807780475358	 -1.44027200327	 
9.5	 0.624126116858	 -1.50288218796	 
9.5	 0.433241161216	 -1.55370769323	 
9.5	 0.238434045023	 -1.59127421158	 
9.5	 0.0431827948811	 -1.61425276107	 
9.5	 -0.150704344168	 -1.62213927286	 
9.5	 -0.347959768637	 -1.61766091585	 
9.5	 -0.551812413198	 -1.6007290951	 
9.5	 -0.730639658124	 -1.53077032034	 
9.5	 -0.855158238438	 -1.37816426402	 
9.5	 -0.965875715801	 -1.21476297487	 
9.5	 -1.07294299559	 -1.05015461538	 
9.5	 -1.16320679695	 -0.874977249964	 
9.5	 -1.22245923063	 -0.688369054254	 
9.5	 -1.25114230383	 -0.493532674147	 
9.5	 -1.26241183932	 -0.295718108114	 
9.5	 -1.26617248745	 -0.0989155374632	 
9.5	 -1.26010663686	 0.0972989458331	 
9.5	 -1.23955361588	 0.293218091115	 
9.5	 -1.20033740927	 0.48653689663	 
9.5	 -1.13835139113	 0.674548002061	 
9.5	 -1.03922189376	 0.839947615949	 
9.5	 -0.924599847676	 1.03576322074	 
9.5	 -0.799837393304	 1.20410218109	 
9.5	 -0.631634883899	 1.19085094344	 
9.5	 -0.443913649012	 1.15635390907	 
9.5	 -0.249958568128	 1.1482649199	 
10.0	 -0.944661478335	 1.34609468992	 
10.0	 -1.07093334574	 1.16554224825	 
10.0	 -1.24182430893	 1.04051092233	 
10.0	 -1.41504237902	 0.914236788818	 
10.0	 -1.55281153519	 0.747001378303	 
10.0	 -1.63651980784	 0.563989235592	 
10.0	 -1.66991091228	 0.376603390791	 
10.0	 -1.66943413965	 0.174794145297	 
10.0	 -1.65180665513	 -0.0519404913998	 
10.0	 -1.63374439584	 -0.314100408142	 
10.0	 -1.62027303993	 -0.602179007501	 
10.0	 -1.57609627399	 -0.837663404635	 
10.0	 -1.45723058897	 -0.927173619845	 
10.0	 -1.25174644252	 -0.858135137686	 
10.0	 -1.06671521306	 -0.909326387731	 
10.0	 -0.956481407235	 -1.12104500395	 
10.0	 -0.890353835731	 -1.33242966852	 
10.0	 -0.706409819824	 -1.437085131	 
10.0	 -0.543520502221	 -1.3246914449	 
10.0	 -0.423662508375	 -1.10049327918	 
10.0	 -0.291389430724	 -0.920589495236	 
10.0	 -0.104649210616	 -0.902207291674	 
10.0	 0.11231298502	 -0.928125578078	 
10.0	 0.321556760465	 -0.957118681411	 
10.0	 0.516542634471	 -1.0731662465	 
10.0	 0.705860505119	 -1.10687089133	 
10.0	 0.904638096133	 -1.00194685796	 
10.0	 1.11328092375	 -0.96702044176	 
10.0	 1.30720221314	 -0.884082107616	 
10.0	 1.43374297189	 -0.696529600757	 
10.0	 1.48930056264	 -0.492655527595	 
10.0	 1.51231311036	 -0.280032773844	 
10.0	 1.51984841254	 -0.0632814055869	 
10.0	 1.52505342246	 0.152900387352	 
10.0	 1.5208244569	 0.36534396162	 
10.0	 1.48969384031	 0.572839495754	 
10.0	 1.40626117834	 0.779484136956	 
10.0	 1.26323543397	 0.922726791697	 
10.0	 1.098835881	 0.849986384493	 
10.0	 0.926061955464	 0.661332759293	 
10.0	 0.749989955313	 0.503007917619	 
10.0	 0.53741654201	 0.497190803036	 
10.0	 0.382829011078	 0.641662011747	 
10.0	 0.314431705683	 0.848656271465	 
10.0	 0.196922699022	 1.02369989721	 
10.0	 0.0514574095305	 1.20110534934	 
10.0	 -0.114997967043	 1.33396438051	 
10.0	 -0.325756937511	 1.34497820781	 
10.0	 -0.53852010454	 1.36765321299	 
10.0	 -0.744764685581	 1.42551936864	 
10.5	 -1.3512189781	 0.188298529412	 
10.5	 -1.36281374671	 0.00640002000725	 
10.5	 -1.3926905912	 -0.213238772813	 
10.5	 -1.42263917814	 -0.453954040258	 
10.5	 -1.4344491741	 -0.69908197354	 
10.5	 -1.40991024566	 -0.931958763867	 
10.5	 -1.3308120594	 -1.13592060245	 
10.5	 -1.17987711012	 -1.29366087703	 
10.5	 -0.972086164805	 -1.36585889204	 
10.5	 -0.753762070108	 -1.32225604578	 
10.5	 -0.556230848141	 -1.20515473868	 
10.5	 -0.37215108668	 -1.08884095065	 
10.5	 -0.161405279576	 -1.0220622477	 
10.5	 0.034975615937	 -0.912038840124	 
10.5	 0.225659331735	 -0.812555102213	 
10.5	 0.44465856619	 -0.848142041612	 
10.5	 0.647276618397	 -0.948664060241	 
10.5	 0.79391570423	 -1.11039863237	 
10.5	 0.924563261855	 -1.28646857379	 
10.5	 1.12781430667	 -1.39430248721	 
10.5	 1.34626775538	 -1.40728733151	 
10.5	 1.46127697616	 -1.22566063132	 
10.5	 1.51989852866	 -0.995675738043	 
10.5	 1.55624064118	 -0.777430202715	 
10.5	 1.5788716667	 -0.566026690866	 
10.5	 1.59600578389	 -0.356450402505	 
10.5	 1.61118512864	 -0.143761448246	 
10.5	 1.62430755872	 0.0769216296646	 
10.5	 1.63517438948	 0.310478741039	 
10.5	 1.63915196613	 0.556134309347	 
10.5	 1.61311313303	 0.789529793826	 
10.5	 1.52911101891	 0.980160538824	 
10.5	 1.36424597886	 1.10223704529	 
10.5	 1.14871907123	 1.17957693261	 
10.5	 0.936408827062	 1.25647368391	 
10.5	 0.72612874329	 1.31452731486	 
10.5	 0.510889850706	 1.29596192655	 
10.5	 0.350434043364	 1.13991360689	 
10.5	 0.277387625612	 0.883087376784	 
10.5	 0.129150059561	 0.769628816486	 
10.5	 -0.082185438087	 0.737348400233	 
10.5	 -0.240609018483	 0.88604236748	 
10.5	 -0.374261197972	 1.09497492943	 
10.5	 -0.536882432986	 1.21117415681	 
10.5	 -0.75576185623	 1.20513451361	 
10.5	 -0.991733451796	 1.19477885595	 
10.5	 -1.12095480605	 1.08641643084	 
10.5	 -1.13823742027	 0.823989224528	 
10.5	 -1.15340765253	 0.533520359243	 
10.5	 -1.28409543275	 0.397460747205	 
11.0	 -0.782140616615	 -1.18177162787	 
11.0	 -1.02865221713	 -1.1981209584	 
11.0	 -1.17936074831	 -1.09261597254	 
11.0	 -1.26071489985	 -0.904524785206	 
11.0	 -1.29916336143	 -0.673115511324	 
11.0	 -1.32088596525	 -0.437209298491	 
11.0	 -1.34069494484	 -0.216729010694	 
11.0	 -1.3580828512	 -0.00612901023904	 
11.0	 -1.37146083662	 0.20193413266	 
11.0	 -1.37666900731	 0.413639255067	 
11.0	 -1.35789987334	 0.629889245974	 
11.0	 -1.29593986663	 0.848262882036	 
11.0	 -1.1688652382	 1.02095292341	 
11.0	 -0.965082998302	 1.07160355504	 
11.0	 -0.739225405488	 1.01616646304	 
11.0	 -0.559015824055	 0.898022216586	 
11.0	 -0.419181579257	 0.738921286361	 
11.0	 -0.275985269212	 0.556266399305	 
11.0	 -0.142481426652	 0.615758564728	 
11.0	 -0.030552466502	 0.88708934378	 
11.0	 0.0791210622039	 1.13804122414	 
11.0	 0.197148889161	 1.33962916634	 
11.0	 0.33302846655	 1.48857094972	 
11.0	 0.496257246553	 1.58158435361	 
11.0	 0.694879707198	 1.61794733419	 
11.0	 0.9138312962	 1.63765653802	 
11.0	 1.12595812682	 1.68347596296	 
11.0	 1.33583702612	 1.64164068203	 
11.0	 1.51668967609	 1.50442665532	 
11.0	 1.6334021485	 1.3193332643	 
11.0	 1.69476054738	 1.11070249645	 
11.0	 1.72584507042	 0.893844256284	 
11.0	 1.73889177518	 0.677372228388	 
11.0	 1.73095480211	 0.462025284691	 
11.0	 1.69815029893	 0.24824261701	 
11.0	 1.63406333402	 0.0424156357759	 
11.0	 1.5326150748	 -0.144982964086	 
11.0	 1.40107006816	 -0.316628304789	 
11.0	 1.24986496115	 -0.478391348187	 
11.0	 1.08510632135	 -0.626052584374	 
11.0	 0.893458356329	 -0.71000803735	 
11.0	 0.67536289595	 -0.70900854201	 
11.0	 0.457828978199	 -0.661254962777	 
11.0	 0.247661453849	 -0.612317360483	 
11.0	 0.0316878131155	 -0.610301042014	 
11.0	 -0.129194878462	 -0.72658548609	 
11.0	 -0.193913021754	 -0.94380495049	 
11.0	 -0.35863182978	 -1.08095325558	 
11.0	 -0.575932518234	 -1.10751346926	 
11.0	 -0.7917974595	 -1.21187969861	 
11.5	 -0.671417458094	 1.19882141075	 
11.5	 -0.887044724557	 1.12778879424	 
11.5	 -1.0480788179	 1.01949190896	 
11.5	 -1.16345458597	 0.879901873569	 
11.5	 -1.24210687663	 0.714989806707	 
11.5	 -1.29297053773	 0.530726827032	 
11.5	 -1.32498041713	 0.333084053198	 
11.5	 -1.34707136268	 0.128032603856	 
11.5	 -1.36817822225	 -0.0784564023387	 
11.5	 -1.39501154703	 -0.28115468835	 
11.5	 -1.42047844794	 -0.479443870331	 
11.5	 -1.43219845909	 -0.674471440437	 
11.5	 -1.41778035727	 -0.867388483432	 
11.5	 -1.36483509892	 -1.0593403668	 
11.5	 -1.26455572061	 -1.24207672014	 
11.5	 -1.11901537583	 -1.37880880342	 
11.5	 -0.933487673025	 -1.42905970559	 
11.5	 -0.735823374788	 -1.38614898182	 
11.5	 -0.57067916526	 -1.27524373846	 
11.5	 -0.434033350206	 -1.13367976525	 
11.5	 -0.28809776022	 -1.0061165761	 
11.5	 -0.112965492779	 -0.918624479904	 
11.5	 0.0806575487561	 -0.866352921629	 
11.5	 0.279622584041	 -0.841976605037	 
11.5	 0.476006479487	 -0.843357907892	 
11.5	 0.665634532529	 -0.871602440593	 
11.5	 0.849825745129	 -0.920778723789	 
11.5	 1.0357138998	 -0.977343402405	 
11.5	 1.23071818013	 -1.02737951529	 
11.5	 1.43803108613	 -1.05475361896	 
11.5	 1.60475781284	 -1.01424210447	 
11.5	 1.68682163827	 -0.879133288727	 
11.5	 1.70719733437	 -0.676749640123	 
11.5	 1.69371561763	 -0.438308623024	 
11.5	 1.67420720453	 -0.195027701797	 
11.5	 1.66982704481	 0.0263054766743	 
11.5	 1.66499479941	 0.223279585231	 
11.5	 1.6315614845	 0.401823432673	 
11.5	 1.54393729348	 0.566714892705	 
11.5	 1.40270125876	 0.71093901162	 
11.5	 1.22370625443	 0.820597772254	 
11.5	 1.0229962894	 0.88170702372	 
11.5	 0.816027307528	 0.884996264496	 
11.5	 0.613248143494	 0.861329596512	 
11.5	 0.422575905522	 0.861864235609	 
11.5	 0.251090491871	 0.93453349119	 
11.5	 0.0865701033823	 1.04746005037	 
11.5	 -0.099466153023	 1.0989822097	 
11.5	 -0.298527611677	 1.11121184572	 
11.5	 -0.480278886083	 1.17947091345	 
12.0	 -0.846758616792	 -1.1609395924	 
12.0	 -0.696464974206	 -1.19891449267	 
12.0	 -0.488993442648	 -1.2040758257	 
12.0	 -0.271381773752	 -1.16584075943	 
12.0	 -0.090667719155	 -1.07362646184	 
12.0	 0.00852903345187	 -0.918050602658	 
12.0	 0.0744991497931	 -0.735858268954	 
12.0	 0.233264370569	 -0.615022155794	 
12.0	 0.428072344132	 -0.609458984738	 
12.0	 0.593551914178	 -0.709723321528	 
12.0	 0.768185480473	 -0.785492645424	 
12.0	 0.960779895541	 -0.762138317003	 
12.0	 1.13205651792	 -0.676626087659	 
12.0	 1.29050955147	 -0.561424386498	 
12.0	 1.40787961727	 -0.41514927088	 
12.0	 1.4546388986	 -0.225818654992	 
12.0	 1.49234781177	 -0.0332506105018	 
12.0	 1.52495163803	 0.155336107251	 
12.0	 1.5355378294	 0.344550977871	 
12.0	 1.51133338704	 0.53528175716	 
12.0	 1.44881206968	 0.720107688114	 
12.0	 1.34563210511	 0.888662512248	 
12.0	 1.19866491741	 1.00843800518	 
12.0	 1.01523942577	 1.0647026947	 
12.0	 0.828590035567	 1.11833805547	 
12.0	 0.642264226254	 1.13978791058	 
12.0	 0.496420622376	 1.2723362489	 
12.0	 0.350583240422	 1.41133147254	 
12.0	 0.189936208735	 1.51407131557	 
12.0	 0.0181332157595	 1.59050291401	 
12.0	 -0.168192221442	 1.64688103782	 
12.0	 -0.369770484994	 1.67664382583	 
12.0	 -0.552064138494	 1.64396894542	 
12.0	 -0.686322634091	 1.52351030063	 
12.0	 -0.796566567086	 1.35564086155	 
12.0	 -0.919122006391	 1.19602683402	 
12.0	 -1.06262145134	 1.06462946606	 
12.0	 -1.19983227672	 0.935169568742	 
12.0	 -1.30468319199	 0.781934629901	 
12.0	 -1.37525936265	 0.604019319701	 
12.0	 -1.41971634581	 0.410859975932	 
12.0	 -1.44624306623	 0.211927202923	 
12.0	 -1.46293230932	 0.0165062746247	 
12.0	 -1.47376159234	 -0.174050646431	 
12.0	 -1.47698678509	 -0.368921077496	 
12.0	 -1.46315489865	 -0.567145586993	 
12.0	 -1.41224953018	 -0.752016149515	 
12.0	 -1.30593965075	 -0.90728378834	 
12.0	 -1.1586920408	 -1.03289942284	 
12.0	 -0.966585341483	 -1.03285412178	 
12.5	 -0.878942561035	 -0.77809243019	 
12.5	 -0.712183256406	 -0.713212550662	 
12.5	 -0.547921949313	 -0.890039953617	 
12.5	 -0.38794730962	 -1.13224744501	 
12.5	 -0.234048007194	 -1.26350783079	 
12.5	 -0.0869665609982	 -1.16178756469	 
12.5	 0.0587033475401	 -0.981227739551	 
12.5	 0.223751523171	 -0.88959864083	 
12.5	 0.421061335397	 -0.928914058234	 
12.5	 0.617607499361	 -0.972583754492	 
12.5	 0.821507679562	 -0.979828471033	 
12.5	 0.990697339093	 -0.887682881239	 
12.5	 1.1467709666	 -0.754577519347	 
12.5	 1.3322783373	 -0.677522341908	 
12.5	 1.53924515616	 -0.668470839571	 
12.5	 1.66412125483	 -0.590229879881	 
12.5	 1.68256267053	 -0.389421478499	 
12.5	 1.65861879763	 -0.130148583558	 
12.5	 1.65213404346	 0.125332812462	 
12.5	 1.66080603881	 0.346394172134	 
12.5	 1.63739312848	 0.525277255199	 
12.5	 1.53523731833	 0.655363242193	 
12.5	 1.35741507788	 0.74983015386	 
12.5	 1.16543566219	 0.845100140683	 
12.5	 1.00112442442	 0.963558098682	 
12.5	 0.847901468985	 1.08861398315	 
12.5	 0.68271349967	 1.20018318867	 
12.5	 0.513178241613	 1.3082179717	 
12.5	 0.36484833578	 1.4401675058	 
12.5	 0.240219500377	 1.60002893931	 
12.5	 0.119874882907	 1.76593243685	 
12.5	 -0.0308458126714	 1.89102255648	 
12.5	 -0.227863618185	 1.9406238403	 
12.5	 -0.435144390754	 1.91980623918	 
12.5	 -0.615826735762	 1.84067494629	 
12.5	 -0.774471899448	 1.72156048323	 
12.5	 -0.930832034005	 1.58307638343	 
12.5	 -1.09877986039	 1.44219060836	 
12.5	 -1.26486283213	 1.29897806548	 
12.5	 -1.40772657416	 1.14862858597	 
12.5	 -1.50601592216	 0.986331513038	 
12.5	 -1.53875472155	 0.80733898827	 
12.5	 -1.51059179702	 0.611148972572	 
12.5	 -1.46740916783	 0.404177602294	 
12.5	 -1.42788061797	 0.199497782899	 
12.5	 -1.34936960081	 0.0221132160359	 
12.5	 -1.19688110839	 -0.105954118571	 
12.5	 -1.0255528799	 -0.210670217212	 
12.5	 -0.926052685945	 -0.383342942504	 
12.5	 -0.875155192502	 -0.577101586744	 
13.0	 -1.20938360153	 0.00978027968565	 
13.0	 -1.18142656359	 -0.189017494701	 
13.0	 -1.14624411183	 -0.383029884735	 
13.0	 -1.10129913057	 -0.573185232702	 
13.0	 -1.04405450412	 -0.760411880884	 
13.0	 -0.971973116796	 -0.945638171566	 
13.0	 -0.882467341934	 -1.12960668672	 
13.0	 -0.769734017211	 -1.30123448035	 
13.0	 -0.622876584964	 -1.43070701857	 
13.0	 -0.435619701035	 -1.49126034132	 
13.0	 -0.234777983469	 -1.48691378891	 
13.0	 -0.0468891648003	 -1.43200832702	 
13.0	 0.130736552156	 -1.33650248648	 
13.0	 0.304518538537	 -1.21301989568	 
13.0	 0.480251374837	 -1.10456997107	 
13.0	 0.663387441602	 -1.0707906703	 
13.0	 0.855368319416	 -1.12111989805	 
13.0	 1.04967101668	 -1.13572004034	 
13.0	 1.25553383898	 -1.10640968332	 
13.0	 1.45917284982	 -1.03992518786	 
13.0	 1.59544991741	 -0.916277184694	 
13.0	 1.62511693552	 -0.727855204525	 
13.0	 1.60823267046	 -0.51528836927	 
13.0	 1.60075342481	 -0.313004379463	 
13.0	 1.60346345931	 -0.118746559462	 
13.0	 1.60924145113	 0.0749982584632	 
13.0	 1.61096383812	 0.275730436181	 
13.0	 1.6005390091	 0.485414335992	 
13.0	 1.56740001417	 0.691858555974	 
13.0	 1.50058989709	 0.880641358002	 
13.0	 1.38915170162	 1.03734100395	 
13.0	 1.22750656812	 1.14967106792	 
13.0	 1.03424658907	 1.21494192635	 
13.0	 0.83429283583	 1.23288515138	 
13.0	 0.640716674443	 1.19615891104	 
13.0	 0.454144008939	 1.09164018122	 
13.0	 0.283785047499	 0.996678916939	 
13.0	 0.144202730133	 1.07620371797	 
13.0	 0.00768973649611	 1.26287420427	 
13.0	 -0.159660726018	 1.42598087658	 
13.0	 -0.350515274837	 1.52181488976	 
13.0	 -0.544593811967	 1.53399040048	 
13.0	 -0.720576844333	 1.44848796374	 
13.0	 -0.841871220919	 1.28607310485	 
13.0	 -0.881552615149	 1.09161874649	 
13.0	 -0.907674586867	 0.898342970001	 
13.0	 -0.951521470969	 0.711579454791	 
13.0	 -0.981323401324	 0.512757960585	 
13.0	 -0.981146217679	 0.295862965383	 
13.0	 -1.12963739825	 0.194239951775	 
13.5	 -1.23136846445	 -0.536206764291	 
13.5	 -1.18800683149	 -0.69378383327	 
13.5	 -1.12404898611	 -0.876843306632	 
13.5	 -1.0384199992	 -1.06777989245	 
13.5	 -0.930044941623	 -1.24898829882	 
13.5	 -0.797848884261	 -1.4028632338	 
13.5	 -0.640756897989	 -1.51179940547	 
13.5	 -0.457794232366	 -1.55824041109	 
13.5	 -0.261693579488	 -1.53131935037	 
13.5	 -0.0927081978031	 -1.43359990247	 
13.5	 0.0218202323563	 -1.27799484675	 
13.5	 0.122286091585	 -1.11396749353	 
13.5	 0.262409404591	 -0.99571571656	 
13.5	 0.441635074406	 -0.917664258943	 
13.5	 0.626191039033	 -0.841542684299	 
13.5	 0.807901633634	 -0.786397519911	 
13.5	 0.990952490378	 -0.79176582799	 
13.5	 1.18511531852	 -0.822574135048	 
13.5	 1.38072337802	 -0.801583995155	 
13.5	 1.50507209684	 -0.685929894866	 
13.5	 1.55859178081	 -0.495194442767	 
13.5	 1.5890127012	 -0.279720293229	 
13.5	 1.62372366246	 -0.0737746169704	 
13.5	 1.64941397021	 0.120409770747	 
13.5	 1.64805897134	 0.304310386064	 
13.5	 1.60163401274	 0.47940474512	 
13.5	 1.49760759373	 0.642264593012	 
13.5	 1.3461819788	 0.769158825228	 
13.5	 1.16380061274	 0.834026786891	 
13.5	 0.973609293016	 0.865071247592	 
13.5	 0.803378068532	 0.935188593659	 
13.5	 0.657004619101	 1.05891905222	 
13.5	 0.517107034217	 1.19776848898	 
13.5	 0.368050396902	 1.31822029424	 
13.5	 0.20850574659	 1.42560148614	 
13.5	 0.0393217822004	 1.51981823048	 
13.5	 -0.141992044676	 1.57897585463	 
13.5	 -0.334450311153	 1.58383887732	 
13.5	 -0.52057824813	 1.53231855864	 
13.5	 -0.683172699156	 1.43036813599	 
13.5	 -0.819862249064	 1.29357874371	 
13.5	 -0.931515296782	 1.1371142674	 
13.5	 -1.02077596355	 0.967527197257	 
13.5	 -1.09069337964	 0.789221658361	 
13.5	 -1.14389737901	 0.60526771557	 
13.5	 -1.18265112573	 0.417568812983	 
13.5	 -1.20915517043	 0.22791336935	 
13.5	 -1.22507596455	 0.0372852431599	 
13.5	 -1.23175967728	 -0.153817211823	 
13.5	 -1.23182335387	 -0.345010519451	 
14.0	 -0.515821881392	 -1.39087884147	 
14.0	 -0.246236288487	 -1.3807490231	 
14.0	 -0.0827992621475	 -1.29561742744	 
14.0	 0.0141132771714	 -1.15208142797	 
14.0	 0.0841254090163	 -0.966738398219	 
14.0	 0.166679151628	 -0.756403585187	 
14.0	 0.285808194262	 -0.556331446032	 
14.0	 0.438649684598	 -0.433963638925	 
14.0	 0.61942390912	 -0.449226865641	 
14.0	 0.81962562874	 -0.524758491455	 
14.0	 1.02567294685	 -0.540723346376	 
14.0	 1.21801615455	 -0.483947281059	 
14.0	 1.41168451509	 -0.422163353861	 
14.0	 1.60393856269	 -0.414108273895	 
14.0	 1.64197043333	 -0.253370051462	 
14.0	 1.5960812157	 -0.00150951923408	 
14.0	 1.5699124458	 0.231373426152	 
14.0	 1.55719588759	 0.424133055625	 
14.0	 1.49840150415	 0.600847747128	 
14.0	 1.39139397862	 0.775745057271	 
14.0	 1.28253607949	 0.954310626853	 
14.0	 1.19221575877	 1.13483805869	 
14.0	 1.0973388298	 1.30648631252	 
14.0	 0.981147585396	 1.47152728288	 
14.0	 0.832004040078	 1.63514870504	 
14.0	 0.663655131012	 1.73367802043	 
14.0	 0.510891407753	 1.66481142074	 
14.0	 0.383524214509	 1.47470652862	 
14.0	 0.283377556952	 1.25080602848	 
14.0	 0.179829308764	 1.0736715313	 
14.0	 0.00623646179766	 1.01032071703	 
14.0	 -0.199142497273	 1.05209552168	 
14.0	 -0.38096794822	 1.14349642487	 
14.0	 -0.568005653865	 1.20847460578	 
14.0	 -0.755579956771	 1.15351907082	 
14.0	 -0.93937015813	 1.03388655592	 
14.0	 -1.11256580133	 0.912261461557	 
14.0	 -1.25369283761	 0.77622628573	 
14.0	 -1.34274675329	 0.600402886496	 
14.0	 -1.38658034436	 0.396877870499	 
14.0	 -1.4001568333	 0.188735632562	 
14.0	 -1.39612262984	 -0.0134687734229	 
14.0	 -1.3844836159	 -0.213451211419	 
14.0	 -1.37510217031	 -0.415703117988	 
14.0	 -1.3675048888	 -0.620971531405	 
14.0	 -1.28568003687	 -0.801913321783	 
14.0	 -1.16194152642	 -0.963291112503	 
14.0	 -1.02812324534	 -1.11655816185	 
14.0	 -0.8346473871	 -1.17040006264	 
14.0	 -0.640136988326	 -1.2350674689	 
14.5	 -0.839866597061	 -1.06740214391	 
14.5	 -0.60347918513	 -1.15316544732	 
14.5	 -0.42061878413	 -1.142480744	 
14.5	 -0.266775698699	 -1.05363598198	 
14.5	 -0.117440233472	 -0.904919109298	 
14.5	 0.0476723823161	 -0.733708164391	 
14.5	 0.212189688696	 -0.739981820702	 
14.5	 0.393493775719	 -0.840758888548	 
14.5	 0.576109586382	 -0.923331937658	 
14.5	 0.754047181364	 -1.02364542745	 
14.5	 0.959359094239	 -1.02073024368	 
14.5	 1.13484934226	 -0.918565730959	 
14.5	 1.28772562481	 -0.782917240375	 
14.5	 1.44528484913	 -0.65401564459	 
14.5	 1.59308090884	 -0.518184639982	 
14.5	 1.63731214232	 -0.321731355047	 
14.5	 1.63601981417	 -0.106079415125	 
14.5	 1.63217347912	 0.0970154229962	 
14.5	 1.60320683533	 0.296423084875	 
14.5	 1.5346758315	 0.493551089246	 
14.5	 1.43518557675	 0.671351563571	 
14.5	 1.31516948466	 0.816817290229	 
14.5	 1.18154117188	 0.963960593062	 
14.5	 1.03971296146	 1.16711466684	 
14.5	 0.901731830211	 1.4011303944	 
14.5	 0.78781128513	 1.54300629759	 
14.5	 0.715797347342	 1.47320743786	 
14.5	 0.648462585746	 1.25405872295	 
14.5	 0.505660221487	 1.09975248395	 
14.5	 0.30271512759	 1.06326007394	 
14.5	 0.125962384898	 1.14888420307	 
14.5	 -0.0348543105296	 1.28078448164	 
14.5	 -0.22627841457	 1.34671914769	 
14.5	 -0.420847364832	 1.40918443211	 
14.5	 -0.608114128437	 1.48851798925	 
14.5	 -0.815415014309	 1.47978478653	 
14.5	 -0.980553722099	 1.36297970761	 
14.5	 -1.10110995764	 1.19763543425	 
14.5	 -1.19402696252	 1.01751044594	 
14.5	 -1.25632720081	 0.823949665391	 
14.5	 -1.29655409057	 0.622801776023	 
14.5	 -1.324293386	 0.420280118465	 
14.5	 -1.3445769827	 0.218566422964	 
14.5	 -1.3562875694	 0.014399108216	 
14.5	 -1.35748078971	 -0.193567026686	 
14.5	 -1.34493385012	 -0.39916527236	 
14.5	 -1.31516358402	 -0.594699004806	 
14.5	 -1.26885025837	 -0.785812210137	 
14.5	 -1.21223027533	 -1.00892351862	 
14.5	 -1.04228655281	 -1.0655979874	 
15.0	 -0.744204365917	 -1.23652355987	 
15.0	 -0.625277253298	 -1.09236258017	 
15.0	 -0.474438217725	 -0.959096909407	 
15.0	 -0.300645252841	 -0.854305276863	 
15.0	 -0.112856352288	 -0.795566411841	 
15.0	 0.0801327883961	 -0.79815557595	 
15.0	 0.272160458166	 -0.840102161912	 
15.0	 0.463433869545	 -0.878540760176	 
15.0	 0.658982331976	 -0.882844963966	 
15.0	 0.844624210032	 -0.808061409416	 
15.0	 1.02251811652	 -0.743552399723	 
15.0	 1.21177047635	 -0.781569707178	 
15.0	 1.43148952295	 -0.829063827985	 
15.0	 1.54448494109	 -0.700376227337	 
15.0	 1.58291292885	 -0.506818346248	 
15.0	 1.59177201019	 -0.312613930562	 
15.0	 1.58146359782	 -0.11880349596	 
15.0	 1.57046849442	 0.0764497363494	 
15.0	 1.57531650466	 0.275288434567	 
15.0	 1.56877970522	 0.470624972841	 
15.0	 1.50914020504	 0.652270949128	 
15.0	 1.40279639885	 0.819396392768	 
15.0	 1.27513513583	 0.967632989425	 
15.0	 1.11395913575	 1.07674667298	 
15.0	 0.953884215422	 1.18472710962	 
15.0	 0.816292816413	 1.31882126646	 
15.0	 0.669476940668	 1.45011881271	 
15.0	 0.484985450508	 1.53930825226	 
15.0	 0.323573551963	 1.46567642847	 
15.0	 0.215083201507	 1.26205439135	 
15.0	 0.103201479726	 1.13573817351	 
15.0	 -0.0611426561684	 1.22181579666	 
15.0	 -0.249051512225	 1.31633702598	 
15.0	 -0.430571971883	 1.25019922442	 
15.0	 -0.614754711088	 1.24920714195	 
15.0	 -0.810039697041	 1.26440352927	 
15.0	 -0.982358100706	 1.16725667248	 
15.0	 -1.09982179158	 1.01162928847	 
15.0	 -1.1665286273	 0.828563392415	 
15.0	 -1.21066048953	 0.635910194289	 
15.0	 -1.24992779967	 0.443889721623	 
15.0	 -1.27729960779	 0.25173960734	 
15.0	 -1.28559569803	 0.0579134838443	 
15.0	 -1.27943887042	 -0.137301786441	 
15.0	 -1.26694943796	 -0.33307611165	 
15.0	 -1.25603719932	 -0.528575468541	 
15.0	 -1.23387719093	 -0.72257211176	 
15.0	 -1.16774727356	 -0.904690691745	 
15.0	 -1.06436188494	 -1.08569328866	 
15.0	 -0.875172525924	 -1.0984505854	 
15.5	 -0.383079157975	 -1.22728773191	 
15.5	 -0.246387388296	 -1.06721067098	 
15.5	 -0.0873547557599	 -0.950222334631	 
15.5	 0.0873460647194	 -0.862982831133	 
15.5	 0.271042398227	 -0.792152268777	 
15.5	 0.45706156985	 -0.724390755846	 
15.5	 0.639796679674	 -0.648692473811	 
15.5	 0.819942269081	 -0.567846569086	 
15.5	 1.00139748524	 -0.490934566031	 
15.5	 1.1898717411	 -0.42954826614	 
15.5	 1.38744421563	 -0.387826801557	 
15.5	 1.55818236696	 -0.294460401392	 
15.5	 1.63499151889	 -0.120113241553	 
15.5	 1.60994319772	 0.0727857812711	 
15.5	 1.56497027533	 0.280762604151	 
15.5	 1.55881730908	 0.499263996059	 
15.5	 1.55832061627	 0.707006564936	 
15.5	 1.51155015321	 0.879290856774	 
15.5	 1.37593568875	 0.99504401529	 
15.5	 1.1765521033	 1.05940328247	 
15.5	 0.966826254307	 1.08847493342	 
15.5	 0.770728905407	 1.08660091222	 
15.5	 0.583512089123	 1.04847137926	 
15.5	 0.395893250771	 0.99012533268	 
15.5	 0.196380625164	 0.942734610291	 
15.5	 0.00665272694159	 0.96245931616	 
15.5	 -0.119648313406	 1.10373878629	 
15.5	 -0.226355740888	 1.28839530856	 
15.5	 -0.367409463032	 1.42768714053	 
15.5	 -0.545972344996	 1.52233290815	 
15.5	 -0.738429068518	 1.58653660486	 
15.5	 -0.923203958575	 1.56130538157	 
15.5	 -1.08508086765	 1.43958553127	 
15.5	 -1.21458277605	 1.27122164058	 
15.5	 -1.30804254136	 1.08936656434	 
15.5	 -1.36999924062	 0.899557059061	 
15.5	 -1.40564548847	 0.705130554628	 
15.5	 -1.42017408835	 0.509424224197	 
15.5	 -1.41957122971	 0.314696624562	 
15.5	 -1.41242851456	 0.119664227726	 
15.5	 -1.40787155876	 -0.0776824916463	 
15.5	 -1.41502597821	 -0.27935305889	 
15.5	 -1.43972640556	 -0.486430714919	 
15.5	 -1.45894763531	 -0.691875773111	 
15.5	 -1.43471261639	 -0.884440180954	 
15.5	 -1.33071261082	 -1.05116281645	 
15.5	 -1.15066036447	 -1.14167352803	 
15.5	 -0.939887889248	 -1.11755413327	 
15.5	 -0.754846649065	 -1.14074339531	 
15.5	 -0.578151144314	 -1.19498145409	 
16.0	 -0.532830082381	 -1.24294061865	 
16.0	 -0.385024428309	 -0.904648822314	 
16.0	 -0.225653930868	 -0.811869283088	 
16.0	 -0.0560688844485	 -0.859663682189	 
16.0	 0.12238041656	 -0.943093700835	 
16.0	 0.308438480861	 -0.962978030607	 
16.0	 0.502614084475	 -0.927272216697	 
16.0	 0.701668956017	 -0.911243385309	 
16.0	 0.874945845826	 -0.848253429389	 
16.0	 1.02788581936	 -0.725736128315	 
16.0	 1.2190103205	 -0.657992607536	 
16.0	 1.38335608761	 -0.586996471078	 
16.0	 1.42186501001	 -0.395732895661	 
16.0	 1.40752262186	 -0.183700857781	 
16.0	 1.39036016215	 0.00777489574895	 
16.0	 1.38958048832	 0.194149227071	 
16.0	 1.41621561321	 0.388576615914	 
16.0	 1.42662593306	 0.582437723103	 
16.0	 1.37036662016	 0.76325399793	 
16.0	 1.33018995755	 0.959917168323	 
16.0	 1.23178956948	 1.09035589682	 
16.0	 1.03401532845	 1.16133669822	 
16.0	 0.883658174546	 1.32140667847	 
16.0	 0.770691512397	 1.45963109319	 
16.0	 0.626135102918	 1.40072204243	 
16.0	 0.452229243463	 1.25131910202	 
16.0	 0.269118616042	 1.1627847349	 
16.0	 0.0807023702046	 1.14435635529	 
16.0	 -0.110172951017	 1.17712939403	 
16.0	 -0.29631520082	 1.23192168629	 
16.0	 -0.486402571794	 1.26812980142	 
16.0	 -0.678761784469	 1.2732710684	 
16.0	 -0.877532297662	 1.25379364402	 
16.0	 -1.07181032634	 1.20673239293	 
16.0	 -1.22946204502	 1.11432994461	 
16.0	 -1.33311886911	 0.969375913405	 
16.0	 -1.39514060185	 0.78584988794	 
16.0	 -1.43107688942	 0.58000513177	 
16.0	 -1.45647737799	 0.368094908447	 
16.0	 -1.48688417309	 0.166358698566	 
16.0	 -1.53186885054	 -0.0198770666906	 
16.0	 -1.58408276248	 -0.215068027123	 
16.0	 -1.62565452161	 -0.425092692128	 
16.0	 -1.62952054272	 -0.627073618296	 
16.0	 -1.56807017971	 -0.796421991699	 
16.0	 -1.42554653917	 -0.916056430637	 
16.0	 -1.243203458	 -1.00500258077	 
16.0	 -1.05889940258	 -1.0491710247	 
16.0	 -0.851710830605	 -1.04346947254	 
16.0	 -0.673594325629	 -1.11334453987	 
16.5	 -0.524005556267	 -1.32790545827	 
16.5	 -0.300256393343	 -1.32062349938	 
16.5	 -0.148110153824	 -1.193199962	 
16.5	 -0.0369960061116	 -0.999259731457	 
16.5	 0.0636568813949	 -0.792427693056	 
16.5	 0.184419340294	 -0.626328732115	 
16.5	 0.354577595308	 -0.553311284178	 
16.5	 0.556216495889	 -0.578668867833	 
16.5	 0.744312792368	 -0.639258935495	 
16.5	 0.940964381284	 -0.656313350524	 
16.5	 1.13320329601	 -0.623643229218	 
16.5	 1.33529661695	 -0.610509861129	 
16.5	 1.51373826335	 -0.584099351028	 
16.5	 1.5469673452	 -0.369628018151	 
16.5	 1.55134123672	 -0.167098136271	 
16.5	 1.52040189832	 0.0176069162988	 
16.5	 1.43708081712	 0.195010903538	 
16.5	 1.30175313284	 0.346331520047	 
16.5	 1.12918968593	 0.457267285057	 
16.5	 0.973104535925	 0.571423666637	 
16.5	 0.883959255322	 0.736654494989	 
16.5	 0.831726183173	 0.934406235164	 
16.5	 0.75712408114	 1.12198975525	 
16.5	 0.613191656864	 1.25756809087	 
16.5	 0.427414178931	 1.31387114012	 
16.5	 0.225643206021	 1.31548952551	 
16.5	 0.0277253538633	 1.31617065846	 
16.5	 -0.0934296981419	 1.47310391838	 
16.5	 -0.185743459896	 1.68026172045	 
16.5	 -0.33404799403	 1.75402587466	 
16.5	 -0.542116625742	 1.69422056437	 
16.5	 -0.745827636804	 1.64172467427	 
16.5	 -0.933757471608	 1.58993083333	 
16.5	 -1.10231121268	 1.51069992599	 
16.5	 -1.24759332002	 1.38290546591	 
16.5	 -1.36439310678	 1.21609942995	 
16.5	 -1.44714034572	 1.02822080235	 
16.5	 -1.49378193388	 0.834357566439	 
16.5	 -1.51629888451	 0.638220785656	 
16.5	 -1.52881341319	 0.440671336042	 
16.5	 -1.53364900602	 0.242457943509	 
16.5	 -1.52706564265	 0.0442716986928	 
16.5	 -1.50527353578	 -0.153196780819	 
16.5	 -1.46393988784	 -0.3485675664	 
16.5	 -1.39337093888	 -0.533655387211	 
16.5	 -1.28335834058	 -0.697629091855	 
