25.5	 -1.36038208463	 0.623775411796	 
25.5	 -1.37758386929	 0.442361058146	 
25.5	 -1.3644900795	 0.265272814061	 
25.5	 -1.29720039284	 0.0959235679003	 
25.5	 -1.22991070618	 -0.0734256782601	 
25.5	 -1.16262101952	 -0.242774924421	 
25.5	 -1.09533133287	 -0.412124170581	 
25.5	 -1.02804164621	 -0.581473416741	 
25.5	 -0.901127166261	 -0.691102041338	 
25.5	 -0.731670078173	 -0.758119683808	 
25.5	 -0.583278063108	 -0.856786115544	 
25.5	 -0.456044847531	 -0.987242153962	 
26.0	 0.645610165239	 -0.888829488047	 
26.0	 0.761526296949	 -0.744543017567	 
26.0	 0.87744242866	 -0.600256547088	 
26.0	 0.99335856037	 -0.455970076608	 
26.0	 1.10927469208	 -0.311683606129	 
26.0	 1.22519082379	 -0.16739713565	 
26.0	 1.3411069555	 -0.0231106651702	 
26.0	 1.45702308721	 0.121175805309	 
26.0	 1.51451312027	 0.28240291018	 
26.0	 1.49375866478	 0.466316987214	 
26.0	 1.47300420928	 0.650231064248	 
26.0	 1.45224975379	 0.834145141282	 
26.0	 1.34100175687	 0.969663036303	 
26.0	 1.19955921726	 1.08903281112	 
26.0	 1.05811667764	 1.20840258594	 
26.0	 0.916674138021	 1.32777236076	 
26.0	 0.775231598404	 1.44714213559	 
26.0	 0.630304342894	 1.55877122517	 
26.0	 0.44716629299	 1.58552173603	 
26.0	 0.264028243086	 1.61227224689	 
26.0	 0.0808901931818	 1.63902275775	 
26.0	 -0.102247856722	 1.66577326861	 
26.0	 -0.285385906626	 1.69252377948	 
26.0	 -0.462175113976	 1.68849461305	 
26.0	 -0.619780312263	 1.59145989439	 
26.0	 -0.777385510551	 1.49442517572	 
26.0	 -0.934990708838	 1.39739045705	 
26.0	 -1.09259590713	 1.30035573838	 
26.0	 -1.25020110541	 1.20332101972	 
26.0	 -1.4078063037	 1.10628630105	 
26.0	 -1.56541150199	 1.00925158238	 
26.0	 -1.57865642984	 0.849651589034	 
26.0	 -1.54170450054	 0.668296440016	 
26.0	 -1.50475257124	 0.486941290999	 
26.0	 -1.46780064195	 0.305586141981	 
26.0	 -1.43084871265	 0.124230992963	 
26.0	 -1.37842041106	 -0.0527363883232	 
26.0	 -1.31469126175	 -0.226499821422	 
26.0	 -1.25096211244	 -0.400263254521	 
26.0	 -1.18723296313	 -0.57402668762	 
26.0	 -1.12350381382	 -0.747790120718	 
26.0	 -0.9693804206	 -0.823096445389	 
26.0	 -0.790817472406	 -0.87178328844	 
26.0	 -0.612254524212	 -0.920470131491	 
26.0	 -0.430489510783	 -0.92963871738	 
26.0	 -0.246417480485	 -0.910335276859	 
26.0	 -0.0623454501865	 -0.891031836338	 
26.0	 0.111439694225	 -0.948340952339	 
26.0	 0.286320273524	 -0.977887414854	 
26.0	 0.465965219381	 -0.93335845145	 
26.5	 0.846556297108	 -0.817482433131	 
26.5	 0.915734379407	 -0.649786697384	 
26.5	 0.984912461705	 -0.482090961636	 
26.5	 1.054090544	 -0.314395225889	 
26.5	 1.1232686263	 -0.146699490142	 
26.5	 1.1924467086	 0.0209962456056	 
26.5	 1.2616247909	 0.188691981353	 
26.5	 1.31009777546	 0.361114460987	 
26.5	 1.32054656679	 0.542217441687	 
26.5	 1.33099535811	 0.723320422386	 
26.5	 1.34144414944	 0.904423403086	 
26.5	 1.29312740819	 1.05398830294	 
26.5	 1.13643226274	 1.14538905924	 
26.5	 0.979737117291	 1.23678981554	 
26.5	 0.823041971844	 1.32819057183	 
26.5	 0.664414797262	 1.41388007781	 
26.5	 0.484411325372	 1.43637934371	 
26.5	 0.304407853483	 1.45887860961	 
26.5	 0.124404381593	 1.48137787551	 
26.5	 -0.0555990902962	 1.50387714141	 
26.5	 -0.235602562186	 1.52637640732	 
26.5	 -0.415606034075	 1.54887567322	 
26.5	 -0.595609505965	 1.57137493912	 
26.5	 -0.759697233755	 1.51847184693	 
26.5	 -0.915252149543	 1.42514374273	 
26.5	 -1.07080706533	 1.33181563853	 
26.5	 -1.22636198112	 1.23848753434	 
26.5	 -1.3819168969	 1.14515943014	 
26.5	 -1.49013670415	 1.02771556607	 
26.5	 -1.47419158053	 0.847013546456	 
26.5	 -1.45824645691	 0.666311526846	 
26.5	 -1.44230133329	 0.485609507236	 
26.5	 -1.42635620967	 0.304907487626	 
26.5	 -1.40977565152	 0.124296770731	 
26.5	 -1.37419759411	 -0.0535842813494	 
26.5	 -1.3386195367	 -0.23146533343	 
26.5	 -1.30304147929	 -0.40934638551	 
26.5	 -1.26746342188	 -0.58722743759	 
26.5	 -1.19087284018	 -0.735012581258	 
26.5	 -1.03185593837	 -0.822311446071	 
26.5	 -0.872839036558	 -0.909610310883	 
26.5	 -0.71382213475	 -0.996909175696	 
26.5	 -0.554805232941	 -1.08420804051	 
26.5	 -0.37728542707	 -1.08019799382	 
26.5	 -0.196827844895	 -1.0616904847	 
26.5	 -0.0163702627196	 -1.04318297558	 
26.5	 0.164893200907	 -1.04043218762	 
26.5	 0.343064241828	 -1.02403255295	 
26.5	 0.510894926921	 -0.955182513008	 
26.5	 0.678725612014	 -0.886332473069	 
27.0	 0.298815529204	 -0.93652070499	 
27.0	 0.465797247276	 -0.860565595102	 
27.0	 0.632778965347	 -0.784610485213	 
27.0	 0.790873437898	 -0.696804360645	 
27.0	 0.910560473789	 -0.557782469103	 
27.0	 1.03024750968	 -0.41876057756	 
27.0	 1.14993454557	 -0.279738686018	 
27.0	 1.26962158146	 -0.140716794476	 
27.0	 1.37165081091	 0.00650340880864	 
27.0	 1.40061316683	 0.187647701648	 
27.0	 1.42957552274	 0.368791994486	 
27.0	 1.45853787866	 0.549936287325	 
27.0	 1.48750023458	 0.731080580164	 
27.0	 1.43148986222	 0.899441262043	 
27.0	 1.35051178911	 1.06404571084	 
27.0	 1.269533716	 1.22865015963	 
27.0	 1.18855564289	 1.39325460843	 
27.0	 1.05257224325	 1.48614561461	 
27.0	 0.872603936712	 1.52169109998	 
27.0	 0.692635630174	 1.55723658535	 
27.0	 0.512667323636	 1.59278207073	 
27.0	 0.332630344631	 1.62524321885	 
27.0	 0.151258330339	 1.5977429403	 
27.0	 -0.0301136839528	 1.57024266176	 
27.0	 -0.211485698245	 1.54274238322	 
27.0	 -0.392857712537	 1.51524210467	 
27.0	 -0.574229726829	 1.48774182613	 
27.0	 -0.755601741121	 1.46024154758	 
27.0	 -0.936973755413	 1.43274126904	 
27.0	 -1.08957136434	 1.36635227612	 
27.0	 -1.16890756359	 1.20095021937	 
27.0	 -1.24824376285	 1.03554816262	 
27.0	 -1.3275799621	 0.870146105877	 
27.0	 -1.40691616136	 0.704744049131	 
27.0	 -1.45138971328	 0.531413389355	 
27.0	 -1.45138971328	 0.347968376099	 
27.0	 -1.45138971328	 0.164523362843	 
27.0	 -1.45138971328	 -0.0189216504126	 
27.0	 -1.45138971328	 -0.202366663668	 
27.0	 -1.42983144178	 -0.378805332072	 
27.0	 -1.32198477315	 -0.52720064519	 
27.0	 -1.21413810453	 -0.675595958308	 
27.0	 -1.10629143591	 -0.823991271426	 
27.0	 -0.980377132965	 -0.940767324507	 
27.0	 -0.797775508215	 -0.958337740756	 
27.0	 -0.615173883465	 -0.975908157006	 
27.0	 -0.43240138861	 -0.989918815363	 
27.0	 -0.248989345045	 -0.989231953738	 
27.0	 -0.0663877202955	 -0.971661537489	 
27.0	 0.116213904454	 -0.95409112124	 
27.5	 -0.0174434289348	 -1.09456334093	 
27.5	 0.156485616811	 -1.03023130605	 
27.5	 0.330414662557	 -0.965899271185	 
27.5	 0.504343708303	 -0.901567236315	 
27.5	 0.678272754049	 -0.837235201444	 
27.5	 0.852201799795	 -0.772903166574	 
27.5	 1.02613084554	 -0.708571131704	 
27.5	 1.12933538403	 -0.567356027805	 
27.5	 1.20793213304	 -0.399390332768	 
27.5	 1.28652888206	 -0.231424637731	 
27.5	 1.36512563107	 -0.0634589426936	 
27.5	 1.44372238008	 0.104506752344	 
27.5	 1.44780460159	 0.289044091416	 
27.5	 1.44780460159	 0.474489295357	 
27.5	 1.44780460159	 0.659934499297	 
27.5	 1.44780460159	 0.845379703238	 
27.5	 1.38722206116	 1.01310041531	 
27.5	 1.28726723998	 1.16930207147	 
27.5	 1.1873124188	 1.32550372763	 
27.5	 1.08735759763	 1.48170538379	 
27.5	 0.951740865377	 1.57555684938	 
27.5	 0.766426369799	 1.58251827118	 
27.5	 0.581111874222	 1.58947969298	 
27.5	 0.395797378644	 1.59644111478	 
27.5	 0.210482883067	 1.60340253658	 
27.5	 0.025168387489	 1.61036395838	 
27.5	 -0.160146108089	 1.61732538018	 
27.5	 -0.340861745908	 1.6055893944	 
27.5	 -0.501804086399	 1.5134618377	 
27.5	 -0.66274642689	 1.42133428101	 
27.5	 -0.823688767381	 1.32920672432	 
27.5	 -0.984631107872	 1.23707916763	 
27.5	 -1.14557344836	 1.14495161094	 
27.5	 -1.22562649005	 0.989954937339	 
27.5	 -1.27517946887	 0.811252878162	 
27.5	 -1.32473244769	 0.632550818984	 
27.5	 -1.37428542652	 0.453848759806	 
27.5	 -1.42383840534	 0.275146700629	 
27.5	 -1.47339138416	 0.0964446414509	 
27.5	 -1.52294436299	 -0.0822574177268	 
27.5	 -1.4223384902	 -0.235517968268	 
27.5	 -1.31668575661	 -0.38792342601	 
27.5	 -1.21103302302	 -0.540328883753	 
27.5	 -1.10504480602	 -0.692313372207	 
27.5	 -0.932904726032	 -0.761289574808	 
27.5	 -0.76076464604	 -0.830265777409	 
27.5	 -0.577764148628	 -0.842939584391	 
27.5	 -0.392318944687	 -0.842939584391	 
27.5	 -0.206873740746	 -0.842939584391	 
27.5	 -0.0759943763408	 -0.918603941567	 
28.0	 0.100483069773	 -0.998022825423	 
28.0	 0.282336389131	 -0.985771384929	 
28.0	 0.464189708489	 -0.973519944434	 
28.0	 0.646043027847	 -0.96126850394	 
28.0	 0.815676198053	 -0.923397952496	 
28.0	 0.939637448124	 -0.789777834113	 
28.0	 1.06359869819	 -0.656157715729	 
28.0	 1.18755994826	 -0.522537597346	 
28.0	 1.24067986705	 -0.354639460669	 
28.0	 1.26853063349	 -0.174514330927	 
28.0	 1.29638139993	 0.00561079881503	 
28.0	 1.32423216636	 0.185735928557	 
28.0	 1.34660522681	 0.365861058299	 
28.0	 1.31875446037	 0.545986188041	 
28.0	 1.29090369393	 0.726111317783	 
28.0	 1.26305292749	 0.906236447525	 
28.0	 1.23520216105	 1.08636157727	 
28.0	 1.14641075055	 1.22344478091	 
28.0	 0.985964553478	 1.30991873884	 
28.0	 0.825518356403	 1.39639269677	 
28.0	 0.665072159329	 1.4828666547	 
28.0	 0.50102234175	 1.55505882101	 
28.0	 0.318756800421	 1.55505882101	 
28.0	 0.136491259093	 1.55505882101	 
28.0	 -0.0457742822356	 1.55505882101	 
28.0	 -0.228039823564	 1.55505882101	 
28.0	 -0.410305364893	 1.55505882101	 
28.0	 -0.592570906221	 1.55505882101	 
28.0	 -0.77483644755	 1.55505882101	 
28.0	 -0.908083399155	 1.44271940961	 
28.0	 -1.03204464923	 1.30909929123	 
28.0	 -1.1560058993	 1.17547917285	 
28.0	 -1.27996714937	 1.04185905446	 
28.0	 -1.40392839944	 0.908238936079	 
28.0	 -1.44982714958	 0.743985185628	 
28.0	 -1.44982714958	 0.5617196443	 
28.0	 -1.44982714958	 0.379454102971	 
28.0	 -1.44982714958	 0.197188561643	 
28.0	 -1.44982714958	 0.0149230203141	 
28.0	 -1.44982714958	 -0.167342521014	 
28.0	 -1.3813869125	 -0.331843488649	 
28.0	 -1.29274041229	 -0.491099651973	 
28.0	 -1.20409391208	 -0.650355815296	 
28.0	 -1.11544741187	 -0.80961197862	 
28.0	 -0.989656051739	 -0.91170431943	 
28.0	 -0.808121422901	 -0.928010946557	 
28.0	 -0.626586794062	 -0.944317573683	 
28.0	 -0.444907160052	 -0.958830412722	 
28.0	 -0.263110416777	 -0.971894550289	 
28.0	 -0.0813136735024	 -0.984958687856	 
28.5	 0.629506881084	 -0.797192003211	 
28.5	 0.738880910697	 -0.650035429683	 
28.5	 0.848254940309	 -0.502878856155	 
28.5	 0.957628969922	 -0.355722282627	 
28.5	 1.06700299953	 -0.208565709099	 
28.5	 1.12704173932	 -0.0388261312354	 
28.5	 1.16694457456	 0.140130565276	 
28.5	 1.20684740979	 0.319087261788	 
28.5	 1.23731167133	 0.498777200317	 
28.5	 1.22552552781	 0.681749390299	 
28.5	 1.21373938428	 0.864721580282	 
28.5	 1.20195324076	 1.04769377026	 
28.5	 1.15837830383	 1.20790871664	 
28.5	 0.988969869224	 1.27804086171	 
28.5	 0.819561434623	 1.34817300678	 
28.5	 0.650153000021	 1.41830515185	 
28.5	 0.48074456542	 1.48843729692	 
28.5	 0.311336130818	 1.55856944199	 
28.5	 0.13297955014	 1.57388370381	 
28.5	 -0.0499369695523	 1.56126299426	 
28.5	 -0.232853489245	 1.5486422847	 
28.5	 -0.415770008938	 1.53602157515	 
28.5	 -0.59868652863	 1.52340086559	 
28.5	 -0.781603048323	 1.51078015604	 
28.5	 -0.964519568016	 1.49815944649	 
28.5	 -1.14743608771	 1.48553873693	 
28.5	 -1.22633539813	 1.32346890582	 
28.5	 -1.3017020543	 1.15632345232	 
28.5	 -1.37706871047	 0.989177998828	 
28.5	 -1.45243536664	 0.822032545333	 
28.5	 -1.49474915093	 0.645756564907	 
28.5	 -1.51586670243	 0.463625336105	 
28.5	 -1.53698425394	 0.281494107304	 
28.5	 -1.55810180544	 0.0993628785024	 
28.5	 -1.57921935694	 -0.082768350299	 
28.5	 -1.60033690844	 -0.2648995791	 
28.5	 -1.62145445994	 -0.447030807902	 
28.5	 -1.48164932982	 -0.557593423839	 
28.5	 -1.33225587577	 -0.663891736974	 
28.5	 -1.18286242173	 -0.770190050108	 
28.5	 -1.03346896769	 -0.876488363243	 
28.5	 -0.884075513644	 -0.982786676377	 
28.5	 -0.706570464894	 -1.02351957726	 
28.5	 -0.526576767143	 -1.05844813658	 
28.5	 -0.346583069393	 -1.0933766959	 
28.5	 -0.166589371642	 -1.12830525522	 
28.5	 0.0159154843855	 -1.13711143605	 
28.5	 0.199266883306	 -1.13711143605	 
28.5	 0.343853413123	 -1.0271333831	 
28.5	 0.486680147103	 -0.912162693156	 
29.0	 0.771228278404	 -0.94147859776	 
29.0	 0.886804767682	 -0.806031957197	 
29.0	 1.00238125696	 -0.670585316634	 
29.0	 1.11795774624	 -0.535138676071	 
29.0	 1.23353423552	 -0.399692035508	 
29.0	 1.34911072479	 -0.264245394945	 
29.0	 1.41082576607	 -0.11014339989	 
29.0	 1.40378504004	 0.0677727193646	 
29.0	 1.39674431401	 0.245688838619	 
29.0	 1.38970358798	 0.423604957874	 
29.0	 1.38266286196	 0.601521077128	 
29.0	 1.37562213593	 0.779437196383	 
29.0	 1.31585729982	 0.924736499145	 
29.0	 1.15979877295	 1.01046545285	 
29.0	 1.00374024607	 1.09619440655	 
29.0	 0.847681719196	 1.18192336025	 
29.0	 0.69162319232	 1.26765231395	 
29.0	 0.535564665444	 1.35338126766	 
29.0	 0.373222434425	 1.42049358897	 
29.0	 0.197132341399	 1.44687533363	 
29.0	 0.0210422483722	 1.4732570783	 
29.0	 -0.155047844654	 1.49963882296	 
29.0	 -0.33113793768	 1.52602056763	 
29.0	 -0.507228030707	 1.55240231229	 
29.0	 -0.649320666434	 1.44861157205	 
29.0	 -0.790021747436	 1.33949272346	 
29.0	 -0.930722828439	 1.23037387487	 
29.0	 -1.07142390944	 1.12125502628	 
29.0	 -1.21212499044	 1.01213617768	 
29.0	 -1.28305617321	 0.854991672208	 
29.0	 -1.33475049336	 0.684605597139	 
29.0	 -1.38644481352	 0.514219522071	 
29.0	 -1.43813913367	 0.343833447002	 
29.0	 -1.48983345383	 0.173447371933	 
29.0	 -1.44894139343	 0.00602558552678	 
29.0	 -1.38645379611	 -0.160704788116	 
29.0	 -1.3239661988	 -0.327435161759	 
29.0	 -1.26147860148	 -0.494165535401	 
29.0	 -1.19801937162	 -0.66011370041	 
29.0	 -1.04847633098	 -0.756760460887	 
29.0	 -0.898933290342	 -0.853407221364	 
29.0	 -0.749390249705	 -0.950053981841	 
29.0	 -0.599847209068	 -1.04670074232	 
29.0	 -0.446299862137	 -1.12977431731	 
29.0	 -0.268244485039	 -1.12977431731	 
29.0	 -0.0901891079405	 -1.12977431731	 
29.0	 0.0878662691577	 -1.12977431731	 
29.0	 0.261582070605	 -1.10146046767	 
29.0	 0.431464139872	 -1.0481331777	 
29.0	 0.601346209138	 -0.994805887729	 
29.5	 0.304845737382	 -1.12628548732	 
29.5	 0.475679823064	 -1.06353153914	 
29.5	 0.646513908747	 -1.00077759096	 
29.5	 0.81734799443	 -0.938023642787	 
29.5	 0.988182080112	 -0.87526969461	 
29.5	 1.14465830163	 -0.798604758114	 
29.5	 1.20198113078	 -0.625872491001	 
29.5	 1.25930395992	 -0.453140223888	 
29.5	 1.31662678906	 -0.280407956775	 
29.5	 1.3739496182	 -0.107675689662	 
29.5	 1.40743892614	 0.0694167272549	 
29.5	 1.41498205169	 0.251255788239	 
29.5	 1.42252517725	 0.433094849224	 
29.5	 1.4300683028	 0.614933910208	 
29.5	 1.42980074187	 0.79417942306	 
29.5	 1.31498850558	 0.9353902344	 
29.5	 1.20017626928	 1.07660104574	 
29.5	 1.08536403298	 1.21781185708	 
29.5	 0.970351868952	 1.35863396529	 
29.5	 0.788705777688	 1.36990518401	 
29.5	 0.607059686424	 1.38117640273	 
29.5	 0.425413595161	 1.39244762145	 
29.5	 0.243767503897	 1.40371884017	 
29.5	 0.0621214126329	 1.41499005888	 
29.5	 -0.119524678631	 1.4262612776	 
29.5	 -0.301092608329	 1.43154416003	 
29.5	 -0.482382638194	 1.4155357899	 
29.5	 -0.66367266806	 1.39952741978	 
29.5	 -0.844962697926	 1.38351904965	 
29.5	 -1.02625272779	 1.36751067952	 
29.5	 -1.18547157046	 1.30281944624	 
29.5	 -1.31698324454	 1.17701395182	 
29.5	 -1.44849491861	 1.0512084574	 
29.5	 -1.51800479015	 0.903191639274	 
29.5	 -1.49629311517	 0.722495911565	 
29.5	 -1.47458144019	 0.541800183856	 
29.5	 -1.45286976521	 0.361104456146	 
29.5	 -1.43115809023	 0.180408728437	 
29.5	 -1.40944641525	 -0.00028699927206	 
29.5	 -1.36258496126	 -0.170284065774	 
29.5	 -1.24746497517	 -0.311244101404	 
29.5	 -1.13234498907	 -0.452204137034	 
29.5	 -1.01722500298	 -0.593164172665	 
29.5	 -0.90210501689	 -0.734124208295	 
29.5	 -0.734733149664	 -0.801144585127	 
29.5	 -0.563426646457	 -0.862597207542	 
29.5	 -0.392120143249	 -0.924049829958	 
29.5	 -0.215199981817	 -0.965613625801	 
29.5	 -0.0370435943518	 -1.00279755308	 
29.5	 0.134869084187	 -1.06124488299	 
30.0	 0.640638589572	 -0.893842244648	 
30.0	 0.783254580805	 -0.774294790983	 
30.0	 0.925870572039	 -0.654747337318	 
30.0	 1.06848656327	 -0.535199883654	 
30.0	 1.21110255451	 -0.415652429989	 
30.0	 1.31798606072	 -0.278751093141	 
30.0	 1.32376461469	 -0.092746999242	 
30.0	 1.32954316865	 0.0932570946575	 
30.0	 1.33532172261	 0.279261188557	 
30.0	 1.34110027657	 0.465265282456	 
30.0	 1.34687883054	 0.651269376356	 
30.0	 1.3526573845	 0.837273470255	 
30.0	 1.35843593846	 1.02327756415	 
30.0	 1.22673808794	 1.15033120242	 
30.0	 1.08801147286	 1.27437087713	 
30.0	 0.949284857779	 1.39841055184	 
30.0	 0.8105582427	 1.52245022655	 
30.0	 0.653666950834	 1.59678371035	 
30.0	 0.467650476701	 1.59141845318	 
30.0	 0.281634002568	 1.58605319601	 
30.0	 0.0956175284355	 1.58068793884	 
30.0	 -0.0903989456972	 1.57532268168	 
30.0	 -0.27641541983	 1.56995742451	 
30.0	 -0.462431893963	 1.56459216734	 
30.0	 -0.644115465595	 1.53783047025	 
30.0	 -0.817563787726	 1.47040203276	 
30.0	 -0.991012109857	 1.40297359526	 
30.0	 -1.16446043199	 1.33554515777	 
30.0	 -1.33790875412	 1.26811672027	 
30.0	 -1.51135707625	 1.20068828277	 
30.0	 -1.58203590173	 1.04752821889	 
30.0	 -1.61727100109	 0.864800546089	 
30.0	 -1.65250610046	 0.682072873291	 
30.0	 -1.68774119982	 0.499345200494	 
30.0	 -1.72297629919	 0.316617527696	 
30.0	 -1.75821139855	 0.133889854898	 
30.0	 -1.66534359034	 -0.00734739290933	 
30.0	 -1.5296717481	 -0.134721118045	 
30.0	 -1.39399990585	 -0.262094843181	 
30.0	 -1.25832806361	 -0.389468568317	 
30.0	 -1.12265622136	 -0.516842293453	 
30.0	 -0.986984379117	 -0.644216018589	 
30.0	 -0.829006134046	 -0.732789471236	 
30.0	 -0.650664819814	 -0.78594293087	 
30.0	 -0.472323505581	 -0.839096390504	 
30.0	 -0.288930336862	 -0.863610514434	 
30.0	 -0.10316623945	 -0.874683668735	 
30.0	 0.0825978579611	 -0.885756823035	 
30.0	 0.268450923826	 -0.893842244648	 
30.0	 0.454544756699	 -0.893842244648	 
30.5	 0.757610161817	 -0.789480154431	 
30.5	 0.871643948408	 -0.65120433005	 
30.5	 0.985677734999	 -0.512928505668	 
30.5	 1.09971152159	 -0.374652681286	 
30.5	 1.21374530818	 -0.236376856905	 
30.5	 1.24792372758	 -0.0653701817867	 
30.5	 1.26374208656	 0.113161853467	 
30.5	 1.27956044555	 0.29169388872	 
30.5	 1.29537880453	 0.470225923974	 
30.5	 1.31119716352	 0.648757959227	 
30.5	 1.27794904356	 0.807543489013	 
30.5	 1.14287166454	 0.925348453973	 
30.5	 1.00779428552	 1.04315341893	 
30.5	 0.872716906494	 1.16095838389	 
30.5	 0.737639527472	 1.27876334885	 
30.5	 0.602562148449	 1.39656831381	 
30.5	 0.467484769426	 1.51437327877	 
30.5	 0.292834851016	 1.53202251048	 
30.5	 0.113715487761	 1.53835984427	 
30.5	 -0.0654038754949	 1.54469717806	 
30.5	 -0.244523238751	 1.55103451185	 
30.5	 -0.423642602006	 1.55737184564	 
30.5	 -0.602761965262	 1.56370917944	 
30.5	 -0.781881328518	 1.57004651323	 
30.5	 -0.927001091791	 1.47347162863	 
30.5	 -1.06709205974	 1.36167525663	 
30.5	 -1.20718302769	 1.24987888463	 
30.5	 -1.34727399563	 1.13808251263	 
30.5	 -1.48736496358	 1.02628614063	 
30.5	 -1.58339569923	 0.89472994807	 
30.5	 -1.57370524928	 0.715760667822	 
30.5	 -1.56401479933	 0.536791387574	 
30.5	 -1.55432434937	 0.357822107326	 
30.5	 -1.54463389942	 0.178852827078	 
30.5	 -1.46086449137	 0.0248402135761	 
30.5	 -1.36028377192	 -0.123508790357	 
30.5	 -1.25970305247	 -0.27185779429	 
30.5	 -1.15912233302	 -0.420206798224	 
30.5	 -1.05854161357	 -0.568555802157	 
30.5	 -0.957960894126	 -0.71690480609	 
30.5	 -0.857380174678	 -0.865253810023	 
30.5	 -0.69681666558	 -0.93901975787	 
30.5	 -0.530347885378	 -1.00544304679	 
30.5	 -0.363879105176	 -1.07186633571	 
30.5	 -0.197410324974	 -1.13828962463	 
30.5	 -0.0291445081398	 -1.1816435562	 
30.5	 0.145602156229	 -1.14179996971	 
30.5	 0.320348820597	 -1.10195638321	 
30.5	 0.46646027541	 -0.998591072406	 
30.5	 0.612035218614	 -0.894035613418	 
31.0	 0.283030939678	 -1.05189902254	 
31.0	 0.447939686306	 -0.975994983274	 
31.0	 0.612848432935	 -0.900090944007	 
31.0	 0.777757179563	 -0.82418690474	 
31.0	 0.942665926192	 -0.748282865473	 
31.0	 1.10757467282	 -0.672378826206	 
31.0	 1.27248341945	 -0.596474786939	 
31.0	 1.43005106363	 -0.515868297064	 
31.0	 1.43005106363	 -0.334329546678	 
31.0	 1.43005106363	 -0.152790796292	 
31.0	 1.43005106363	 0.0287479540935	 
31.0	 1.43005106363	 0.210286704479	 
31.0	 1.4204035778	 0.390503327238	 
31.0	 1.37156334381	 0.565348828853	 
31.0	 1.32272310981	 0.740194330468	 
31.0	 1.27388287582	 0.915039832083	 
31.0	 1.22504264183	 1.0898853337	 
31.0	 1.15480229993	 1.24130505676	 
31.0	 0.976264291551	 1.27417597786	 
31.0	 0.797726283168	 1.30704689897	 
31.0	 0.619188274785	 1.33991782007	 
31.0	 0.440650266401	 1.37278874117	 
31.0	 0.262112258018	 1.40565966227	 
31.0	 0.0835742496346	 1.43853058338	 
31.0	 -0.0949637587488	 1.47140150448	 
31.0	 -0.273815403259	 1.49776808458	 
31.0	 -0.454687778331	 1.48222775552	 
31.0	 -0.635560153404	 1.46668742646	 
31.0	 -0.816432528476	 1.4511470974	 
31.0	 -0.997304903549	 1.43560676834	 
31.0	 -1.17817727862	 1.42006643929	 
31.0	 -1.29404088299	 1.32860244312	 
31.0	 -1.3372451603	 1.15227970405	 
31.0	 -1.38044943762	 0.975956964975	 
31.0	 -1.42365371494	 0.799634225905	 
31.0	 -1.46685799225	 0.623311486835	 
31.0	 -1.4312031216	 0.451870294064	 
31.0	 -1.36658252197	 0.282222140536	 
31.0	 -1.30196192234	 0.112573987009	 
31.0	 -1.23734132271	 -0.0570741665181	 
31.0	 -1.17272072308	 -0.226722320045	 
31.0	 -1.106326394	 -0.395176208715	 
31.0	 -0.973442843153	 -0.518862423812	 
31.0	 -0.840559292303	 -0.64254863891	 
31.0	 -0.707675741453	 -0.766234854007	 
31.0	 -0.574792190603	 -0.889921069104	 
31.0	 -0.424853145066	 -0.982823288286	 
31.0	 -0.249524172848	 -1.02989843452	 
31.0	 -0.0741952006292	 -1.07697358074	 
31.0	 0.103591870599	 -1.07942970324	 
31.5	 0.0328364386012	 -1.12480776026	 
31.5	 0.208737428613	 -1.07870571141	 
31.5	 0.384638418624	 -1.03260366256	 
31.5	 0.560539408636	 -0.986501613709	 
31.5	 0.736440398647	 -0.94039956486	 
31.5	 0.912341388659	 -0.894297516011	 
31.5	 1.0649551235	 -0.817596827892	 
31.5	 1.15626096635	 -0.66033971277	 
31.5	 1.2475668092	 -0.503082597648	 
31.5	 1.33887265205	 -0.345825482525	 
31.5	 1.4301784949	 -0.188568367403	 
31.5	 1.48246085818	 -0.019638851607	 
31.5	 1.49250078376	 0.161925894667	 
31.5	 1.50254070934	 0.343490640941	 
31.5	 1.51258063492	 0.525055387215	 
31.5	 1.50857966194	 0.702448819248	 
31.5	 1.40103767666	 0.849081962145	 
31.5	 1.29349569137	 0.995715105043	 
31.5	 1.18595370609	 1.14234824794	 
31.5	 1.0784117208	 1.28898139084	 
31.5	 0.953889680893	 1.40718278932	 
31.5	 0.773795115424	 1.43233243511	 
31.5	 0.593700549955	 1.45748208091	 
31.5	 0.413605984485	 1.4826317267	 
31.5	 0.233511419016	 1.50778137249	 
31.5	 0.053416853547	 1.53293101829	 
31.5	 -0.126677711922	 1.55808066408	 
31.5	 -0.306772277391	 1.58323030988	 
31.5	 -0.486866842861	 1.60837995567	 
31.5	 -0.663029433079	 1.60855712235	 
31.5	 -0.826682331861	 1.52928363424	 
31.5	 -0.990335230642	 1.45001014614	 
31.5	 -1.15398812942	 1.37073665804	 
31.5	 -1.3176410282	 1.29146316994	 
31.5	 -1.34270456071	 1.11482243192	 
31.5	 -1.3617948938	 0.93398516702	 
31.5	 -1.38088522688	 0.753147902116	 
31.5	 -1.39997555996	 0.572310637213	 
31.5	 -1.38439097917	 0.396977945186	 
31.5	 -1.31023542406	 0.230943277596	 
31.5	 -1.23607986895	 0.0649086100064	 
31.5	 -1.16192431384	 -0.101126057583	 
31.5	 -1.08776875874	 -0.267160725173	 
31.5	 -1.01361320363	 -0.433195392763	 
31.5	 -0.901294717067	 -0.565475331586	 
31.5	 -0.74555971773	 -0.659353801837	 
31.5	 -0.589824718393	 -0.753232272088	 
31.5	 -0.429216871761	 -0.838188736146	 
31.5	 -0.266059318237	 -0.91847677961	 
31.5	 -0.11490054737	 -1.01878728973	 
32.0	 0.713889994489	 -0.909607278498	 
32.0	 0.84048629291	 -0.772015973949	 
32.0	 0.967082591332	 -0.6344246694	 
32.0	 1.09367888975	 -0.496833364851	 
32.0	 1.22027518818	 -0.359242060303	 
32.0	 1.2848406502	 -0.188743784076	 
32.0	 1.32777223607	 -0.00676887152998	 
32.0	 1.37070382194	 0.175206041016	 
32.0	 1.41363540781	 0.357180953563	 
32.0	 1.34439918375	 0.525653245748	 
32.0	 1.25950805849	 0.692241020551	 
32.0	 1.17461693323	 0.858828795354	 
32.0	 1.08972580797	 1.02541657016	 
32.0	 1.00483468271	 1.19200434496	 
32.0	 0.918611060742	 1.35716757259	 
32.0	 0.746731996556	 1.43075817767	 
32.0	 0.57485293237	 1.50434878275	 
32.0	 0.402973868184	 1.57793938783	 
32.0	 0.231094803998	 1.65152999291	 
32.0	 0.0592157398123	 1.72512059799	 
32.0	 -0.122348984368	 1.73054540269	 
32.0	 -0.307924167409	 1.70774537415	 
32.0	 -0.493499350449	 1.68494534562	 
32.0	 -0.679074533489	 1.66214531709	 
32.0	 -0.86464971653	 1.63934528856	 
32.0	 -1.03245194598	 1.56953191116	 
32.0	 -1.18670006316	 1.46386494277	 
32.0	 -1.34094818034	 1.35819797439	 
32.0	 -1.49519629752	 1.25253100601	 
32.0	 -1.6494444147	 1.14686403762	 
32.0	 -1.80369253188	 1.04119706924	 
32.0	 -1.82740299371	 0.886202120023	 
32.0	 -1.78158323837	 0.704932873095	 
32.0	 -1.73576348303	 0.523663626168	 
32.0	 -1.68994372769	 0.34239437924	 
32.0	 -1.63500701284	 0.165685985551	 
32.0	 -1.51742291287	 0.0203175938793	 
32.0	 -1.39983881291	 -0.125050797792	 
32.0	 -1.28225471294	 -0.270419189464	 
32.0	 -1.16467061298	 -0.415787581135	 
32.0	 -1.04708651302	 -0.561155972807	 
32.0	 -0.903570091198	 -0.672582078391	 
32.0	 -0.732406059353	 -0.747820792254	 
32.0	 -0.561242027507	 -0.823059506117	 
32.0	 -0.390077995661	 -0.898298219981	 
32.0	 -0.205483300675	 -0.909607278498	 
32.0	 -0.0194728532506	 -0.899324688651	 
32.0	 0.164265704608	 -0.864710642118	 
32.0	 0.347934408055	 -0.833196180843	 
32.0	 0.53015143663	 -0.874993231965	 
32.5	 0.471022580434	 -0.960117401793	 
32.5	 0.647548416455	 -0.897557963242	 
32.5	 0.824074252476	 -0.834998524691	 
32.5	 1.0006000885	 -0.772439086141	 
32.5	 1.17712592452	 -0.70987964759	 
32.5	 1.35365176054	 -0.64732020904	 
32.5	 1.38616034373	 -0.465205131191	 
32.5	 1.41516517338	 -0.280181419219	 
32.5	 1.44417000302	 -0.0951577072467	 
32.5	 1.47317483266	 0.0898660047254	 
32.5	 1.45044548182	 0.271046018226	 
32.5	 1.39441660049	 0.449751973896	 
32.5	 1.33838771916	 0.628457929565	 
32.5	 1.28235883783	 0.807163885235	 
32.5	 1.22632995651	 0.985869840904	 
32.5	 1.13448474041	 1.13536972941	 
32.5	 0.970710280393	 1.22621564501	 
32.5	 0.80693582038	 1.31706156061	 
32.5	 0.643161360367	 1.40790747622	 
32.5	 0.479386900353	 1.49875339182	 
32.5	 0.31561244034	 1.58959930743	 
32.5	 0.14239176882	 1.64394202609	 
32.5	 -0.0448915837094	 1.64394202609	 
32.5	 -0.232174936239	 1.64394202609	 
32.5	 -0.419458288768	 1.64394202609	 
32.5	 -0.606741641297	 1.64394202609	 
32.5	 -0.794024993826	 1.64394202609	 
32.5	 -0.981308346356	 1.64394202609	 
32.5	 -1.14559656641	 1.573514165	 
32.5	 -1.29679557034	 1.46299758097	 
32.5	 -1.44799457426	 1.35248099694	 
32.5	 -1.59919357819	 1.24196441291	 
32.5	 -1.7140179911	 1.12045550391	 
32.5	 -1.64933029068	 0.94469841145	 
32.5	 -1.58464259026	 0.768941318993	 
32.5	 -1.51995488984	 0.593184226536	 
32.5	 -1.45526718942	 0.41742713408	 
32.5	 -1.390579489	 0.241670041623	 
32.5	 -1.31787341026	 0.0696217190346	 
32.5	 -1.22582701574	 -0.0934810565083	 
32.5	 -1.13378062122	 -0.256583832051	 
32.5	 -1.04173422669	 -0.419686607594	 
32.5	 -0.936833001706	 -0.568775101391	 
32.5	 -0.766407342652	 -0.646429134581	 
32.5	 -0.595981683599	 -0.724083167771	 
32.5	 -0.425556024545	 -0.801737200962	 
32.5	 -0.252669544121	 -0.873626522793	 
32.5	 -0.0787029386095	 -0.94298554745	 
32.5	 0.104062042557	 -0.941539065525	 
32.5	 0.289713117098	 -0.916866557414	 
33.0	 0.361507010291	 -1.066302619	 
33.0	 0.523629567336	 -0.987348730355	 
33.0	 0.68575212438	 -0.908394841714	 
33.0	 0.847874681424	 -0.829440953072	 
33.0	 1.00999723847	 -0.750487064431	 
33.0	 1.17211979551	 -0.67153317579	 
33.0	 1.29257524581	 -0.562494115768	 
33.0	 1.31651015584	 -0.38376370393	 
33.0	 1.34044506586	 -0.205033292091	 
33.0	 1.36437997589	 -0.0263028802519	 
33.0	 1.38831488592	 0.152427531587	 
33.0	 1.38529101688	 0.326967615583	 
33.0	 1.30823426692	 0.490000426144	 
33.0	 1.23117751695	 0.653033236704	 
33.0	 1.15412076699	 0.816066047265	 
33.0	 1.07706401703	 0.979098857826	 
33.0	 0.943491444879	 1.07273318804	 
33.0	 0.768232053653	 1.11517827988	 
33.0	 0.592972662426	 1.15762337171	 
33.0	 0.417713271199	 1.20006846355	 
33.0	 0.242453879973	 1.24251355539	 
33.0	 0.0671944887462	 1.28495864722	 
33.0	 -0.10806490248	 1.32740373906	 
33.0	 -0.283324293707	 1.3698488309	 
33.0	 -0.458970484743	 1.41006654054	 
33.0	 -0.63827904428	 1.42919454386	 
33.0	 -0.817587603816	 1.44832254718	 
33.0	 -0.996896163353	 1.4674505505	 
33.0	 -1.17620472289	 1.48657855382	 
33.0	 -1.28787617493	 1.42771453969	 
33.0	 -1.29431169284	 1.24750348524	 
33.0	 -1.30074721075	 1.0672924308	 
33.0	 -1.30718272866	 0.887081376357	 
33.0	 -1.31361824657	 0.706870321915	 
33.0	 -1.32005376448	 0.526659267472	 
33.0	 -1.32170769106	 0.346702326523	 
33.0	 -1.29620804946	 0.168188438233	 
33.0	 -1.27070840786	 -0.0103254500565	 
33.0	 -1.24520876625	 -0.188839338346	 
33.0	 -1.21970912465	 -0.367353226636	 
33.0	 -1.19420948305	 -0.545867114925	 
33.0	 -1.16870984145	 -0.724381003215	 
33.0	 -1.02222630184	 -0.806929560344	 
33.0	 -0.854202146185	 -0.872391939998	 
33.0	 -0.686177990529	 -0.937854319653	 
33.0	 -0.518153834872	 -1.00331669931	 
33.0	 -0.350129679216	 -1.06877907896	 
33.0	 -0.177968767355	 -1.10658717733	 
33.0	 0.00185649186041	 -1.09315899122	 
33.0	 0.181681751076	 -1.07973080511	 
33.5	 0.281827573448	 -1.03339798499	 
33.5	 0.454052381391	 -0.985192579255	 
33.5	 0.626277189334	 -0.93698717352	 
33.5	 0.798501997277	 -0.888781767785	 
33.5	 0.970726805219	 -0.840576362049	 
33.5	 1.14295161316	 -0.792370956314	 
33.5	 1.27942454557	 -0.712053449652	 
33.5	 1.30893240801	 -0.535660616274	 
33.5	 1.33844027045	 -0.359267782896	 
33.5	 1.36794813289	 -0.182874949518	 
33.5	 1.39745599533	 -0.00648211613934	 
33.5	 1.42038536186	 0.169611841263	 
33.5	 1.37500422486	 0.342602297698	 
33.5	 1.32962308786	 0.515592754133	 
33.5	 1.28424195086	 0.688583210568	 
33.5	 1.23886081386	 0.861573667002	 
33.5	 1.18689661839	 1.02827570339	 
33.5	 1.01616389002	 1.08152493886	 
33.5	 0.845431161654	 1.13477417432	 
33.5	 0.674698433287	 1.18802340979	 
33.5	 0.503965704921	 1.24127264525	 
33.5	 0.333232976554	 1.29452188072	 
33.5	 0.162500248188	 1.34777111618	 
33.5	 -0.00823248017864	 1.40102035165	 
33.5	 -0.178965208545	 1.45426958711	 
33.5	 -0.350712489016	 1.49926575333	 
33.5	 -0.529258849702	 1.4889534937	 
33.5	 -0.707805210388	 1.47864123407	 
33.5	 -0.886351571074	 1.46832897444	 
33.5	 -1.03262956062	 1.41291276059	 
33.5	 -1.10004221497	 1.24726047522	 
33.5	 -1.16745486931	 1.08160818985	 
33.5	 -1.23486752365	 0.915955904486	 
33.5	 -1.302280178	 0.750303619119	 
33.5	 -1.36969283234	 0.584651333751	 
33.5	 -1.42826810805	 0.418517629993	 
33.5	 -1.37924887007	 0.246522688437	 
33.5	 -1.33022963209	 0.0745277468811	 
33.5	 -1.28121039411	 -0.0974671946748	 
33.5	 -1.23219115613	 -0.269462136231	 
33.5	 -1.18317191814	 -0.441457077787	 
33.5	 -1.13415268016	 -0.613452019342	 
33.5	 -1.00900138194	 -0.735857270601	 
33.5	 -0.871499115075	 -0.850217544387	 
33.5	 -0.733996848212	 -0.964577818174	 
33.5	 -0.596494581349	 -1.07893809196	 
33.5	 -0.430374339158	 -1.10070894612	 
33.5	 -0.252323861006	 -1.08388120584	 
33.5	 -0.0742733828547	 -1.06705346556	 
33.5	 0.103777095297	 -1.05022572527	 
34.0	 0.128116068854	 -1.00034152287	 
34.0	 0.314572079453	 -1.00034152287	 
34.0	 0.501028090052	 -1.00034152287	 
34.0	 0.68748410065	 -1.00034152287	 
34.0	 0.873940111249	 -1.00034152287	 
34.0	 1.0443208842	 -0.96425563425	 
34.0	 1.16902812663	 -0.825641249808	 
34.0	 1.29373536906	 -0.687026865365	 
34.0	 1.41844261149	 -0.548412480923	 
34.0	 1.54314985391	 -0.40979809648	 
34.0	 1.66785709634	 -0.271183712038	 
34.0	 1.70155292986	 -0.0941823574772	 
34.0	 1.71378509784	 0.0918719839252	 
34.0	 1.72601726583	 0.277926325328	 
34.0	 1.73824943382	 0.46398066673	 
34.0	 1.7504816018	 0.650035008133	 
34.0	 1.72291022806	 0.818478983472	 
34.0	 1.57700083007	 0.934566413736	 
34.0	 1.43109143208	 1.050653844	 
34.0	 1.28518203408	 1.16674127426	 
34.0	 1.13927263609	 1.28282870453	 
34.0	 0.993363238095	 1.39891613479	 
34.0	 0.830833004174	 1.47608707823	 
34.0	 0.646078984446	 1.50122263238	 
34.0	 0.461324964717	 1.52635818653	 
34.0	 0.276570944988	 1.55149374067	 
34.0	 0.0918169252591	 1.57662929482	 
34.0	 -0.0929370944697	 1.60176484897	 
34.0	 -0.277691114199	 1.62690040312	 
34.0	 -0.462445133927	 1.65203595727	 
34.0	 -0.642217276754	 1.63107475814	 
34.0	 -0.817334953567	 1.56704630232	 
34.0	 -0.992452630381	 1.50301784649	 
34.0	 -1.10402239207	 1.38909234541	 
34.0	 -1.12468069855	 1.20378428227	 
34.0	 -1.14533900502	 1.01847621914	 
34.0	 -1.1659973115	 0.833168156009	 
34.0	 -1.18665561798	 0.647860092877	 
34.0	 -1.18446062093	 0.462969586546	 
34.0	 -1.15704676904	 0.27853985843	 
34.0	 -1.12963291716	 0.0941101303131	 
34.0	 -1.10221906527	 -0.0903195978035	 
34.0	 -1.07480521339	 -0.27474932592	 
34.0	 -1.00392773409	 -0.441066587298	 
34.0	 -0.892259608141	 -0.590385285177	 
34.0	 -0.756693624512	 -0.708285293948	 
34.0	 -0.582981410883	 -0.776034173823	 
34.0	 -0.405995359975	 -0.834169122874	 
34.0	 -0.227871105949	 -0.88927169381	 
34.0	 -0.0498775185475	 -0.944806608342	 
34.5	 -0.0693328478479	 -1.02672844582	 
34.5	 0.115213860235	 -1.02049962657	 
34.5	 0.299760568318	 -1.01427080732	 
34.5	 0.484307276401	 -1.00804198807	 
34.5	 0.668853984484	 -1.00181316882	 
34.5	 0.853400692566	 -0.995584349571	 
34.5	 1.03794740065	 -0.989355530322	 
34.5	 1.15258871911	 -0.853658487188	 
34.5	 1.25902831475	 -0.702771449532	 
34.5	 1.36546791039	 -0.551884411876	 
34.5	 1.47190750604	 -0.400997374219	 
34.5	 1.54017969148	 -0.23800287446	 
34.5	 1.54017969148	 -0.0533510787652	 
34.5	 1.54017969148	 0.13130071693	 
34.5	 1.54017969148	 0.315952512625	 
34.5	 1.54017969148	 0.50060430832	 
34.5	 1.53989294148	 0.685200755576	 
34.5	 1.47117039181	 0.856587735303	 
34.5	 1.40244784214	 1.02797471503	 
34.5	 1.33372529247	 1.19936169476	 
34.5	 1.26500274279	 1.37074867448	 
34.5	 1.10610904358	 1.42594639837	 
34.5	 0.923027630863	 1.44997725296	 
34.5	 0.73994621815	 1.47400810755	 
34.5	 0.556864805436	 1.49803896214	 
34.5	 0.373783392723	 1.52206981673	 
34.5	 0.19070198001	 1.54610067133	 
34.5	 0.00752567587717	 1.54882956492	 
34.5	 -0.175762561862	 1.52643073549	 
34.5	 -0.359050799602	 1.50403190606	 
34.5	 -0.542339037341	 1.48163307663	 
34.5	 -0.725627275081	 1.4592342472	 
34.5	 -0.888639551234	 1.39630548967	 
34.5	 -1.01647372667	 1.26305869143	 
34.5	 -1.14430790212	 1.12981189318	 
34.5	 -1.27214207756	 0.996565094935	 
34.5	 -1.38718417824	 0.859079764368	 
34.5	 -1.36420715815	 0.675863110645	 
34.5	 -1.34123013806	 0.492646456923	 
34.5	 -1.31825311798	 0.3094298032	 
34.5	 -1.29527609789	 0.126213149478	 
34.5	 -1.2722990778	 -0.0570035042446	 
34.5	 -1.21442406519	 -0.228099012779	 
34.5	 -1.11888171928	 -0.386111498966	 
34.5	 -1.02333937337	 -0.544123985153	 
34.5	 -0.920297147632	 -0.69424358495	 
34.5	 -0.757614960004	 -0.781597986567	 
34.5	 -0.594932772375	 -0.868952388185	 
34.5	 -0.413558808406	 -0.899844370538	 
34.5	 -0.238160491848	 -0.951938658578	 
35.0	 -1.19488038834	 -0.742273826509	 
35.0	 -1.18848006479	 -0.558938046606	 
35.0	 -1.18207974124	 -0.375602266703	 
35.0	 -1.17567941769	 -0.1922664868	 
35.0	 -1.16927909414	 -0.00893070689644	 
35.0	 -1.16287877059	 0.174405073007	 
35.0	 -1.11088171866	 0.348281034465	 
35.0	 -1.04382076722	 0.519031733221	 
35.0	 -0.976759815777	 0.689782431977	 
35.0	 -0.909698864333	 0.860533130734	 
35.0	 -0.828648201835	 1.02251099307	 
35.0	 -0.704145136709	 1.15724019966	 
35.0	 -0.579642071583	 1.29196940625	 
35.0	 -0.455139006457	 1.42669861284	 
35.0	 -0.330635941331	 1.56142781943	 
35.0	 -0.184291412043	 1.6557432364	 
35.0	 -0.00336966745318	 1.68607959526	 
35.0	 0.177552077136	 1.71641595412	 
35.0	 0.358473821726	 1.74675231299	 
35.0	 0.539395566315	 1.77708867185	 
35.0	 0.720317310904	 1.80742503071	 
35.0	 0.901239055494	 1.83776138957	 
35.0	 1.08216080008	 1.86809774843	 
35.0	 1.1960320164	 1.75304594712	 
35.0	 1.29041754064	 1.59574259322	 
35.0	 1.38480306488	 1.43843923932	 
35.0	 1.47918858912	 1.28113588542	 
35.0	 1.49240080633	 1.10134810971	 
35.0	 1.49240080633	 0.917900644933	 
35.0	 1.49240080633	 0.734453180153	 
35.0	 1.49240080633	 0.551005715373	 
35.0	 1.49240080633	 0.367558250593	 
35.0	 1.49240080633	 0.184110785812	 
35.0	 1.40148447787	 0.0251880878306	 
35.0	 1.30922736132	 -0.133372931277	 
35.0	 1.2153115921	 -0.290792960008	 
35.0	 1.10022361612	 -0.433648586844	 
35.0	 0.985135640136	 -0.57650421368	 
35.0	 0.870047664154	 -0.719359840516	 
35.0	 0.722309481148	 -0.816588744322	 
35.0	 0.549958486032	 -0.879422706611	 
35.0	 0.377607490917	 -0.942256668899	 
35.0	 0.205256495801	 -1.00509063119	 
35.0	 0.0306913624261	 -1.04046239951	 
35.0	 -0.146955371689	 -0.998439455887	 
35.0	 -0.311620833784	 -0.917579960913	 
35.0	 -0.476286295878	 -0.836720465939	 
35.0	 -0.646735779425	 -0.780762098995	 
35.0	 -0.830183244205	 -0.780762098995	 
35.0	 -1.01262537758	 -0.76315643613	 
35.5	 -0.349058337351	 -0.990722803875	 
35.5	 -0.166835986443	 -1.02939853985	 
35.5	 0.0153863644649	 -1.06807427582	 
35.5	 0.197608715373	 -1.10675001179	 
35.5	 0.37983106628	 -1.14542574776	 
35.5	 0.562053417188	 -1.18410148373	 
35.5	 0.744275768096	 -1.2227772197	 
35.5	 0.888144559924	 -1.14462595851	 
35.5	 1.01198633166	 -1.00547132044	 
35.5	 1.1358281034	 -0.866316682368	 
35.5	 1.25966987513	 -0.727162044298	 
35.5	 1.38351164687	 -0.588007406227	 
35.5	 1.5073534186	 -0.448852768156	 
35.5	 1.56323722194	 -0.275777089574	 
35.5	 1.60000668881	 -0.0931605404081	 
35.5	 1.63677615568	 0.0894560087576	 
35.5	 1.67354562255	 0.272072557923	 
35.5	 1.71031508942	 0.454689107089	 
35.5	 1.74708455629	 0.637305656255	 
35.5	 1.65596227528	 0.797557206637	 
35.5	 1.55940029081	 0.956857491884	 
35.5	 1.46283830635	 1.11615777713	 
35.5	 1.36627632189	 1.27545806238	 
35.5	 1.26255657877	 1.42436086138	 
35.5	 1.07928323119	 1.4577026938	 
35.5	 0.896009883606	 1.49104452622	 
35.5	 0.712736536023	 1.52438635863	 
35.5	 0.529463188441	 1.55772819105	 
35.5	 0.346035461284	 1.58016552319	 
35.5	 0.161891687484	 1.55202536872	 
35.5	 -0.0222520863168	 1.52388521425	 
35.5	 -0.206395860117	 1.49574505978	 
35.5	 -0.390539633918	 1.4676049053	 
35.5	 -0.574683407718	 1.43946475083	 
35.5	 -0.737278253798	 1.37119292524	 
35.5	 -0.862457592677	 1.23324028539	 
35.5	 -0.987636931557	 1.09528764554	 
35.5	 -1.11281627044	 0.957335005695	 
35.5	 -1.23799560932	 0.819382365847	 
35.5	 -1.24804820619	 0.636981940824	 
35.5	 -1.24804820619	 0.450700439533	 
35.5	 -1.24804820619	 0.264418938243	 
35.5	 -1.24804820619	 0.0781374369517	 
35.5	 -1.20226764303	 -0.0968856098794	 
35.5	 -1.11587120694	 -0.261920313967	 
35.5	 -1.02947477084	 -0.426955018055	 
35.5	 -0.938060157622	 -0.586783670857	 
35.5	 -0.769962801188	 -0.667058676202	 
35.5	 -0.601865444754	 -0.747333681547	 
35.5	 -0.43941231877	 -0.83778839461	 
36.0	 -1.15915174006	 -0.295178146849	 
36.0	 -1.110639129	 -0.120505416473	 
36.0	 -1.06212651795	 0.0541673139029	 
36.0	 -1.01361390689	 0.228840044279	 
36.0	 -0.965101295832	 0.403512774655	 
36.0	 -0.916588684775	 0.57818550503	 
36.0	 -0.864226459492	 0.751250316899	 
36.0	 -0.774085795416	 0.908535716248	 
36.0	 -0.683945131339	 1.0658211156	 
36.0	 -0.593804467262	 1.22310651495	 
36.0	 -0.503663803186	 1.38039191429	 
36.0	 -0.371670059577	 1.49099095265	 
36.0	 -0.205507142318	 1.56347488946	 
36.0	 -0.0393442250586	 1.63595882628	 
36.0	 0.126818692201	 1.7084427631	 
36.0	 0.29298160946	 1.78092669991	 
36.0	 0.466029012503	 1.78450456062	 
36.0	 0.643248116236	 1.74632831879	 
36.0	 0.82046721997	 1.70815207696	 
36.0	 0.997686323704	 1.66997583513	 
36.0	 1.1266568168	 1.57254198056	 
36.0	 1.19995971291	 1.40673871886	 
36.0	 1.27326260903	 1.24093545717	 
36.0	 1.3446245518	 1.07438918649	 
36.0	 1.40077606364	 0.902020268507	 
36.0	 1.45692757548	 0.729651350524	 
36.0	 1.51307908733	 0.557282432542	 
36.0	 1.56923059917	 0.38491351456	 
36.0	 1.57625884577	 0.206180432659	 
36.0	 1.5658864101	 0.0251930056182	 
36.0	 1.55551397443	 -0.155794421423	 
36.0	 1.54514153877	 -0.336781848463	 
36.0	 1.42797833909	 -0.460305712408	 
36.0	 1.28264993415	 -0.568674023668	 
36.0	 1.13732152921	 -0.677042334929	 
36.0	 0.988762131566	 -0.779421096721	 
36.0	 0.818385785188	 -0.841356036486	 
36.0	 0.648009438811	 -0.90329097625	 
36.0	 0.477633092433	 -0.965225916014	 
36.0	 0.305868000727	 -1.02272746711	 
36.0	 0.130605167727	 -1.06906293449	 
36.0	 -0.044657665273	 -1.11539840187	 
36.0	 -0.22422354329	 -1.12862232619	 
36.0	 -0.405507950144	 -1.12862232619	 
36.0	 -0.586792356998	 -1.12862232619	 
36.0	 -0.73999563808	 -1.07821660726	 
36.0	 -0.835404727762	 -0.924070112733	 
36.0	 -0.930813817445	 -0.769923618208	 
36.0	 -0.988503381204	 -0.599681878253	 
36.0	 -1.03377465927	 -0.424141149216	 
36.5	 -1.03637644372	 0.913321395982	 
36.5	 -0.885931430663	 1.01305133838	 
36.5	 -0.735486417605	 1.11278128079	 
36.5	 -0.585041404546	 1.21251122319	 
36.5	 -0.434596391488	 1.31224116559	 
36.5	 -0.282083733883	 1.40510983997	 
36.5	 -0.101585081905	 1.40510983997	 
36.5	 0.0789135700719	 1.40510983997	 
36.5	 0.259412222049	 1.40510983997	 
36.5	 0.439910874026	 1.40510983997	 
36.5	 0.619047781402	 1.40191495999	 
36.5	 0.744046798264	 1.27170355822	 
36.5	 0.869045815126	 1.14149215646	 
36.5	 0.994044831987	 1.0112807547	 
36.5	 1.11248076979	 0.875150004572	 
36.5	 1.2291429583	 0.737419480947	 
36.5	 1.3458051468	 0.599688957322	 
36.5	 1.46246733531	 0.461958433697	 
36.5	 1.53578841531	 0.305455931915	 
36.5	 1.55644460226	 0.126143117798	 
36.5	 1.5771007892	 -0.0531696963192	 
36.5	 1.59775697614	 -0.232482510436	 
36.5	 1.61841316309	 -0.411795324553	 
36.5	 1.59376502962	 -0.585855431593	 
36.5	 1.53262832332	 -0.755684953491	 
36.5	 1.47149161702	 -0.92551447539	 
36.5	 1.38583720469	 -1.07356370941	 
36.5	 1.22439531729	 -1.15428719025	 
36.5	 1.06295342989	 -1.23501067108	 
36.5	 0.901511542488	 -1.31573415191	 
36.5	 0.740069655086	 -1.39645763274	 
36.5	 0.578204603784	 -1.47515414758	 
36.5	 0.397950287142	 -1.46576560684	 
36.5	 0.217695970499	 -1.4563770661	 
36.5	 0.0374416538557	 -1.44698852536	 
36.5	 -0.138003218758	 -1.41853666229	 
36.5	 -0.301138321718	 -1.341292235	 
36.5	 -0.463927799439	 -1.26360454261	 
36.5	 -0.578614109595	 -1.12422443776	 
36.5	 -0.693300419751	 -0.984844332911	 
36.5	 -0.807986729906	 -0.845464228059	 
36.5	 -0.890625046106	 -0.689476862723	 
36.5	 -0.938368434067	 -0.515406956446	 
36.5	 -0.986111822029	 -0.341337050168	 
36.5	 -0.993968194864	 -0.163386245953	 
36.5	 -0.980675674772	 0.0166222879422	 
36.5	 -0.972258770534	 0.19642362909	 
36.5	 -1.00077496909	 0.374655471883	 
36.5	 -1.02929116765	 0.552887314676	 
36.5	 -1.03637644372	 0.732822744005	 
37.0	 -0.427078644716	 1.22450504578	 
37.0	 -0.250169772212	 1.21128282304	 
37.0	 -0.0732608997074	 1.1980606003	 
37.0	 0.103647972797	 1.18483837756	 
37.0	 0.280556845301	 1.17161615482	 
37.0	 0.45618703158	 1.15379018562	 
37.0	 0.614574539708	 1.07388415572	 
37.0	 0.772962047836	 0.993978125827	 
37.0	 0.931349555964	 0.91407209593	 
37.0	 1.06816904444	 0.808841095835	 
37.0	 1.1722731785	 0.66519602764	 
37.0	 1.27637731256	 0.521550959445	 
37.0	 1.38048144662	 0.37790589125	 
37.0	 1.48458558068	 0.234260823055	 
37.0	 1.50739325639	 0.0618501317969	 
37.0	 1.51679898805	 -0.115302651294	 
37.0	 1.52620471971	 -0.292455434385	 
37.0	 1.53561045137	 -0.469608217476	 
37.0	 1.49468311265	 -0.64218115403	 
37.0	 1.4534580218	 -0.814726997878	 
37.0	 1.38052062359	 -0.968387660496	 
37.0	 1.24845408115	 -1.08683598134	 
37.0	 1.1163875387	 -1.20528430219	 
37.0	 0.970438376587	 -1.29454994783	 
37.0	 0.795217192212	 -1.32228283249	 
37.0	 0.619996007837	 -1.35001571714	 
37.0	 0.444774823462	 -1.37774860179	 
37.0	 0.267819021577	 -1.38342583376	 
37.0	 0.0904167207323	 -1.38342583376	 
37.0	 -0.0869855801121	 -1.38342583376	 
37.0	 -0.264387880957	 -1.38342583376	 
37.0	 -0.441790181801	 -1.38342583376	 
37.0	 -0.588194496142	 -1.29017330482	 
37.0	 -0.730293272881	 -1.18396824847	 
37.0	 -0.87239204962	 -1.07776319212	 
37.0	 -0.953488916027	 -0.92449949998	 
37.0	 -1.02014535939	 -0.760096048364	 
37.0	 -1.07322487938	 -0.591180118739	 
37.0	 -1.11824231957	 -0.419584645536	 
37.0	 -1.16325975976	 -0.247989172332	 
37.0	 -1.19450256229	 -0.0742048034086	 
37.0	 -1.20489513447	 0.10289282726	 
37.0	 -1.21528770665	 0.279990457928	 
37.0	 -1.22568027883	 0.457088088597	 
37.0	 -1.15784543125	 0.618850762144	 
37.0	 -1.08135840307	 0.778917344747	 
37.0	 -1.00245335873	 0.937270610798	 
37.0	 -0.876793621117	 1.06249523572	 
37.0	 -0.751133883501	 1.18771986065	 
37.0	 -0.603042484701	 1.24705062988	 
37.5	 -0.325066016535	 1.22388835686	 
37.5	 -0.149122964346	 1.20385420446	 
37.5	 0.0268200878425	 1.18382005205	 
37.5	 0.202763140031	 1.16378589965	 
37.5	 0.37870619222	 1.14375174724	 
37.5	 0.554649244409	 1.12371759484	 
37.5	 0.730592296598	 1.10368344243	 
37.5	 0.906535348787	 1.08364929002	 
37.5	 1.04804194475	 0.991606767028	 
37.5	 1.17408241273	 0.86722378866	 
37.5	 1.30012288071	 0.742840810292	 
37.5	 1.42616334869	 0.618457831924	 
37.5	 1.55220381667	 0.494074853556	 
37.5	 1.56815631034	 0.318548336702	 
37.5	 1.58191762199	 0.142003863048	 
37.5	 1.59567893364	 -0.034540610606	 
37.5	 1.57931692585	 -0.206627243343	 
37.5	 1.51501288864	 -0.371619108826	 
37.5	 1.45070885144	 -0.536610974308	 
37.5	 1.38640481423	 -0.701602839791	 
37.5	 1.27917336865	 -0.833281461383	 
37.5	 1.13531073275	 -0.936532935313	 
37.5	 0.991448096853	 -1.03978440924	 
37.5	 0.847585460956	 -1.14303588317	 
37.5	 0.685283337215	 -1.21000076643	 
37.5	 0.517070606227	 -1.26533431873	 
37.5	 0.34885787524	 -1.32066787102	 
37.5	 0.180645144252	 -1.37600142332	 
37.5	 0.0124324132648	 -1.43133497562	 
37.5	 -0.159658828995	 -1.45477583378	 
37.5	 -0.336230802544	 -1.44137198981	 
37.5	 -0.512802776093	 -1.42796814584	 
37.5	 -0.689374749642	 -1.41456430187	 
37.5	 -0.79642147957	 -1.28779813117	 
37.5	 -0.888416362561	 -1.13648961727	 
37.5	 -0.980411245552	 -0.985181103364	 
37.5	 -1.04693748168	 -0.822680364127	 
37.5	 -1.09618352896	 -0.652585826577	 
37.5	 -1.12178927975	 -0.478525216005	 
37.5	 -1.13074977149	 -0.301672072228	 
37.5	 -1.13971026323	 -0.12481892845	 
37.5	 -1.14867075497	 0.052034215327	 
37.5	 -1.15763124671	 0.228887359104	 
37.5	 -1.16031837447	 0.404290455054	 
37.5	 -1.07465637367	 0.559272216866	 
37.5	 -0.988994372866	 0.714253978679	 
37.5	 -0.903332372062	 0.869235740491	 
37.5	 -0.793381687718	 1.00581154933	 
37.5	 -0.665935579637	 1.12777779316	 
37.5	 -0.495500798086	 1.17583307501	 
38.0	 -0.810986129755	 -0.769976515079	 
38.0	 -0.658310463526	 -0.866715701675	 
38.0	 -0.505634797297	 -0.96345488827	 
38.0	 -0.352959131068	 -1.06019407487	 
38.0	 -0.191535115179	 -1.13518274167	 
38.0	 -0.0143958642385	 -1.17109952128	 
38.0	 0.162743386702	 -1.20701630089	 
38.0	 0.339882637643	 -1.24293308051	 
38.0	 0.517021888584	 -1.27884986012	 
38.0	 0.667860080069	 -1.17952080984	 
38.0	 0.818629122935	 -1.07983618217	 
38.0	 0.969398165801	 -0.980151554491	 
38.0	 1.12016720867	 -0.880466926815	 
38.0	 1.25473321581	 -0.765193470694	 
38.0	 1.34852002422	 -0.610686629909	 
38.0	 1.44230683264	 -0.456179789123	 
38.0	 1.53609364105	 -0.301672948338	 
38.0	 1.51944326809	 -0.122050356127	 
38.0	 1.50170103302	 0.0578205486256	 
38.0	 1.48395879795	 0.237691453378	 
38.0	 1.46621656289	 0.417562358131	 
