ply
format ascii 1.0
element vertex 256
property float32 x
property float32 y
property float32 z
property uchar red
property uchar green
property uchar blue
end_header
114	145	18	0	0	0
114	143	18	0	0	0
113	141	18	0	0	0
114	138	18	0	0	0
116	137	18	0	0	0
118	136	18	0	0	0
121	135	18	0	0	0
123	135	18	0	0	0
125	134	18	0	0	0
128	134	18	0	0	0
130	135	18	0	0	0
132	136	18	0	0	0
134	137	18	0	0	0
136	138	18	0	0	0
138	141	18	0	0	0
139	143	18	0	0	0
139	145	18	0	0	0
138	147	18	0	0	0
137	150	18	0	0	0
136	152	18	0	0	0
135	154	18	0	0	0
133	156	18	0	0	0
131	157	18	0	0	0
129	157	18	0	0	0
126	157	18	0	0	0
124	157	18	0	0	0
121	156	18	0	0	0
119	155	18	0	0	0
117	154	18	0	0	0
115	152	18	0	0	0
115	150	18	0	0	0
114	148	18	0	0	0
110	154	27	0	0	0
111	151	27	0	0	0
111	148	27	0	0	0
112	146	27	0	0	0
113	144	27	0	0	0
115	142	27	0	0	0
117	140	27	0	0	0
120	140	27	0	0	0
123	139	27	0	0	0
125	140	27	0	0	0
128	140	27	0	0	0
130	141	27	0	0	0
133	142	27	0	0	0
135	144	27	0	0	0
136	146	27	0	0	0
138	148	27	0	0	0
138	151	27	0	0	0
137	154	27	0	0	0
136	156	27	0	0	0
135	159	27	0	0	0
134	161	27	0	0	0
132	163	27	0	0	0
129	164	27	0	0	0
127	165	27	0	0	0
124	166	27	0	0	0
122	166	27	0	0	0
119	166	27	0	0	0
117	165	27	0	0	0
115	163	27	0	0	0
113	161	27	0	0	0
112	158	27	0	0	0
111	156	27	0	0	0
110	151	36	0	0	0
112	149	36	0	0	0
113	147	36	0	0	0
115	145	36	0	0	0
117	143	36	0	0	0
120	142	36	0	0	0
122	141	36	0	0	0
125	141	36	0	0	0
128	141	36	0	0	0
130	142	36	0	0	0
133	143	36	0	0	0
135	145	36	0	0	0
136	147	36	0	0	0
138	149	36	0	0	0
138	152	36	0	0	0
138	154	36	0	0	0
138	157	36	0	0	0
136	159	36	0	0	0
134	161	36	0	0	0
133	163	36	0	0	0
130	165	36	0	0	0
128	166	36	0	0	0
125	167	36	0	0	0
123	167	36	0	0	0
120	167	36	0	0	0
117	167	36	0	0	0
115	166	36	0	0	0
114	163	36	0	0	0
112	161	36	0	0	0
111	159	36	0	0	0
110	156	36	0	0	0
110	154	36	0	0	0
112	148	45	0	0	0
114	146	45	0	0	0
116	144	45	0	0	0
117	142	45	0	0	0
119	141	45	0	0	0
121	139	45	0	0	0
124	139	45	0	0	0
126	139	45	0	0	0
129	138	45	0	0	0
131	139	45	0	0	0
134	140	45	0	0	0
136	141	45	0	0	0
138	143	45	0	0	0
139	145	45	0	0	0
140	148	45	0	0	0
140	150	45	0	0	0
139	153	45	0	0	0
138	155	45	0	0	0
137	157	45	0	0	0
135	159	45	0	0	0
133	160	45	0	0	0
131	162	45	0	0	0
128	162	45	0	0	0
126	162	45	0	0	0
123	162	45	0	0	0
121	161	45	0	0	0
118	160	45	0	0	0
116	159	45	0	0	0
114	157	45	0	0	0
113	155	45	0	0	0
112	152	45	0	0	0
112	150	45	0	0	0
114	147	54	0	0	0
115	146	54	0	0	0
117	144	54	0	0	0
119	143	54	0	0	0
121	142	54	0	0	0
123	141	54	0	0	0
125	141	54	0	0	0
128	141	54	0	0	0
130	140	54	0	0	0
132	141	54	0	0	0
134	142	54	0	0	0
136	143	54	0	0	0
138	145	54	0	0	0
138	147	54	0	0	0
138	150	54	0	0	0
138	152	54	0	0	0
137	154	54	0	0	0
136	157	54	0	0	0
135	158	54	0	0	0
133	160	54	0	0	0
131	161	54	0	0	0
129	162	54	0	0	0
127	162	54	0	0	0
124	162	54	0	0	0
122	162	54	0	0	0
120	161	54	0	0	0
118	159	54	0	0	0
117	158	54	0	0	0
115	156	54	0	0	0
114	154	54	0	0	0
113	151	54	0	0	0
113	149	54	0	0	0
116	146	63	0	0	0
117	144	63	0	0	0
119	143	63	0	0	0
120	142	63	0	0	0
122	141	63	0	0	0
124	141	63	0	0	0
126	141	63	0	0	0
128	141	63	0	0	0
130	141	63	0	0	0
131	141	63	0	0	0
133	142	63	0	0	0
135	143	63	0	0	0
136	144	63	0	0	0
137	146	63	0	0	0
137	148	63	0	0	0
137	150	63	0	0	0
137	151	63	0	0	0
136	153	63	0	0	0
134	154	63	0	0	0
133	155	63	0	0	0
131	156	63	0	0	0
129	157	63	0	0	0
128	157	63	0	0	0
126	157	63	0	0	0
124	156	63	0	0	0
122	156	63	0	0	0
120	155	63	0	0	0
119	154	63	0	0	0
117	152	63	0	0	0
116	151	63	0	0	0
115	149	63	0	0	0
115	148	63	0	0	0
119	145	72	0	0	0
120	144	72	0	0	0
121	143	72	0	0	0
123	142	72	0	0	0
125	142	72	0	0	0
126	142	72	0	0	0
128	142	72	0	0	0
129	142	72	0	0	0
131	143	72	0	0	0
132	144	72	0	0	0
134	145	72	0	0	0
135	146	72	0	0	0
136	147	72	0	0	0
136	149	72	0	0	0
136	151	72	0	0	0
135	152	72	0	0	0
134	154	72	0	0	0
133	155	72	0	0	0
132	156	72	0	0	0
131	157	72	0	0	0
129	157	72	0	0	0
127	158	72	0	0	0
126	158	72	0	0	0
124	157	72	0	0	0
123	156	72	0	0	0
122	155	72	0	0	0
120	154	72	0	0	0
119	153	72	0	0	0
119	151	72	0	0	0
118	150	72	0	0	0
118	148	72	0	0	0
118	147	72	0	0	0
123	145	81	0	0	0
124	144	81	0	0	0
125	144	81	0	0	0
126	144	81	0	0	0
127	144	81	0	0	0
129	143	81	0	0	0
130	144	81	0	0	0
131	144	81	0	0	0
132	145	81	0	0	0
133	146	81	0	0	0
134	147	81	0	0	0
134	148	81	0	0	0
134	149	81	0	0	0
134	150	81	0	0	0
133	152	81	0	0	0
133	153	81	0	0	0
132	154	81	0	0	0
131	155	81	0	0	0
130	155	81	0	0	0
129	156	81	0	0	0
127	156	81	0	0	0
126	155	81	0	0	0
125	155	81	0	0	0
124	155	81	0	0	0
123	154	81	0	0	0
122	153	81	0	0	0
121	152	81	0	0	0
121	151	81	0	0	0
121	149	81	0	0	0
121	148	81	0	0	0
121	147	81	0	0	0
122	146	81	0	0	0
