ply
format ascii 1.0
element vertex 1226
property float x
property float y
property float z
property uchar red
property uchar green
property uchar blue
property uchar alpha
end_header
0.229238 -0.950462 0.991013 0 88 241 0
0.238876 -0.944287 0.995699 0 88 241 0
0.249115 -0.941246 1.021355 0 88 241 0
0.258333 -0.935356 1.025931 0 88 241 0
0.267475 -0.928780 1.026152 0 88 241 0
0.276655 -0.922547 1.028551 0 88 241 0
0.285781 -0.916720 1.033103 0 88 241 0
0.294845 -0.910935 1.037639 0 88 241 0
0.304195 -0.903849 1.035746 0 88 241 0
0.316395 -0.887967 0.994273 0 88 241 0
0.326298 -0.881058 0.995776 0 88 241 0
0.337190 -0.871782 0.987565 0 88 241 0
0.340677 -0.879448 1.047446 0 88 241 0
0.349826 -0.873237 1.049837 0 88 241 0
0.359126 -0.866738 1.051182 0 88 241 0
0.383469 -0.833315 0.958248 0 88 241 0
0.393284 -0.827426 0.965365 0 88 241 0
0.403795 -0.820290 0.968111 0 88 241 0
0.414560 -0.812759 0.969623 0 88 241 0
0.426453 -0.803578 0.966227 0 88 241 0
0.262472 -0.808567 0.969260 0 88 241 0
0.161549 -0.921936 0.962074 0 88 241 0
0.174020 -0.916809 0.972420 0 88 241 0
0.258719 -0.820877 0.950380 0 88 241 0
0.272566 -0.821778 0.971824 0 88 241 0
0.283290 -0.812744 0.973734 0 88 241 0
0.293651 -0.801669 0.972034 0 88 241 0
0.148723 -0.944261 0.947125 0 88 241 0
0.161914 -0.939604 0.959604 0 88 241 0
0.174551 -0.934793 0.971008 0 88 241 0
0.187005 -0.930229 0.982526 0 88 241 0
0.198136 -0.924288 0.989866 0 88 241 0
0.208177 -0.916909 0.993286 0 88 241 0
0.248894 -0.888667 1.009814 0 88 241 0
0.258554 -0.880449 1.011328 0 88 241 0
0.255872 -0.836205 0.937111 0 88 241 0
0.267984 -0.830774 0.946738 0 88 241 0
0.282620 -0.835684 0.976571 0 88 241 0
0.293035 -0.826352 0.977455 0 88 241 0
0.303160 -0.814995 0.974691 0 88 241 0
0.175512 -0.952728 0.971183 0 88 241 0
0.187210 -0.947384 0.980588 0 88 241 0
0.197946 -0.941121 0.986955 0 88 241 0
0.208594 -0.934923 0.993292 0 88 241 0
0.218689 -0.928046 0.997633 0 88 241 0
0.250483 -0.911188 1.019304 0 88 241 0
0.260155 -0.904080 1.022598 0 88 241 0
0.269038 -0.894842 1.021105 0 88 241 0
0.277641 -0.884183 1.016805 0 88 241 0
0.277214 -0.840913 0.944007 0 88 241 0
0.288721 -0.834626 0.951540 0 88 241 0
0.301999 -0.837445 0.977026 0 88 241 0
0.311881 -0.825196 0.972078 0 88 241 0
0.322187 -0.813828 0.969262 0 88 241 0
0.175623 -0.969184 0.968519 0 88 241 0
0.186650 -0.963179 0.975954 0 88 241 0
0.197029 -0.956601 0.981328 0 88 241 0
0.207599 -0.950408 0.987687 0 88 241 0
0.217845 -0.943928 0.993016 0 88 241 0
0.228252 -0.937854 0.999319 0 88 241 0
0.241698 -0.937523 1.020639 0 88 241 0
0.251320 -0.930976 1.024835 0 88 241 0
0.260385 -0.923266 1.026083 0 88 241 0
0.269347 -0.915106 1.026375 0 88 241 0
0.278545 -0.907297 1.027668 0 88 241 0
0.287117 -0.897221 1.023964 0 88 241 0
0.286524 -0.851801 0.943369 0 88 241 0
0.300529 -0.857354 0.975917 0 88 241 0
0.310392 -0.846434 0.972837 0 88 241 0
0.320374 -0.834796 0.968694 0 88 241 0
0.330727 -0.824040 0.966700 0 88 241 0
0.341257 -0.813154 0.964767 0 88 241 0
0.351030 -0.785405 0.932038 0 88 241 0
0.175800 -0.985277 0.966170 0 88 241 0
0.186143 -0.978691 0.971564 0 88 241 0
0.196694 -0.972459 0.977965 0 88 241 0
0.206395 -0.965330 0.981269 0 88 241 0
0.216335 -0.958533 0.985590 0 88 241 0
0.226919 -0.952785 0.992938 0 88 241 0
0.236546 -0.945710 0.996216 0 88 241 0
0.250301 -0.946357 1.020744 0 88 241 0
0.259434 -0.939138 1.022918 0 88 241 0
0.268597 -0.931897 1.025102 0 88 241 0
0.278090 -0.925428 1.029271 0 88 241 0
0.287283 -0.918166 1.031466 0 88 241 0
0.296143 -0.909626 1.030739 0 88 241 0
0.295211 -0.860803 0.939066 0 88 241 0
0.309264 -0.868331 0.976800 0 88 241 0
0.318903 -0.856683 0.971658 0 88 241 0
0.328747 -0.844376 0.965650 0 88 241 0
0.343060 -0.874134 1.044844 0 88 241 0
0.352492 -0.867203 1.048056 0 88 241 0
0.359899 -0.801600 0.939567 0 88 241 0
0.165453 -1.007321 0.957671 0 88 241 0
0.175442 -1.000471 0.962025 0 88 241 0
0.195602 -0.987126 0.971747 0 88 241 0
0.205487 -0.980352 0.976065 0 88 241 0
0.215099 -0.973288 0.979339 0 88 241 0
0.224483 -0.965902 0.981582 0 88 241 0
0.234110 -0.958828 0.984861 0 88 241 0
0.249135 -0.961110 1.015877 0 88 241 0
0.258359 -0.954332 1.019018 0 88 241 0
0.267246 -0.946822 1.020140 0 88 241 0
0.276346 -0.939645 1.022287 0 88 241 0
0.286033 -0.933996 1.028442 0 88 241 0
0.295382 -0.927616 1.032578 0 88 241 0
0.304591 -0.920848 1.035714 0 88 241 0
0.309041 -0.892989 0.989429 0 88 241 0
0.318593 -0.883520 0.987921 0 88 241 0
0.327955 -0.871644 0.981397 0 88 241 0
0.341127 -0.891060 1.042443 0 88 241 0
0.350497 -0.885155 1.047538 0 88 241 0
0.359724 -0.877395 1.048776 0 88 241 0
0.368382 -0.818816 0.950220 0 88 241 0
0.379311 -0.807846 0.948228 0 88 241 0
0.390465 -0.795731 0.944409 0 88 241 0
0.180629 -1.004732 0.946438 0 88 241 0
0.187090 -0.994315 0.937017 0 88 241 0
0.194115 -0.983861 0.928564 0 88 241 0
0.214196 -0.988191 0.974525 0 88 241 0
0.223484 -0.980893 0.976720 0 88 241 0
0.232325 -0.972884 0.976632 0 88 241 0
0.241706 -0.965518 0.978858 0 88 241 0
0.256775 -0.968240 1.012266 0 88 241 0
0.265768 -0.961159 1.014360 0 88 241 0
0.274790 -0.954056 1.016464 0 88 241 0
0.284128 -0.947667 1.020612 0 88 241 0
0.293564 -0.941677 1.025763 0 88 241 0
0.302941 -0.935731 1.030893 0 88 241 0
0.311865 -0.928229 1.031995 0 88 241 0
0.317481 -0.904166 0.993041 0 88 241 0
0.327187 -0.896561 0.995378 0 88 241 0
0.339262 -0.907624 1.040356 0 88 241 0
0.348388 -0.900445 1.042496 0 88 241 0
0.357544 -0.893245 1.044645 0 88 241 0
0.366729 -0.886023 1.046804 0 88 241 0
0.376420 -0.833833 0.957721 0 88 241 0
0.386982 -0.827488 0.964223 0 88 241 0
0.397629 -0.818720 0.965912 0 88 241 0
0.408236 -0.810925 0.969524 0 88 241 0
0.169929 -1.026372 0.937029 0 88 241 0
0.179924 -1.019481 0.941417 0 88 241 0
0.189051 -1.011865 0.942556 0 88 241 0
0.198767 -1.004725 0.945865 0 88 241 0
0.208733 -0.997856 0.950243 0 88 241 0
0.218434 -0.990727 0.953547 0 88 241 0
0.232152 -0.988928 0.976137 0 88 241 0
0.240348 -0.980175 0.973021 0 88 241 0
0.249066 -0.971857 0.971855 0 88 241 0
0.263621 -0.973993 1.004576 0 88 241 0
0.272787 -0.967258 1.007697 0 88 241 0
0.281658 -0.959828 1.008749 0 88 241 0
0.291117 -0.953787 1.013939 0 88 241 0
0.300634 -0.948159 1.020134 0 88 241 0
0.309959 -0.942216 1.025279 0 88 241 0
0.316950 -0.926159 1.004030 0 88 241 0
0.326106 -0.917611 1.003209 0 88 241 0
0.335195 -0.907656 0.999216 0 88 241 0
0.346324 -0.915493 1.037662 0 88 241 0
0.355359 -0.907944 1.038770 0 88 241 0
0.364453 -0.900352 1.039898 0 88 241 0
0.373602 -0.894083 1.043998 0 88 241 0
0.384257 -0.843301 0.954683 0 88 241 0
0.394698 -0.836994 0.961192 0 88 241 0
0.405278 -0.828309 0.962826 0 88 241 0
0.416159 -0.817583 0.960624 0 88 241 0
0.427082 -0.807645 0.960209 0 88 241 0
0.155148 -1.045147 0.913382 0 88 241 0
0.167474 -1.039590 0.925585 0 88 241 0
0.176877 -1.032243 0.927787 0 88 241 0
0.186025 -1.024645 0.928901 0 88 241 0
0.195771 -1.017483 0.932219 0 88 241 0
0.206278 -1.011074 0.938800 0 88 241 0
0.215980 -1.003946 0.942104 0 88 241 0
0.225905 -0.997089 0.946484 0 88 241 0
0.235591 -0.989971 0.949783 0 88 241 0
0.247031 -0.985503 0.962685 0 88 241 0
0.256224 -0.977872 0.963815 0 88 241 0
0.270798 -0.980378 0.999000 0 88 241 0
0.279332 -0.972357 0.997903 0 88 241 0
0.288662 -0.965938 1.002081 0 88 241 0
0.298205 -0.960238 1.008333 0 88 241 0
0.307659 -0.954604 1.014555 0 88 241 0
0.314834 -0.940142 0.995983 0 88 241 0
0.324312 -0.933614 1.000211 0 88 241 0
0.333885 -0.927893 1.006473 0 88 241 0
0.343181 -0.920624 1.008638 0 88 241 0
0.353308 -0.923684 1.036105 0 88 241 0
0.362241 -0.915369 1.035144 0 88 241 0
0.371303 -0.908710 1.038230 0 88 241 0
0.380340 -0.902945 1.043309 0 88 241 0
0.391908 -0.853573 0.953778 0 88 241 0
0.402365 -0.845451 0.956338 0 88 241 0
0.412794 -0.837787 0.959890 0 88 241 0
0.423724 -0.826692 0.956607 0 88 241 0
0.434776 -0.815946 0.954365 0 88 241 0
0.446328 -0.803430 0.949093 0 88 241 0
0.194986 -0.914498 1.000092 0 88 241 0
0.257550 -0.795938 0.974311 0 88 241 0
0.196284 -0.934607 0.993759 0 88 241 0
0.207086 -0.925652 0.996320 0 88 241 0
0.247293 -0.932401 1.031365 0 88 241 0
0.257485 -0.923950 1.033782 0 88 241 0
0.266854 -0.914283 1.034794 0 88 241 0
0.275088 -0.902707 1.033723 0 88 241 0
0.281857 -0.888357 1.029766 0 88 241 0
0.253050 -0.811176 0.958612 0 88 241 0
0.271035 -0.812412 0.973153 0 88 241 0
0.282751 -0.802699 0.975931 0 88 241 0
0.183939 -0.959914 0.980729 0 88 241 0
0.196137 -0.952609 0.985488 0 88 241 0
0.208248 -0.945375 0.990226 0 88 241 0
0.221195 -0.939321 0.996407 0 88 241 0
0.247921 -0.951045 1.025267 0 88 241 0
0.257538 -0.942136 1.026925 0 88 241 0
0.267183 -0.933204 1.028589 0 88 241 0
0.277663 -0.925450 1.031696 0 88 241 0
0.288115 -0.917721 1.034797 0 88 241 0
0.299286 -0.911268 1.039312 0 88 241 0
0.262670 -0.820323 0.949993 0 88 241 0
0.276962 -0.815026 0.957737 0 88 241 0
0.296743 -0.821276 0.977484 0 88 241 0
0.341206 -0.882129 1.052984 0 88 241 0
0.350520 -0.872534 1.053948 0 88 241 0
0.158982 -0.991849 0.962327 0 88 241 0
0.197562 -0.971851 0.979792 0 88 241 0
0.208570 -0.963646 0.983041 0 88 241 0
0.221413 -0.957608 0.989286 0 88 241 0
0.233751 -0.951252 0.994898 0 88 241 0
0.257250 -0.959432 1.019665 0 88 241 0
0.268043 -0.952328 1.023504 0 88 241 0
0.277962 -0.944105 1.025855 0 88 241 0
0.289457 -0.938263 1.031140 0 88 241 0
0.300153 -0.931424 1.035084 0 88 241 0
0.310712 -0.924513 1.038867 0 88 241 0
0.274637 -0.833812 0.946622 0 88 241 0
0.286997 -0.825409 0.950832 0 88 241 0
0.309020 -0.836842 0.976656 0 88 241 0
0.351144 -0.894681 1.051012 0 88 241 0
0.360008 -0.884566 1.051194 0 88 241 0
0.369515 -0.875761 1.052809 0 88 241 0
0.183589 -0.994472 0.964258 0 88 241 0
0.193601 -0.985262 0.965974 0 88 241 0
0.208502 -0.981082 0.975424 0 88 241 0
0.220881 -0.974634 0.981121 0 88 241 0
0.231218 -0.966063 0.983571 0 88 241 0
0.242440 -0.958576 0.987547 0 88 241 0
0.266539 -0.967840 1.014432 0 88 241 0
0.276383 -0.959679 1.016766 0 88 241 0
0.286626 -0.952095 1.019852 0 88 241 0
0.298765 -0.947480 1.026675 0 88 241 0
0.309249 -0.940604 1.030476 0 88 241 0
0.320031 -0.934389 1.035005 0 88 241 0
0.286370 -0.847135 0.943653 0 88 241 0
0.296233 -0.834417 0.942704 0 88 241 0
0.350295 -0.912931 1.044810 0 88 241 0
0.359012 -0.902979 1.044904 0 88 241 0
0.369520 -0.896992 1.049368 0 88 241 0
0.379133 -0.889022 1.051647 0 88 241 0
0.166982 -1.014776 0.944759 0 88 241 0
0.178073 -1.006475 0.948063 0 88 241 0
0.190147 -0.999148 0.952951 0 88 241 0
0.201642 -0.991406 0.957027 0 88 241 0
0.214988 -0.985707 0.964242 0 88 241 0
0.231029 -0.983319 0.976282 0 88 241 0
0.241251 -0.974844 0.978706 0 88 241 0
0.250605 -0.965300 0.979573 0 88 241 0
0.273099 -0.972766 1.004620 0 88 241 0
0.283738 -0.965734 1.008493 0 88 241 0
0.295100 -0.959891 1.013888 0 88 241 0
0.306723 -0.954727 1.020019 0 88 241 0
0.317116 -0.947898 1.023833 0 88 241 0
0.318357 -0.925227 1.007789 0 88 241 0
0.331342 -0.922510 1.016944 0 88 241 0
0.350180 -0.932112 1.040449 0 88 241 0
0.358418 -0.921705 1.039702 0 88 241 0
0.367351 -0.912510 1.040470 0 88 241 0
0.377167 -0.905266 1.043472 0 88 241 0
0.386954 -0.898046 1.046468 0 88 241 0
0.367515 -0.808989 0.962462 0 88 241 0
0.152434 -1.037007 0.928378 0 88 241 0
0.164625 -1.029541 0.933347 0 88 241 0
0.175153 -1.020813 0.935843 0 88 241 0
0.186192 -1.012541 0.939153 0 88 241 0
0.197698 -1.004762 0.943266 0 88 241 0
0.210112 -0.997992 0.948981 0 88 241 0
0.221474 -0.990332 0.953060 0 88 241 0
0.233777 -0.983831 0.958887 0 88 241 0
0.247627 -0.979391 0.967713 0 88 241 0
0.258274 -0.971445 0.970930 0 88 241 0
0.266019 -0.959741 0.968610 0 88 241 0
0.290247 -0.970646 0.998740 0 88 241 0
0.301940 -0.965354 1.004976 0 88 241 0
0.314223 -0.961333 1.012738 0 88 241 0
0.316361 -0.940895 0.998558 0 88 241 0
0.328038 -0.935792 1.004929 0 88 241 0
0.339177 -0.930079 1.010341 0 88 241 0
0.357314 -0.938814 1.033346 0 88 241 0
0.365826 -0.929116 1.033286 0 88 241 0
0.374144 -0.918698 1.032487 0 88 241 0
0.384972 -0.914123 1.038518 0 88 241 0
0.395404 -0.908996 1.043763 0 88 241 0
0.376878 -0.820813 0.957898 0 88 241 0
0.384155 -0.799812 0.947846 0 88 241 0
0.402173 -0.813224 0.974426 0 88 241 0
0.160665 -1.042952 0.919529 0 88 241 0
0.172786 -1.035503 0.924534 0 88 241 0
0.182236 -1.025934 0.925354 0 88 241 0
0.194256 -1.018568 0.930335 0 88 241 0
0.206190 -1.011275 0.935296 0 88 241 0
0.218131 -1.004147 0.940400 0 88 241 0
0.240904 -1.008664 0.964981 0 88 241 0
0.244226 -0.992911 0.955113 0 88 241 0
0.254864 -0.984958 0.958345 0 88 241 0
0.265888 -0.977552 0.962380 0 88 241 0
0.273644 -0.965922 0.959956 0 88 241 0
0.295191 -0.973362 0.985809 0 88 241 0
0.309117 -0.971348 0.996926 0 88 241 0
0.313346 -0.954670 0.987130 0 88 241 0
0.326053 -0.951241 0.995968 0 88 241 0
0.337141 -0.945514 1.001439 0 88 241 0
0.347170 -0.938066 1.004527 0 88 241 0
0.363777 -0.944230 1.024804 0 88 241 0
0.372572 -0.935204 1.025469 0 88 241 0
0.381969 -0.927413 1.027697 0 88 241 0
0.392394 -0.922237 1.033010 0 88 241 0
0.402751 -0.917289 1.038450 0 88 241 0
0.388389 -0.839418 0.961443 0 88 241 0
0.399376 -0.831176 0.964758 0 88 241 0
0.410134 -0.822257 0.967309 0 88 241 0
0.420338 -0.811197 0.967597 0 88 241 0
0.429775 -0.796440 0.964151 0 88 241 0
0.179143 -1.056690 0.927195 0 88 241 0
0.194571 -1.052426 0.938134 0 88 241 0
0.206665 -1.045810 0.943913 0 88 241 0
0.218150 -1.038846 0.948821 0 88 241 0
0.229549 -1.031954 0.953707 0 88 241 0
0.239932 -1.024198 0.956897 0 88 241 0
0.249836 -1.015987 0.959246 0 88 241 0
0.259305 -1.007284 0.960762 0 88 241 0
0.266697 -0.996039 0.958146 0 88 241 0
0.273448 -0.983620 0.953922 0 88 241 0
0.281144 -0.948929 0.931575 0 88 241 0
0.314423 -0.974548 0.984897 0 88 241 0
0.327263 -0.971576 0.994494 0 88 241 0
0.336833 -0.963642 0.996763 0 88 241 0
0.346402 -0.955708 0.999032 0 88 241 0
0.356584 -0.948973 1.002902 0 88 241 0
0.369911 -0.949008 1.015527 0 88 241 0
0.378711 -0.940007 1.016157 0 88 241 0
0.388618 -0.933499 1.019962 0 88 241 0
0.399261 -0.929109 1.026272 0 88 241 0
0.409707 -0.924712 1.032389 0 88 241 0
0.397520 -0.851591 0.958438 0 88 241 0
0.408134 -0.842791 0.960955 0 88 241 0
0.417987 -0.831212 0.960379 0 88 241 0
0.427955 -0.819537 0.959830 0 88 241 0
0.437554 -0.805609 0.957009 0 88 241 0
0.187093 -1.062435 0.918830 0 88 241 0
0.203414 -1.058969 0.931649 0 88 241 0
0.216896 -1.053664 0.940065 0 88 241 0
0.230273 -1.048613 0.948606 0 88 241 0
0.241468 -1.041848 0.953497 0 88 241 0
0.251211 -1.033770 0.955807 0 88 241 0
0.260954 -1.025693 0.958117 0 88 241 0
0.268990 -1.015674 0.957040 0 88 241 0
0.287033 -1.017492 0.976232 0 88 241 0
0.290182 -1.001460 0.965047 0 88 241 0
0.295631 -0.987547 0.957987 0 88 241 0
0.315200 -0.993300 0.982165 0 88 241 0
0.325435 -0.986492 0.986083 0 88 241 0
0.334593 -0.978061 0.987508 0 88 241 0
0.347035 -0.975295 0.997170 0 88 241 0
0.356728 -0.968097 1.000214 0 88 241 0
0.364909 -0.957959 0.999170 0 88 241 0
0.375746 -0.953169 1.005468 0 88 241 0
0.384831 -0.944797 1.006877 0 88 241 0
0.395213 -0.939546 1.012321 0 88 241 0
0.406005 -0.935799 1.019503 0 88 241 0
0.405613 -0.860965 0.952593 0 88 241 0
0.415930 -0.851572 0.954293 0 88 241 0
0.425551 -0.839402 0.952845 0 88 241 0
0.435316 -0.827111 0.951432 0 88 241 0
0.445377 -0.815414 0.950835 0 88 241 0
0.454450 -0.797826 0.944037 0 88 241 0
0.181137 -1.073851 0.901931 0 88 241 0
0.199137 -1.071302 0.917649 0 88 241 0
0.214789 -1.067565 0.929910 0 88 241 0
0.229529 -1.063593 0.941038 0 88 241 0
0.242080 -1.058137 0.948594 0 88 241 0
0.252154 -1.050610 0.951746 0 88 241 0
0.261752 -1.042652 0.954022 0 88 241 0
0.270919 -1.034228 0.955432 0 88 241 0
0.291055 -1.038322 0.979443 0 88 241 0
0.298611 -1.028593 0.978028 0 88 241 0
0.307143 -1.019869 0.978524 0 88 241 0
0.315359 -1.010582 0.978182 0 88 241 0
0.324381 -1.002277 0.979558 0 88 241 0
0.333778 -0.994487 0.981786 0 88 241 0
0.345889 -0.991211 0.990917 0 88 241 0
0.358016 -0.988580 1.000662 0 88 241 0
0.366258 -0.979272 1.000326 0 88 241 0
0.374011 -0.968720 0.998348 0 88 241 0
0.381307 -0.956731 0.994581 0 88 241 0
0.390934 -0.949575 0.997627 0 88 241 0
0.401558 -0.945056 1.004115 0 88 241 0
0.412217 -0.941169 1.011223 0 88 241 0
0.416190 -0.917911 0.993691 0 88 241 0
0.414424 -0.873013 0.950371 0 88 241 0
0.423618 -0.860276 0.947817 0 88 241 0
0.429750 -0.834568 0.930187 0 88 241 0
0.442762 -0.835329 0.943959 0 88 241 0
0.189609 -1.079905 0.894559 0 88 241 0
0.210474 -1.079639 0.915907 0 88 241 0
0.227366 -1.077152 0.931003 0 88 241 0
0.240867 -1.072446 0.940452 0 88 241 0
0.252739 -1.066659 0.947172 0 88 241 0
0.261304 -1.057935 0.947641 0 88 241 0
0.270802 -1.050061 0.949892 0 88 241 0
0.291805 -1.054709 0.976116 0 88 241 0
0.300501 -1.046688 0.977397 0 88 241 0
0.309621 -1.039127 0.979559 0 88 241 0
0.317601 -1.030078 0.979108 0 88 241 0
0.325668 -1.020956 0.978677 0 88 241 0
0.333471 -1.011243 0.977403 0 88 241 0
0.342062 -1.002498 0.977878 0 88 241 0
0.359083 -1.007852 1.000658 0 88 241 0
0.367107 -0.998767 1.000217 0 88 241 0
0.374924 -0.989041 0.998947 0 88 241 0
0.382020 -0.977481 0.995162 0 88 241 0
0.387415 -0.961490 0.985351 0 88 241 0
0.397018 -0.954340 0.988408 0 88 241 0
0.407346 -0.949184 0.994137 0 88 241 0
0.414811 -0.936343 0.989503 0 88 241 0
0.423588 -0.926633 0.989241 0 88 241 0
0.430914 -0.911638 0.982386 0 88 241 0
0.431766 -0.871027 0.944162 0 88 241 0
0.436488 -0.839373 0.918571 0 88 241 0
0.199555 -1.087018 0.890074 0 88 241 0
0.221230 -1.087542 0.913742 0 88 241 0
0.237764 -1.084995 0.928843 0 88 241 0
0.250592 -1.079939 0.937476 0 88 241 0
0.260018 -1.072125 0.939710 0 88 241 0
0.270329 -1.065171 0.943752 0 88 241 0
0.293092 -1.071171 0.974068 0 88 241 0
0.300797 -1.062391 0.973498 0 88 241 0
0.308987 -1.054006 0.973843 0 88 241 0
0.318776 -1.047485 0.977761 0 88 241 0
0.326654 -1.038562 0.977233 0 88 241 0
0.334618 -1.029568 0.976725 0 88 241 0
0.343010 -1.021015 0.977118 0 88 241 0
0.358337 -1.023455 0.995926 0 88 241 0
0.368107 -1.017747 1.000638 0 88 241 0
0.375999 -1.008812 1.000114 0 88 241 0
0.383125 -0.998121 0.997011 0 88 241 0
0.389885 -0.986139 0.992224 0 88 241 0
0.396620 -0.973380 0.986633 0 88 241 0
0.402362 -0.957299 0.976653 0 88 241 0
0.413134 -0.953311 0.984159 0 88 241 0
0.422412 -0.945619 0.986359 0 88 241 0
0.430860 -0.935266 0.985007 0 88 241 0
0.440199 -0.927524 0.987222 0 88 241 0
0.438703 -0.877584 0.935592 0 88 241 0
0.209374 -1.094041 0.885806 0 88 241 0
0.229756 -1.093749 0.907944 0 88 241 0
0.246569 -1.091559 0.924175 0 88 241 0
0.259248 -1.086531 0.932895 0 88 241 0
0.269483 -1.079611 0.936955 0 88 241 0
0.301189 -1.077764 0.969941 0 88 241 0
0.309239 -1.069523 0.970217 0 88 241 0
0.318519 -1.062613 0.973233 0 88 241 0
0.327017 -1.054784 0.974432 0 88 241 0
0.335182 -1.046448 0.974735 0 88 241 0
0.342711 -1.037073 0.973255 0 88 241 0
0.348690 -1.025066 0.967326 0 88 241 0
0.357477 -1.016998 0.968592 0 88 241 0
0.375778 -1.025481 0.997584 0 88 241 0
0.384172 -1.017738 0.998758 0 88 241 0
0.390889 -1.006529 0.994473 0 88 241 0
0.396562 -0.992426 0.986022 0 88 241 0
0.403567 -0.980352 0.981153 0 88 241 0
0.408437 -0.962057 0.967450 0 88 241 0
0.420009 -0.960454 0.978520 0 88 241 0
0.430433 -0.956511 0.985890 0 88 241 0
0.439553 -0.948950 0.988052 0 88 241 0
0.447627 -0.937556 0.985068 0 88 241 0
0.445905 -0.885405 0.928824 0 88 241 0
0.439731 -0.802321 0.835443 0 88 241 0
0.215588 -1.098473 0.875092 0 88 241 0
0.237228 -1.099152 0.900405 0 88 241 0
0.255735 -1.098428 0.920638 0 88 241 0
0.303464 -1.094558 0.970650 0 88 241 0
0.311723 -1.086941 0.971774 0 88 241 0
0.318823 -1.077977 0.970122 0 88 241 0
0.328710 -1.072089 0.974968 0 88 241 0
0.335499 -1.062459 0.972241 0 88 241 0
0.343567 -1.054231 0.972485 0 88 241 0
0.343911 -1.034709 0.951718 0 88 241 0
0.354370 -1.029116 0.957534 0 88 241 0
0.363475 -1.021567 0.959692 0 88 241 0
0.372285 -1.013494 0.960947 0 88 241 0
0.391001 -1.024291 0.993906 0 88 241 0
0.396646 -1.010994 0.985904 0 88 241 0
0.402665 -0.997540 0.978157 0 88 241 0
0.408051 -0.981532 0.966925 0 88 241 0
0.419889 -0.980951 0.979739 0 88 241 0
0.426377 -0.966339 0.971270 0 88 241 0
0.437286 -0.964219 0.981362 0 88 241 0
0.445960 -0.955489 0.981751 0 88 241 0
0.454856 -0.947343 0.983026 0 88 241 0
0.462425 -0.933374 0.976481 0 88 241 0
0.449421 -0.818736 0.837461 0 88 241 0
0.311783 -1.101290 0.967978 0 88 241 0
0.319549 -1.093341 0.968116 0 88 241 0
0.327759 -1.085778 0.969211 0 88 241 0
0.335626 -1.077745 0.969373 0 88 241 0
0.343192 -1.069205 0.968612 0 88 241 0
0.351189 -1.061064 0.968804 0 88 241 0
0.350615 -1.040233 0.944653 0 88 241 0
0.360994 -1.034650 0.950520 0 88 241 0
0.370356 -1.027644 0.953592 0 88 241 0
0.379404 -1.020143 0.955737 0 88 241 0
0.397197 -1.029720 0.987377 0 88 241 0
0.402385 -1.015445 0.977366 0 88 241 0
0.409459 -1.004291 0.973082 0 88 241 0
0.416050 -0.991271 0.966128 0 88 241 0
0.425924 -0.986107 0.971876 0 88 241 0
0.436880 -0.984579 0.982990 0 88 241 0
0.442181 -0.965829 0.968066 0 88 241 0
0.452466 -0.962591 0.976465 0 88 241 0
0.460831 -0.952633 0.975042 0 88 241 0
0.468744 -0.940028 0.970106 0 88 241 0
0.457276 -0.827134 0.829426 0 88 241 0
0.358545 -0.873158 1.049642 0 88 241 0
0.248375 -0.944851 1.019789 0 88 241 0
0.260711 -0.936746 1.021303 0 88 241 0
0.273047 -0.928641 1.022818 0 88 241 0
0.290148 -0.926185 1.027624 0 88 241 0
0.309315 -0.926763 1.034038 0 88 241 0
0.352400 -0.912943 1.043794 0 88 241 0
0.362661 -0.902908 1.044039 0 88 241 0
0.375520 -0.896654 1.046294 0 88 241 0
0.201869 -0.939789 0.986020 0 88 241 0
0.220052 -0.936550 0.991104 0 88 241 0
0.262336 -0.959060 1.012764 0 88 241 0
0.273813 -0.950430 1.013817 0 88 241 0
0.288956 -0.945923 1.017458 0 88 241 0
0.305830 -0.943763 1.022452 0 88 241 0
0.320606 -0.939497 1.026049 0 88 241 0
0.277380 -0.860566 0.985594 0 88 241 0
0.354023 -0.937135 1.036568 0 88 241 0
0.363458 -0.926581 1.036300 0 88 241 0
0.372508 -0.915192 1.035629 0 88 241 0
0.385181 -0.909042 1.037898 0 88 241 0
0.396833 -0.901386 1.039328 0 88 241 0
0.198967 -0.957740 0.973866 0 88 241 0
0.217769 -0.955102 0.979545 0 88 241 0
0.235767 -0.952128 0.984826 0 88 241 0
0.273095 -0.969919 1.004091 0 88 241 0
0.285032 -0.962076 1.005556 0 88 241 0
0.299970 -0.957659 1.009263 0 88 241 0
0.315334 -0.954041 1.013396 0 88 241 0
0.310495 -0.925698 1.001865 0 88 241 0
0.325484 -0.921247 1.005578 0 88 241 0
0.362433 -0.946844 1.027418 0 88 241 0
0.371242 -0.935658 1.026627 0 88 241 0
0.382231 -0.927359 1.027602 0 88 241 0
0.396676 -0.924344 1.031622 0 88 241 0
0.408659 -0.917766 1.033543 0 88 241 0
0.202572 -0.981119 0.966411 0 88 241 0
0.219846 -0.977263 0.971280 0 88 241 0
0.233608 -0.970361 0.973755 0 88 241 0
0.246023 -0.962203 0.975279 0 88 241 0
0.280482 -0.977243 0.993330 0 88 241 0
0.292340 -0.969452 0.994786 0 88 241 0
0.308954 -0.967099 0.999967 0 88 241 0
0.321264 -0.960081 1.001871 0 88 241 0
0.323973 -0.941174 0.995921 0 88 241 0
0.338130 -0.936154 0.999230 0 88 241 0
0.368734 -0.953726 1.016808 0 88 241 0
0.379566 -0.945538 1.017745 0 88 241 0
0.390930 -0.938071 1.019140 0 88 241 0
0.405196 -0.935121 1.023247 0 88 241 0
0.417868 -0.930006 1.025981 0 88 241 0
0.181934 -1.001859 0.949539 0 88 241 0
0.197990 -0.996616 0.953563 0 88 241 0
0.211837 -0.989641 0.956085 0 88 241 0
0.226288 -0.983330 0.959091 0 88 241 0
0.243253 -0.979613 0.964049 0 88 241 0
0.256814 -0.972826 0.966535 0 88 241 0
0.267830 -0.963465 0.967066 0 88 241 0
0.298382 -0.975445 0.983220 0 88 241 0
0.313137 -0.971058 0.987085 0 88 241 0
0.321429 -0.959241 0.985639 0 88 241 0
0.336599 -0.955642 0.989966 0 88 241 0
0.352661 -0.953580 0.995223 0 88 241 0
0.374357 -0.959704 1.005772 0 88 241 0
0.386676 -0.953732 1.008106 0 88 241 0
0.397945 -0.946328 1.009490 0 88 241 0
0.411126 -0.941913 1.012751 0 88 241 0
0.423718 -0.936823 1.015529 0 88 241 0
0.374703 -0.825951 0.954147 0 88 241 0
0.397123 -0.833722 0.965607 0 88 241 0
0.409666 -0.824420 0.966736 0 88 241 0
0.421840 -0.814298 0.967409 0 88 241 0
0.167970 -1.027685 0.937345 0 88 241 0
0.177482 -1.017226 0.936797 0 88 241 0
0.189961 -1.009027 0.938329 0 88 241 0
0.202439 -1.000828 0.939861 0 88 241 0
0.216274 -0.993842 0.942417 0 88 241 0
0.230709 -0.987515 0.945476 0 88 241 0
0.248928 -0.985016 0.951571 0 88 241 0
0.264338 -0.980152 0.955607 0 88 241 0
0.272211 -0.967612 0.953572 0 88 241 0
0.298998 -0.975479 0.967238 0 88 241 0
0.336994 -0.976822 0.982622 0 88 241 0
0.353579 -0.975607 0.988603 0 88 241 0
0.373514 -0.979346 0.997911 0 88 241 0
0.379945 -0.965650 0.994842 0 88 241 0
0.392207 -0.959698 0.997205 0 88 241 0
0.403916 -0.953057 0.999071 0 88 241 0
0.418428 -0.950888 1.003854 0 88 241 0
0.430436 -0.945103 1.006186 0 88 241 0
0.390549 -0.849659 0.951720 0 88 241 0
0.405992 -0.845826 0.956189 0 88 241 0
0.419609 -0.838984 0.958718 0 88 241 0
0.430016 -0.825832 0.957423 0 88 241 0
0.440236 -0.811751 0.955676 0 88 241 0
0.159981 -1.040032 0.922188 0 88 241 0
0.172397 -1.031875 0.923712 0 88 241 0
0.181931 -1.021437 0.923095 0 88 241 0
0.194410 -1.013238 0.924627 0 88 241 0
0.235253 -1.029386 0.948052 0 88 241 0
0.249097 -1.023419 0.951092 0 88 241 0
0.258906 -1.013845 0.950956 0 88 241 0
0.267527 -1.002964 0.949780 0 88 241 0
0.271181 -0.986792 0.944330 0 88 241 0
0.282076 -0.977546 0.944774 0 88 241 0
0.324132 -1.002495 0.972459 0 88 241 0
0.337213 -0.997031 0.975406 0 88 241 0
0.347952 -0.988932 0.976277 0 88 241 0
0.379577 -1.006963 0.996784 0 88 241 0
0.384897 -0.992826 0.992879 0 88 241 0
0.390643 -0.978617 0.989115 0 88 241 0
0.396706 -0.964201 0.985391 0 88 241 0
0.409842 -0.959743 0.988791 0 88 241 0
0.422384 -0.954632 0.991671 0 88 241 0
0.425813 -0.934643 0.984495 0 88 241 0
0.404370 -0.870068 0.948169 0 88 241 0
0.417347 -0.862584 0.950209 0 88 241 0
0.427792 -0.850297 0.949167 0 88 241 0
0.438478 -0.838059 0.948245 0 88 241 0
0.448207 -0.823320 0.945864 0 88 241 0
0.457834 -0.807605 0.943024 0 88 241 0
0.162916 -1.043134 0.907442 0 88 241 0
0.177554 -1.036619 0.910634 0 88 241 0
0.220105 -1.052306 0.935479 0 88 241 0
0.236028 -1.048049 0.940223 0 88 241 0
0.251078 -1.043332 0.944396 0 88 241 0
0.293449 -1.063274 0.971079 0 88 241 0
0.301670 -1.053735 0.970228 0 88 241 0
0.308747 -1.042880 0.968307 0 88 241 0
0.323448 -1.039427 0.972902 0 88 241 0
0.332525 -1.030359 0.972621 0 88 241 0
0.338759 -1.017990 0.969667 0 88 241 0
0.298688 -0.951857 0.923180 0 88 241 0
0.382129 -1.029001 0.992753 0 88 241 0
0.392587 -1.022130 0.994036 0 88 241 0
0.396751 -1.006983 0.988968 0 88 241 0
0.401703 -0.992146 0.984369 0 88 241 0
0.400701 -0.967983 0.973087 0 88 241 0
0.413337 -0.962783 0.976033 0 88 241 0
0.424495 -0.955451 0.977403 0 88 241 0
0.436098 -0.948862 0.979292 0 88 241 0
0.448099 -0.943045 0.981695 0 88 241 0
0.423474 -0.869867 0.938500 0 88 241 0
0.433963 -0.857804 0.937463 0 88 241 0
0.444153 -0.844696 0.935831 0 88 241 0
0.455711 -0.833999 0.935855 0 88 241 0
0.464211 -0.816004 0.931319 0 88 241 0
0.192679 -1.065756 0.913403 0 88 241 0
0.216180 -1.066718 0.924017 0 88 241 0
0.237046 -1.066335 0.932858 0 88 241 0
0.252789 -1.062348 0.937786 0 88 241 0
0.265491 -1.056052 0.940311 0 88 241 0
0.304716 -1.073542 0.965511 0 88 241 0
0.310846 -1.062339 0.962882 0 88 241 0
0.325382 -1.058938 0.967565 0 88 241 0
0.334819 -1.050688 0.967757 0 88 241 0
0.344318 -1.042396 0.967958 0 88 241 0
0.352134 -1.032134 0.966502 0 88 241 0
0.361129 -1.022944 0.966060 0 88 241 0
0.371986 -1.015811 0.967393 0 88 241 0
0.401662 -1.032398 0.988040 0 88 241 0
0.406255 -1.018104 0.983290 0 88 241 0
0.410693 -1.002886 0.978038 0 88 241 0
0.402748 -0.968944 0.958611 0 88 241 0
0.417787 -0.967264 0.964321 0 88 241 0
0.433484 -0.967202 0.971079 0 88 241 0
0.450710 -0.970441 0.980053 0 88 241 0
0.457994 -0.957249 0.976986 0 88 241 0
0.466435 -0.945552 0.975124 0 88 241 0
0.445891 -0.876625 0.933766 0 88 241 0
0.446784 -0.845078 0.919287 0 88 241 0
0.462042 -0.842228 0.924542 0 88 241 0
0.181265 -1.074982 0.895902 0 88 241 0
0.210887 -1.079906 0.911566 0 88 241 0
0.237735 -1.083808 0.925486 0 88 241 0
0.253926 -1.080283 0.930981 0 88 241 0
0.265771 -1.073516 0.932936 0 88 241 0
0.306595 -1.091606 0.960098 0 88 241 0
0.315725 -1.083574 0.960217 0 88 241 0
0.328119 -1.078480 0.963241 0 88 241 0
0.337297 -1.070417 0.963366 0 88 241 0
0.345930 -1.061696 0.962922 0 88 241 0
0.355251 -1.053540 0.963065 0 88 241 0
0.355987 -1.035781 0.954636 0 88 241 0
0.366794 -1.028681 0.955962 0 88 241 0
0.377600 -1.021581 0.957289 0 88 241 0
0.405335 -1.035874 0.976730 0 88 241 0
0.412555 -1.025033 0.974610 0 88 241 0
0.416484 -1.009242 0.968577 0 88 241 0
0.424196 -0.998078 0.966517 0 88 241 0
0.437685 -0.995312 0.971180 0 88 241 0
0.451884 -0.994111 0.976932 0 88 241 0
0.464962 -0.991616 0.981545 0 88 241 0
0.466978 -0.969968 0.971770 0 88 241 0
0.474857 -0.957679 0.969229 0 88 241 0
0.449842 -0.846285 0.903117 0 88 241 0
0.193734 -1.084719 0.889460 0 88 241 0
0.224650 -1.090791 0.906858 0 88 241 0
0.246746 -1.091379 0.917359 0 88 241 0
0.262787 -1.087889 0.922963 0 88 241 0
0.274516 -1.081190 0.924922 0 88 241 0
0.321771 -1.104926 0.958968 0 88 241 0
0.331291 -1.097664 0.959618 0 88 241 0
0.341476 -1.090972 0.960868 0 88 241 0
0.349065 -1.081756 0.959619 0 88 241 0
0.355701 -1.071353 0.957319 0 88 241 0
0.346570 -1.043918 0.938960 0 88 241 0
0.360411 -1.040060 0.943359 0 88 241 0
0.372867 -1.034898 0.946446 0 88 241 0
0.383610 -1.027839 0.947765 0 88 241 0
0.394353 -1.020780 0.949084 0 88 241 0
0.418799 -1.031909 0.966103 0 88 241 0
0.424689 -1.018975 0.962153 0 88 241 0
0.434671 -1.011410 0.962860 0 88 241 0
0.446525 -1.006642 0.965873 0 88 241 0
0.460061 -1.004798 0.971169 0 88 241 0
0.471233 -0.999472 0.973579 0 88 241 0
0.483167 -0.995659 0.977121 0 88 241 0
0.482280 -0.968043 0.962474 0 88 241 0
0.491040 -0.957253 0.960953 0 88 241 0
0.496600 -0.939299 0.954263 0 88 241 0
0.505473 -0.927427 0.952237 0 88 241 0
0.209776 -1.096900 0.886540 0 88 241 0
0.234502 -1.098818 0.899354 0 88 241 0
0.253556 -1.097277 0.907604 0 88 241 0
0.332659 -1.114565 0.954603 0 88 241 0
0.342011 -1.107423 0.955213 0 88 241 0
0.350136 -1.099090 0.954599 0 88 241 0
0.358357 -1.090694 0.953997 0 88 241 0
0.337783 -1.052914 0.923854 0 88 241 0
0.352887 -1.050176 0.929577 0 88 241 0
0.367650 -1.047462 0.935150 0 88 241 0
0.379994 -1.042346 0.938278 0 88 241 0
0.392776 -1.037939 0.941996 0 88 241 0
0.400772 -1.027695 0.940291 0 88 241 0
0.409428 -1.018016 0.939205 0 88 241 0
0.430362 -1.025219 0.953058 0 88 241 0
0.443108 -1.021835 0.957309 0 88 241 0
0.454332 -1.016456 0.959761 0 88 241 0
0.466896 -1.013391 0.964098 0 88 241 0
0.477943 -1.008129 0.966529 0 88 241 0
0.488113 -1.001447 0.967777 0 88 241 0
0.488037 -0.975348 0.953691 0 88 241 0
0.498247 -0.967642 0.954407 0 88 241 0
0.504535 -0.951534 0.948732 0 88 241 0
0.511135 -0.935022 0.942987 0 88 241 0
0.521135 -0.925457 0.942603 0 88 241 0
0.210227 -1.098266 0.870623 0 88 241 0
0.237084 -1.101586 0.885693 0 88 241 0
0.343424 -1.124086 0.950620 0 88 241 0
0.351329 -1.115925 0.949924 0 88 241 0
0.358083 -1.106542 0.947977 0 88 241 0
0.332578 -1.065545 0.912412 0 88 241 0
0.346525 -1.061523 0.917012 0 88 241 0
0.360768 -1.058099 0.922093 0 88 241 0
0.374261 -1.054178 0.926526 0 88 241 0
0.387052 -1.049729 0.930318 0 88 241 0
0.398133 -1.043438 0.932234 0 88 241 0
0.405086 -1.031947 0.929200 0 88 241 0
0.415238 -1.024287 0.929891 0 88 241 0
0.426382 -1.017954 0.931814 0 88 241 0
0.451060 -1.031607 0.951616 0 88 241 0
0.462576 -1.027007 0.954696 0 88 241 0
0.473131 -1.021061 0.956547 0 88 241 0
0.484488 -1.016565 0.959607 0 88 241 0
0.493745 -1.008505 0.959633 0 88 241 0
0.503450 -1.001140 0.960269 0 88 241 0
0.505722 -0.978681 0.948774 0 88 241 0
0.511212 -0.961228 0.941673 0 88 241 0
0.517754 -0.944864 0.935701 0 88 241 0
0.525712 -0.930734 0.931680 0 88 241 0
0.214376 -1.102193 0.857845 0 88 241 0
0.234560 -1.100691 0.867205 0 88 241 0
0.337769 -1.134396 0.939285 0 88 241 0
0.352117 -1.131829 0.945060 0 88 241 0
0.358013 -1.122075 0.942343 0 88 241 0
0.324964 -1.075784 0.898489 0 88 241 0
0.339582 -1.072255 0.903839 0 88 241 0
0.354471 -1.069331 0.909681 0 88 241 0
0.366291 -1.063525 0.912279 0 88 241 0
0.376939 -1.056529 0.913586 0 88 241 0
0.388663 -1.050785 0.916172 0 88 241 0
0.398235 -1.042536 0.916200 0 88 241 0
0.408883 -1.035540 0.917508 0 88 241 0
0.420512 -1.029859 0.920082 0 88 241 0
0.430178 -1.021548 0.920122 0 88 241 0
0.439909 -1.013195 0.920170 0 88 241 0
0.469286 -1.035245 0.947976 0 88 241 0
0.480579 -1.030764 0.951083 0 88 241 0
0.490543 -1.024218 0.952306 0 88 241 0
0.499320 -1.015511 0.951663 0 88 241 0
0.508572 -1.007472 0.951652 0 88 241 0
0.513812 -0.991095 0.944726 0 88 241 0
0.518495 -0.972339 0.936125 0 88 241 0
0.524017 -0.954012 0.928202 0 88 241 0
0.529951 -0.935218 0.920214 0 88 241 0
0.275088 -1.083712 0.861003 0 88 241 0
0.358790 -1.137841 0.937767 0 88 241 0
0.316703 -1.085495 0.883858 0 88 241 0
0.332027 -1.082417 0.889999 0 88 241 0
0.347004 -1.079373 0.895978 0 88 241 0
0.358279 -1.072935 0.897954 0 88 241 0
0.367267 -1.064117 0.897282 0 88 241 0
0.379639 -1.058901 0.900576 0 88 241 0
0.372641 -1.031266 0.880078 0 88 241 0
0.402031 -1.046130 0.904508 0 88 241 0
0.413681 -1.040417 0.907121 0 88 241 0
0.424297 -1.033442 0.908425 0 88 241 0
0.433506 -1.024478 0.907781 0 88 241 0
0.441450 -1.013434 0.905207 0 88 241 0
0.393243 -0.914236 0.819550 0 88 241 0
0.486661 -1.038290 0.944001 0 88 241 0
0.496530 -1.031806 0.945213 0 88 241 0
0.505229 -1.023178 0.944506 0 88 241 0
0.514023 -1.014487 0.943811 0 88 241 0
0.521838 -1.003527 0.941221 0 88 241 0
0.523953 -0.979614 0.927757 0 88 241 0
0.529154 -0.960663 0.918931 0 88 241 0
0.535731 -0.943525 0.911931 0 88 241 0
0.271179 -1.081062 0.840074 0 88 241 0
0.286593 -1.076705 0.845624 0 88 241 0
0.323084 -1.091394 0.874611 0 88 241 0
0.338910 -1.088882 0.881552 0 88 241 0
0.351407 -1.083556 0.884916 0 88 241 0
0.361513 -1.075955 0.885547 0 88 241 0
0.370533 -1.067143 0.884825 0 88 241 0
0.369229 -1.046647 0.871132 0 88 241 0
0.378743 -1.037510 0.870471 0 88 241 0
0.407871 -1.052228 0.895505 0 88 241 0
0.417961 -1.044636 0.896134 0 88 241 0
0.427123 -1.035731 0.895430 0 88 241 0
0.436381 -1.026763 0.894738 0 88 241 0
0.445286 -1.017064 0.893393 0 88 241 0
0.406131 -0.931607 0.818114 0 88 241 0
0.414893 -0.917000 0.813582 0 88 241 0
0.500849 -1.036534 0.935694 0 88 241 0
0.509149 -1.027233 0.934274 0 88 241 0
0.517944 -1.018569 0.933525 0 88 241 0
0.526835 -1.009842 0.932788 0 88 241 0
0.536493 -1.002534 0.933364 0 88 241 0
0.533282 -0.965018 0.907853 0 88 241 0
0.313570 -1.100041 0.858535 0 88 241 0
0.330775 -1.098455 0.867050 0 88 241 0
0.343935 -1.093619 0.871176 0 88 241 0
0.354631 -1.086592 0.872489 0 88 241 0
0.313237 -1.026517 0.809910 0 88 241 0
0.333786 -1.027497 0.821974 0 88 241 0
0.373185 -1.050391 0.858949 0 88 241 0
0.347069 -0.999524 0.810925 0 88 241 0
0.411140 -1.055179 0.883193 0 88 241 0
0.419783 -1.045689 0.881743 0 88 241 0
0.428552 -1.036117 0.880309 0 88 241 0
0.436990 -1.025809 0.878206 0 88 241 0
0.415733 -0.943928 0.812450 0 88 241 0
0.426901 -0.933732 0.811938 0 88 241 0
0.440532 -0.927634 0.815495 0 88 241 0
0.513437 -1.031983 0.924751 0 88 241 0
0.521854 -1.022641 0.923274 0 88 241 0
0.531092 -1.014665 0.923152 0 88 241 0
0.539070 -1.003707 0.920366 0 88 241 0
0.536769 -0.967871 0.895477 0 88 241 0
0.334611 -1.102086 0.855236 0 88 241 0
0.348938 -1.098335 0.860869 0 88 241 0
0.312500 -1.025452 0.790139 0 88 241 0
0.335842 -1.029178 0.806049 0 88 241 0
0.354718 -1.029044 0.816762 0 88 241 0
0.370605 -1.026155 0.823878 0 88 241 0
0.408424 -1.050756 0.862360 0 88 241 0
0.419230 -1.043656 0.863687 0 88 241 0
0.430037 -1.036556 0.865013 0 88 241 0
0.438944 -1.026740 0.863395 0 88 241 0
0.417790 -0.971371 0.813398 0 88 241 0
0.426041 -0.957457 0.808598 0 88 241 0
0.451653 -0.971959 0.833183 0 88 241 0
0.460583 -0.959486 0.829759 0 88 241 0
0.469362 -0.946168 0.825670 0 88 241 0
0.525753 -1.026702 0.913057 0 88 241 0
0.534986 -1.018747 0.912899 0 88 241 0
0.542982 -1.007832 0.910006 0 88 241 0
0.306292 -1.018799 0.762732 0 88 241 0
0.334044 -1.026735 0.784727 0 88 241 0
0.354181 -1.027711 0.797290 0 88 241 0
0.372204 -1.027084 0.807469 0 88 241 0
0.409708 -1.051231 0.846727 0 88 241 0
0.420597 -1.044077 0.848063 0 88 241 0
0.430098 -1.035030 0.847238 0 88 241 0
0.424870 -1.004630 0.822565 0 88 241 0
0.435518 -0.995765 0.822544 0 88 241 0
0.445815 -0.986196 0.821817 0 88 241 0
0.455010 -0.974546 0.818962 0 88 241 0
0.463628 -0.961407 0.814709 0 88 241 0
0.471397 -0.946021 0.808361 0 88 241 0
0.477336 -0.926043 0.797671 0 88 241 0
0.521683 -0.986257 0.866581 0 88 241 0
0.546243 -1.010497 0.898275 0 88 241 0
0.136672 -0.951217 0.590326 0 88 241 0
0.150649 -0.939256 0.589996 0 88 241 0
0.307360 -1.019557 0.744260 0 88 241 0
0.333016 -1.025099 0.763912 0 88 241 0
0.354161 -1.026940 0.778101 0 88 241 0
0.371844 -1.025689 0.787910 0 88 241 0
0.387608 -1.022735 0.795301 0 88 241 0
0.422116 -1.044676 0.832407 0 88 241 0
0.413811 -1.011073 0.802609 0 88 241 0
0.425447 -1.003427 0.804038 0 88 241 0
0.436658 -0.995135 0.804732 0 88 241 0
0.446673 -0.984853 0.803234 0 88 241 0
0.455635 -0.972485 0.799561 0 88 241 0
0.464063 -0.958617 0.794458 0 88 241 0
0.471258 -0.941672 0.786340 0 88 241 0
0.476864 -0.920402 0.774071 0 88 241 0
0.525513 -0.989883 0.854784 0 88 241 0
0.534622 -0.979084 0.852357 0 88 241 0
0.140401 -0.978133 0.588311 0 88 241 0
0.153997 -0.966450 0.587880 0 88 241 0
0.168282 -0.955231 0.588234 0 88 241 0
0.182052 -0.943434 0.587824 0 88 241 0
0.197602 -0.933217 0.589733 0 88 241 0
0.305877 -1.017703 0.721890 0 88 241 0
0.332631 -1.024138 0.743515 0 88 241 0
0.352794 -1.024638 0.756491 0 88 241 0
0.372083 -1.024979 0.768799 0 88 241 0
0.386481 -1.020102 0.774067 0 88 241 0
0.400721 -1.015328 0.779315 0 88 241 0
0.413900 -1.009418 0.783033 0 88 241 0
0.425679 -1.001679 0.784480 0 88 241 0
0.436619 -0.992658 0.784423 0 88 241 0
0.446411 -0.981641 0.782125 0 88 241 0
0.455974 -0.969858 0.779099 0 88 241 0
0.464166 -0.955128 0.772964 0 88 241 0
0.471327 -0.937591 0.764043 0 88 241 0
0.476482 -0.914773 0.749835 0 88 241 0
0.134070 -1.017610 0.590891 0 88 241 0
0.145727 -1.005231 0.588588 0 88 241 0
0.158913 -0.993846 0.588052 0 88 241 0
0.172797 -0.982908 0.588320 0 88 241 0
0.186156 -0.971408 0.587806 0 88 241 0
0.198466 -0.958782 0.585727 0 88 241 0
0.213716 -0.948763 0.587599 0 88 241 0
0.297925 -1.009228 0.689568 0 88 241 0
0.329095 -1.019784 0.717954 0 88 241 0
0.352059 -1.023026 0.735279 0 88 241 0
0.370342 -1.021904 0.746140 0 88 241 0
0.386814 -1.019248 0.754625 0 88 241 0
0.399310 -1.011945 0.756878 0 88 241 0
0.413646 -1.007245 0.762372 0 88 241 0
0.425583 -0.999402 0.763837 0 88 241 0
0.436692 -0.990287 0.763765 0 88 241 0
0.446990 -0.979710 0.762013 0 88 241 0
0.455586 -0.965894 0.756605 0 88 241 0
0.463369 -0.949891 0.748944 0 88 241 0
0.470831 -0.932283 0.739806 0 88 241 0
0.474655 -0.905995 0.721461 0 88 241 0
0.433794 -0.779477 0.595085 0 88 241 0
0.447657 -0.764924 0.592478 0 88 241 0
0.463433 -0.754558 0.594415 0 88 241 0
0.479208 -0.744193 0.596352 0 88 241 0
0.137672 -1.041766 0.588973 0 88 241 0
0.151026 -1.031195 0.589140 0 88 241 0
0.165703 -1.021552 0.590942 0 88 241 0
0.178537 -1.010424 0.590309 0 88 241 0
0.190271 -0.998222 0.588068 0 88 241 0
0.205074 -0.988495 0.589886 0 88 241 0
0.217045 -0.976138 0.587674 0 88 241 0
0.231928 -0.966359 0.589502 0 88 241 0
0.248414 -0.958222 0.593734 0 88 241 0
0.324278 -1.014032 0.689623 0 88 241 0
0.349426 -1.019250 0.710527 0 88 241 0
0.368837 -1.019074 0.723216 0 88 241 0
0.385448 -1.016246 0.731881 0 88 241 0
0.399951 -1.011209 0.737343 0 88 241 0
0.412976 -1.004447 0.740414 0 88 241 0
0.425091 -0.996488 0.741901 0 88 241 0
0.436389 -0.987267 0.741816 0 88 241 0
0.446574 -0.976083 0.739385 0 88 241 0
0.455411 -0.962191 0.733845 0 88 241 0
0.461937 -0.943348 0.722720 0 88 241 0
0.468701 -0.923631 0.711035 0 88 241 0
0.445396 -0.798070 0.592739 0 88 241 0
0.459881 -0.785857 0.592309 0 88 241 0
0.474461 -0.773582 0.591890 0 88 241 0
0.489932 -0.763417 0.593790 0 88 241 0
0.504904 -0.751782 0.594156 0 88 241 0
0.519706 -0.739362 0.593764 0 88 241 0
0.534602 -0.726879 0.593384 0 88 241 0
0.550201 -0.716630 0.595299 0 88 241 0
0.143160 -1.066278 0.589669 0 88 241 0
0.155486 -1.055511 0.588920 0 88 241 0
0.169827 -1.046088 0.590680 0 88 241 0
0.181671 -1.034748 0.589117 0 88 241 0
0.197292 -1.026264 0.592544 0 88 241 0
0.208583 -1.014220 0.590008 0 88 241 0
0.221885 -1.003701 0.590132 0 88 241 0
0.234689 -0.992620 0.589441 0 88 241 0
0.248133 -0.982008 0.589583 0 88 241 0
0.261641 -0.971354 0.589733 0 88 241 0
0.318534 -1.007257 0.658869 0 88 241 0
0.345358 -1.013824 0.682679 0 88 241 0
0.365444 -1.013967 0.696459 0 88 241 0
0.383285 -1.012205 0.707097 0 88 241 0
0.397982 -1.006996 0.712672 0 88 241 0
0.412086 -1.001286 0.717421 0 88 241 0
0.424391 -0.993201 0.718931 0 88 241 0
0.435890 -0.983867 0.718835 0 88 241 0
0.444747 -0.970043 0.713134 0 88 241 0
0.453073 -0.954612 0.705708 0 88 241 0
0.461824 -0.939079 0.698485 0 88 241 0
0.468889 -0.919317 0.686530 0 88 241 0
0.443972 -0.831099 0.594769 0 88 241 0
0.457335 -0.817694 0.592487 0 88 241 0
0.471504 -0.805716 0.591964 0 88 241 0
0.486595 -0.795800 0.593817 0 88 241 0
0.501167 -0.784447 0.594097 0 88 241 0
0.516290 -0.774510 0.595954 0 88 241 0
0.530729 -0.762355 0.595463 0 88 241 0
0.544837 -0.748639 0.593424 0 88 241 0
0.556942 -0.726455 0.582842 0 88 241 0
0.381368 -0.898825 1.044940 0 88 241 0
0.352472 -0.932462 1.032927 0 88 241 0
0.362329 -0.922204 1.032239 0 88 241 0
0.376434 -0.917635 1.032817 0 88 241 0
0.394427 -0.918932 1.034654 0 88 241 0
0.259449 -0.954576 1.013071 0 88 241 0
0.274135 -0.949715 1.013695 0 88 241 0
0.292166 -0.948737 1.015318 0 88 241 0
0.310754 -0.948807 1.017176 0 88 241 0
0.267612 -0.874464 1.000115 0 88 241 0
0.362620 -0.946941 1.022008 0 88 241 0
0.372268 -0.936816 1.021226 0 88 241 0
0.384985 -0.930706 1.021439 0 88 241 0
0.402763 -0.932044 1.023435 0 88 241 0
0.419688 -0.932695 1.025228 0 88 241 0
0.255714 -0.972535 1.001079 0 88 241 0
0.271685 -0.969225 1.002173 0 88 241 0
0.284732 -0.962956 1.002392 0 88 241 0
0.301992 -0.961427 1.003963 0 88 241 0
0.309030 -0.926187 0.998044 0 88 241 0
0.331265 -0.930778 1.001311 0 88 241 0
0.368416 -0.955696 1.010039 0 88 241 0
0.377976 -0.945648 1.009165 0 88 241 0
0.392320 -0.942029 1.010026 0 88 241 0
0.409917 -0.943393 1.012182 0 88 241 0
0.202565 -0.961839 0.977782 0 88 241 0
0.221703 -0.960450 0.979722 0 88 241 0
0.237535 -0.956096 0.980662 0 88 241 0
0.278294 -0.977930 0.989934 0 88 241 0
0.292622 -0.973214 0.990624 0 88 241 0
0.308912 -0.970809 0.992021 0 88 241 0
0.331340 -0.954611 0.991272 0 88 241 0
0.349248 -0.954681 0.993371 0 88 241 0
0.372354 -0.962011 0.997581 0 88 241 0
0.383649 -0.954415 0.997321 0 88 241 0
0.399602 -0.953256 0.998937 0 88 241 0
0.414904 -0.951541 1.000363 0 88 241 0
0.401655 -0.906513 0.989483 0 88 241 0
0.206032 -0.986305 0.967997 0 88 241 0
0.224032 -0.984122 0.969756 0 88 241 0
0.234400 -0.974830 0.968958 0 88 241 0
0.247807 -0.968388 0.969183 0 88 241 0
0.259798 -0.960472 0.968898 0 88 241 0
0.294799 -0.977271 0.977064 0 88 241 0
0.375797 -0.989209 0.989887 0 88 241 0
0.378089 -0.970653 0.985991 0 88 241 0
0.387523 -0.960733 0.984934 0 88 241 0
0.402836 -0.958762 0.986405 0 88 241 0
0.407459 -0.941457 0.983082 0 88 241 0
0.420073 -0.935396 0.983293 0 88 241 0
0.396891 -0.842667 0.959487 0 88 241 0
0.412130 -0.837499 0.960228 0 88 241 0
0.424493 -0.827249 0.959464 0 88 241 0
0.436002 -0.815039 0.958151 0 88 241 0
0.194858 -0.996989 0.953649 0 88 241 0
0.211395 -0.993326 0.954970 0 88 241 0
0.223254 -0.985487 0.954647 0 88 241 0
0.239620 -0.981906 0.955965 0 88 241 0
0.256570 -0.979115 0.957555 0 88 241 0
0.263476 -0.966161 0.955321 0 88 241 0
0.293535 -0.977628 0.962141 0 88 241 0
0.326710 -0.973465 0.965569 0 88 241 0
0.390060 -1.028039 0.987354 0 88 241 0
0.393447 -1.012493 0.984018 0 88 241 0
0.395956 -0.995013 0.980093 0 88 241 0
0.391379 -0.967019 0.972656 0 88 241 0
0.403787 -0.961057 0.972864 0 88 241 0
0.417958 -0.957674 0.973936 0 88 241 0
0.436181 -0.960696 0.977113 0 88 241 0
0.450411 -0.958141 0.978396 0 88 241 0
0.409782 -0.864599 0.950152 0 88 241 0
0.421762 -0.854560 0.949309 0 88 241 0
0.433880 -0.844455 0.948468 0 88 241 0
0.443895 -0.830006 0.946287 0 88 241 0
0.452842 -0.812645 0.943253 0 88 241 0
0.175999 -1.018812 0.941126 0 88 241 0
0.186905 -1.010381 0.940472 0 88 241 0
0.198701 -1.002585 0.940111 0 88 241 0
0.212108 -0.996143 0.940336 0 88 241 0
0.296682 -1.055938 0.968100 0 88 241 0
0.311563 -1.053257 0.969521 0 88 241 0
0.323277 -1.047628 0.969718 0 88 241 0
0.329935 -1.036769 0.967820 0 88 241 0
0.338347 -1.027408 0.966565 0 88 241 0
0.307248 -0.973835 0.948071 0 88 241 0
0.323662 -0.971481 0.949797 0 88 241 0
0.401580 -1.023835 0.974658 0 88 241 0
0.407677 -1.011331 0.972249 0 88 241 0
0.407562 -0.989895 0.966609 0 88 241 0
0.403620 -0.961788 0.958673 0 88 241 0
0.444258 -0.996946 0.973699 0 88 241 0
0.459567 -0.997037 0.975910 0 88 241 0
0.459641 -0.973383 0.969715 0 88 241 0
0.468518 -0.962735 0.968189 0 88 241 0
0.435787 -0.848028 0.933424 0 88 241 0
0.452074 -0.845522 0.935093 0 88 241 0
0.169109 -1.032676 0.928463 0 88 241 0
0.177426 -1.022337 0.926819 0 88 241 0
0.194777 -1.019285 0.928596 0 88 241 0
0.296458 -1.089460 0.963762 0 88 241 0
0.302400 -1.079205 0.961782 0 88 241 0
0.316093 -1.075797 0.962903 0 88 241 0
0.329683 -1.072438 0.964022 0 88 241 0
0.335286 -1.061289 0.961738 0 88 241 0
0.346761 -1.055776 0.961931 0 88 241 0
0.345816 -1.036990 0.956506 0 88 241 0
0.356938 -1.030589 0.956396 0 88 241 0
0.366798 -1.022681 0.955669 0 88 241 0
0.376761 -1.014722 0.954945 0 88 241 0
0.408427 -1.033546 0.965045 0 88 241 0
0.414413 -1.021156 0.962470 0 88 241 0
0.421287 -1.009396 0.960208 0 88 241 0
0.434619 -1.006161 0.961323 0 88 241 0
0.451118 -1.007748 0.964274 0 88 241 0
0.466781 -1.008679 0.966914 0 88 241 0
0.479105 -1.004872 0.967715 0 88 241 0
0.490866 -1.000278 0.968210 0 88 241 0
0.487732 -0.969859 0.959182 0 88 241 0
0.495829 -0.957512 0.956941 0 88 241 0
0.500221 -0.937430 0.951962 0 88 241 0
0.163212 -1.047044 0.916312 0 88 241 0
0.208201 -1.065550 0.929109 0 88 241 0
0.250905 -1.068348 0.936824 0 88 241 0
0.316519 -1.108664 0.959487 0 88 241 0
0.325910 -1.102051 0.959014 0 88 241 0
0.334621 -1.094714 0.958214 0 88 241 0
0.344167 -1.088027 0.957744 0 88 241 0
0.351497 -1.079043 0.956227 0 88 241 0
0.328355 -1.038487 0.940329 0 88 241 0
0.347125 -1.039972 0.943796 0 88 241 0
0.360253 -1.035764 0.944647 0 88 241 0
0.372023 -1.030109 0.944844 0 88 241 0
0.383792 -1.024454 0.945041 0 88 241 0
0.392508 -1.015015 0.943611 0 88 241 0
0.420509 -1.030129 0.952655 0 88 241 0
0.430168 -1.022337 0.951871 0 88 241 0
0.446082 -1.023093 0.954660 0 88 241 0
0.460095 -1.021612 0.956472 0 88 241 0
0.473411 -1.019415 0.957956 0 88 241 0
0.485575 -1.015671 0.958790 0 88 241 0
0.496689 -1.010331 0.958976 0 88 241 0
0.495020 -0.982774 0.950436 0 88 241 0
0.505228 -0.974719 0.949662 0 88 241 0
0.507548 -0.951337 0.943017 0 88 241 0
0.514477 -0.935404 0.939350 0 88 241 0
0.192739 -1.071651 0.913706 0 88 241 0
0.228754 -1.083774 0.923710 0 88 241 0
0.254685 -1.089055 0.929811 0 88 241 0
0.264896 -1.082062 0.929316 0 88 241 0
0.328495 -1.120794 0.952516 0 88 241 0
0.339193 -1.115653 0.952695 0 88 241 0
0.346911 -1.107771 0.951491 0 88 241 0
0.354765 -1.099823 0.950290 0 88 241 0
0.317689 -1.047304 0.927201 0 88 241 0
0.335231 -1.047223 0.930161 0 88 241 0
0.353310 -1.048137 0.933531 0 88 241 0
0.367645 -1.045423 0.935105 0 88 241 0
0.381843 -1.042776 0.936676 0 88 241 0
0.397778 -1.042424 0.939277 0 88 241 0
0.397547 -1.022499 0.932873 0 88 241 0
0.411206 -1.019275 0.934168 0 88 241 0
0.430950 -1.024398 0.939166 0 88 241 0
0.455221 -1.036737 0.947240 0 88 241 0
0.468565 -1.034708 0.948864 0 88 241 0
0.481660 -1.032590 0.950417 0 88 241 0
0.492094 -1.026534 0.950258 0 88 241 0
0.501587 -1.018842 0.949417 0 88 241 0
0.511182 -1.011101 0.948578 0 88 241 0
0.514897 -0.992411 0.943240 0 88 241 0
0.516637 -0.968617 0.935936 0 88 241 0
0.520306 -0.946818 0.929597 0 88 241 0
0.529537 -0.935078 0.927418 0 88 241 0
0.216162 -1.091496 0.909702 0 88 241 0
0.240732 -1.095242 0.915385 0 88 241 0
0.340395 -1.132783 0.946014 0 88 241 0
0.350111 -1.127078 0.945825 0 88 241 0
