ply
format ascii 1.0
comment PCL generated
element vertex 600
property float x
property float y
property float z
property float nx
property float ny
property float nz
property float curvature
element camera 0
property float view_px
property float view_py
property float view_pz
property float x_axisx
property float x_axisy
property float x_axisz
property float y_axisx
property float y_axisy
property float y_axisz
property float z_axisx
property float z_axisy
property float z_axisz
property float focal
property float scalex
property float scaley
property float centerx
property float centery
property int viewportx
property int viewporty
property float k1
property float k2
end_header
0.33518687 -0.96400666 0.9975462 -0.36237156 -0.25533518 0.89637649 0.10002763
0.34836808 -0.96370214 1.0008186 -0.17539582 -0.22110707 0.95934767 0.11567209
0.36081624 -0.96020871 1.002635 0.147295 -0.33106518 0.93204081 0.15677214
0.37551984 -0.95265156 0.99979347 0.38911167 -0.4440262 0.80711389 0.17531261
0.39391217 -0.94323653 0.996472 0.50159794 -0.36335739 0.78509295 0.24409901
0.40285698 -0.94100952 0.99600095 0.47815123 -0.50883806 0.71585977 0.2510657
0.41649666 -0.93229538 0.99121332 0.36998832 0.19220839 0.90893596 0.17987281
0.4280431 -0.93101573 0.98691267 0.34474128 0.22007473 0.91253525 0.17099491
0.4405247 -0.92811525 0.98305619 0.38597295 0.30969417 0.8689732 0.16803886
0.18379958 -0.99331528 0.95112753 0.058986325 -0.22387452 0.97283131 0.25871888
0.1947134 -0.9914273 0.95205039 -0.12128263 -0.34941077 0.92908698 0.26052618
0.20597583 -0.98935443 0.95257825 -0.14744025 -0.63321835 0.7597999 0.26050535
0.21816981 -0.98805434 0.95579571 -0.1646059 -0.69593555 0.69898403 0.18236378
0.22971219 -0.98710918 0.95938087 -0.14037897 -0.60887343 0.78074765 0.18545125
0.2419388 -0.98579204 0.96308649 0.050510738 -0.44270638 0.89524281 0.16114989
0.25354782 -0.98115981 0.96229023 0.2353719 -0.33132893 0.9136855 0.15999496
0.26540598 -0.97503233 0.96191829 0.19217405 -0.11703582 0.97435713 0.18275067
0.27879536 -0.97664106 0.96463037 -0.29423669 -0.5362007 0.79114699 0.18899076
0.28666389 -0.96756017 0.96617389 -0.33872652 0.11183291 0.93421501 0.20029935
0.30132857 -0.97517419 0.97524077 -0.2732259 -0.32598275 0.90503198 0.2309882
0.31532213 -0.97630847 0.98018712 -0.48205864 -0.29976737 0.8232612 0.16778894
0.32645869 -0.97730953 0.98786509 -0.54952115 -0.23904546 0.80055219 0.097477697
0.33951339 -0.97986645 0.99550492 -0.40488088 -0.21453261 0.88884598 0.09525688
0.35196576 -0.97994184 0.999421 -0.17658646 -0.14455722 0.97361207 0.10827035
0.36393285 -0.97648895 1.0001124 0.12114432 -0.070956185 0.99009562 0.11265635
0.37557864 -0.96985132 0.99574113 0.42523962 -0.096833907 0.89988577 0.12613565
0.39500314 -0.95477277 0.98513651 0.24319606 -0.63608581 0.73229128 0.23503351
0.40797564 -0.95079744 0.98845959 0.15914035 -0.48785239 0.85829741 0.18126057
0.42012578 -0.94754821 0.98860538 0.22648239 -0.28805482 0.93044621 0.17505611
0.43227735 -0.94497955 0.9869287 0.2563343 -0.1288096 0.95796704 0.16456945
0.44673052 -0.93859059 0.9832629 0.40249828 0.099884629 0.90995502 0.16029796
0.1880905 -1.0049878 0.94458002 0.11345393 -0.51485091 0.84973919 0.18625756
0.19938326 -1.0027789 0.94550884 0.022238901 -0.54089588 0.84079552 0.16727158
0.21132608 -1.0016342 0.94852841 -0.26884806 -0.39340875 0.8791759 0.16176261
0.22676232 -1.004948 0.95385122 -0.35220969 -0.16452979 0.92134589 0.13683359
0.23678066 -1.005062 0.95927244 -0.22210868 -0.084236048 0.97137636 0.12227885
0.24802195 -1.0039134 0.96082908 -0.089936845 -0.051190022 0.99463105 0.1129416
0.2583715 -0.99772125 0.96078634 -0.087445199 0.0066401181 0.99614722 0.1001964
0.27056426 -0.99661046 0.96130198 -0.13350379 0.1340782 0.98193675 0.11733049
0.2862491 -1.0059775 0.96923983 -0.29165968 0.29043642 0.91136235 0.12946333
0.29640368 -0.99676132 0.96917814 -0.29633752 0.022884578 0.95480907 0.13681482
0.30609947 -0.98995501 0.97217673 -0.39225864 -0.015245928 0.91972864 0.13830216
0.31953239 -0.99244094 0.97890806 -0.44131851 -0.11912606 0.88940817 0.098618895
0.3287001 -0.99004513 0.9847182 -0.52914542 -0.22975373 0.81683433 0.10391842
0.34166431 -0.99263477 0.99293453 -0.46988285 -0.21567075 0.85597676 0.086553857
0.35579827 -0.99709713 0.99911529 -0.25734502 -0.094604589 0.96167743 0.12356849
0.3671433 -0.99387771 1.0002016 0.070450567 -0.0073559363 0.99748814 0.12530561
0.37936953 -0.98676485 0.99672592 0.41776863 0.068158552 0.90599328 0.11212533
0.39117521 -0.95888108 0.96378714 0.80740279 0.5688349 -0.15661292 0.21825436
0.40986687 -0.96227682 0.97981811 -0.039267965 -0.4852483 0.87349421 0.17076264
0.42278001 -0.96136922 0.98192728 0.030420562 -0.37027267 0.92842489 0.11735097
0.43726945 -0.95712715 0.98312455 0.20877902 -0.21654998 0.95368624 0.10687599
0.45044959 -0.95244163 0.9804641 0.3827143 -0.16080266 0.90976495 0.12787272
0.46401784 -0.94459563 0.97280556 0.53640276 0.036534149 0.843171 0.14823171
0.47965163 -0.9366976 0.96131635 0.46414843 0.31697041 0.82710093 0.17231834
0.4988344 -0.92239136 0.94650209 0.42829639 0.44564465 0.78610629 0.17564277
0.19154921 -1.015606 0.93682671 0.067357764 -0.65535754 0.75230938 0.14581808
0.20925769 -1.0201799 0.94450426 -0.51253051 -0.073682025 0.85550189 0.13796854
0.21827598 -1.0200454 0.95145601 -0.43752319 0.073837236 0.8961705 0.10837389
0.22992668 -1.0214195 0.95816976 -0.28530535 0.0093119433 0.95839143 0.10772506
0.24056657 -1.0191507 0.9604997 -0.15936603 -0.01704797 0.98707235 0.099245891
0.2516942 -1.016313 0.96170807 -0.1611996 -0.0097637763 0.98687351 0.096476667
0.26359576 -1.0148058 0.96343058 -0.2687977 0.054924 0.96162945 0.11055502
0.27848753 -1.0212932 0.97151357 -0.42696506 0.163794 0.88931006 0.10792334
0.28820992 -1.0189466 0.97550124 -0.27262709 0.25179496 0.92858696 0.10075975
0.29927576 -1.016701 0.97654945 -0.13870567 0.23141769 0.96291566 0.086587042
0.31058261 -1.0109739 0.97694296 -0.16039856 0.12576896 0.97900689 0.087313987
0.32319877 -1.0088152 0.97885305 -0.27649415 -0.068415143 0.95857728 0.10377055
0.33240816 -1.004128 0.98282665 -0.42728168 -0.22979732 0.87442756 0.1031708
0.34439248 -1.0066886 0.99051487 -0.50304312 -0.32103989 0.80242199 0.12678023
0.35837138 -1.0099133 0.9983328 -0.31455958 -0.10360363 0.94356692 0.15079708
0.3702918 -1.0083733 0.99932599 0.10585406 0.043061715 0.99344885 0.13817337
0.38153145 -1.0045515 0.99702972 0.3980175 0.07554125 0.91426229 0.14018688
0.39352572 -0.99322534 0.98645067 0.67904764 0.10948351 0.72588408 0.12128957
0.41301188 -0.97507876 0.97502178 -0.061454136 -0.30987725 0.9487884 0.16718253
0.42622477 -0.97519541 0.977063 -0.085319266 -0.30359617 0.94897312 0.10597701
0.43837062 -0.97621089 0.97836578 0.042282421 -0.12223364 0.99160028 0.11236815
0.44931337 -0.97452575 0.97599018 0.27035892 0.029472068 0.96230841 0.14189079
0.46959725 -0.95637989 0.96818721 0.47860098 -0.13789916 0.86713606 0.10748413
0.48486477 -0.94845384 0.96118879 0.49875656 0.032359663 0.86613786 0.15274668
0.50743937 -0.92758191 0.94402993 0.64029503 0.01990783 0.76787108 0.15478383
0.2005284 -1.0326396 0.93892884 -0.57693148 0.002994712 0.81678706 0.14011756
0.20936234 -1.0328829 0.94833624 -0.54066777 0.025400475 0.84085262 0.11404866
0.22174166 -1.0346248 0.95520115 -0.34983775 -0.12368269 0.92860979 0.11828782
0.2333156 -1.0335968 0.95798063 -0.14898716 -0.17944798 0.97242028 0.10218389
0.2451966 -1.032515 0.95878017 -0.10894431 -0.21450174 0.97062874 0.096519746
0.25571218 -1.0290699 0.9600246 -0.21200471 -0.18973587 0.95867318 0.11092864
0.26603514 -1.0270325 0.96360689 -0.44642049 -0.071461469 0.89196527 0.12355232
0.28087097 -1.0346545 0.97537762 -0.43130976 0.044487678 0.90110642 0.1169544
0.29186431 -1.0343475 0.97846001 -0.16573867 0.034297224 0.98557311 0.10944478
0.3025476 -1.0302427 0.97947931 -0.043842804 0.04050735 0.99821687 0.091833316
0.31403697 -1.0268047 0.97930694 0.0080249095 0.013182399 0.99988091 0.095657937
0.32589051 -1.0225452 0.9789753 -0.044092149 -0.11434359 0.99246228 0.12947662
0.33777487 -1.0194877 0.98043013 -0.1414991 -0.41289413 0.89972019 0.16739579
0.35037157 -1.0195541 0.98070514 0.048989013 -0.71805197 0.69426328 0.18255295
0.36688936 -1.0126314 0.97450989 0.3486326 -0.75562978 0.55450785 0.13274655
0.3866711 -1.0068156 0.97055894 0.57125098 -0.6805498 0.45882928 0.15065804
0.40396643 -0.99637806 0.97231877 0.78750515 -0.23847847 0.56829888 0.22467698
0.40008694 -1.0018151 0.97952557 0.71647185 0.081041567 0.69289279 0.11775447
0.41657928 -0.98885906 0.96981931 0.017436294 -0.26328227 0.96456128 0.18259312
0.42942372 -0.98876816 0.97321361 -0.14726163 -0.28954592 0.94576806 0.11651147
0.44265527 -0.98820686 0.97702104 -0.068303116 -0.22043788 0.97300661 0.12572296
0.45514566 -0.98635769 0.97594041 0.20624475 -0.01290715 0.97841531 0.14296402
0.46708488 -0.98482996 0.97238851 0.29883263 0.19104362 0.93498737 0.14627358
0.4855651 -0.96589005 0.95862854 0.51780033 0.023958184 0.85516596 0.14681147
0.50577164 -0.94772732 0.9433291 0.73551637 -0.018212926 0.67726207 0.12720381
0.20028706 -1.0450823 0.94182086 -0.61425501 -0.11999786 0.77993029 0.11439063
0.2113151 -1.0458075 0.94940764 -0.41502684 -0.19856797 0.8878758 0.12364554
0.22479543 -1.0463368 0.9530437 -0.20882863 -0.31373727 0.92626107 0.096115872
0.23749299 -1.0457677 0.95498288 -0.092281371 -0.31358302 0.94506603 0.10612882
0.24919188 -1.0444075 0.95587409 -0.10491879 -0.29003569 0.95124727 0.11652663
0.26016125 -1.042155 0.95787466 -0.34483084 -0.26618028 0.90013319 0.1461221
0.26925054 -1.0408633 0.96271539 -0.54694396 -0.19802101 0.81341255 0.16753431
0.28452861 -1.0491648 0.97629815 -0.25988969 -0.067208856 0.96329659 0.13013017
0.29518324 -1.0471691 0.97782493 -0.04695715 -0.062407982 0.99694544 0.109357
0.30625504 -1.0433118 0.97831565 -0.00031109617 -0.096369669 0.99534559 0.085897081
0.31748256 -1.0409895 0.97821039 0.10646453 -0.1068989 0.98855346 0.088868998
0.32884043 -1.0366979 0.97656703 0.21423788 -0.19239354 0.95764649 0.12774345
0.3396593 -1.0310401 0.97406685 0.39717391 -0.41249672 0.81981665 0.17172852
0.35744971 -1.023623 0.96613079 0.40136561 -0.63726151 0.65787798 0.1303414
0.36857066 -1.0180519 0.96378905 0.32920066 -0.68295729 0.6520707 0.12213365
0.38350293 -1.0138808 0.96368986 0.30048862 -0.59956503 0.74177378 0.11929364
0.39776683 -1.0154696 0.9720493 0.24494649 -0.61654609 0.74824601 0.24737306
0.40230638 -1.0154636 0.97601467 0.76194525 -0.080719136 0.64259148 0.15147173
0.419857 -1.0027378 0.96496421 0.16730464 -0.37522084 0.91171181 0.20308486
0.43269545 -1.0015249 0.96789038 -0.14259428 -0.44422239 0.88449609 0.13945293
0.4461 -1.0001615 0.97233313 -0.072418004 -0.42531523 0.90214336 0.14564115
0.45974493 -0.99769646 0.97345561 0.09427733 -0.28337121 0.95436502 0.16155323
0.47335017 -0.99380571 0.97154427 0.34571895 -0.024082145 0.93802905 0.17968278
0.48487136 -0.9900282 0.96558362 0.5519284 0.15126705 0.82005692 0.14184007
0.49952099 -0.97867429 0.95210928 0.61429816 0.17466208 0.76950043 0.14178491
0.19113493 -1.0569539 0.93206584 -0.58536667 -0.36700079 0.72294968 0.11758634
0.20059155 -1.0577253 0.93918008 -0.53470284 -0.37924129 0.75516152 0.11875241
0.21686275 -1.0592146 0.94531751 -0.28105974 -0.45471981 0.84512442 0.098197602
0.22927369 -1.0583256 0.94868213 -0.18941519 -0.42308062 0.88607264 0.10015086
0.24155109 -1.0569136 0.95026404 -0.079556279 -0.40534642 0.91069484 0.11066073
0.25253564 -1.0549788 0.95171362 -0.030220753 -0.44588307 0.8945809 0.13671136
0.26351961 -1.0533733 0.95333844 -0.033415306 -0.64469063 0.76371294 0.21386124
0.2756249 -1.0498683 0.9463557 0.17406066 -0.7368474 0.65326774 0.13199355
0.28801551 -1.0625029 0.9757424 -0.063339613 -0.098585896 0.99311072 0.1199424
0.29866001 -1.0589225 0.97584879 0.068737663 -0.1315552 0.98892283 0.081842653
0.30992967 -1.0558093 0.976367 0.03895092 -0.15480602 0.98717672 0.070957638
0.32109374 -1.0539633 0.97650516 0.11946692 -0.15604657 0.98049843 0.071620181
0.33246812 -1.0486661 0.97357452 0.40254202 -0.070407592 0.91268981 0.1194763
0.34056059 -1.0428073 0.9673695 0.69818515 -0.17228155 0.69487882 0.14854483
0.36015567 -1.0316528 0.95473421 0.25653517 -0.7065165 0.65956354 0.11990396
0.37175798 -1.0274186 0.95539206 0.20720603 -0.62110651 0.75583887 0.090699002
0.38609359 -1.0249212 0.95676821 0.22333902 -0.54812628 0.80602562 0.13313372
0.39727095 -1.0249982 0.95943135 0.15456131 -0.8408314 0.5187614 0.19342761
0.41924331 -1.0170655 0.94857675 0.4514147 -0.70316881 0.54934359 0.17295997
0.43276972 -1.0094788 0.94090033 0.57333761 -0.74544936 0.33998415 0.15168346
0.43615857 -1.0130135 0.96129602 -0.11909974 -0.62436092 0.772003 0.15100372
0.44951072 -1.0119623 0.96513855 -0.096315533 -0.50852388 0.85564411 0.11491413
0.46308601 -1.0091324 0.96610034 0.10778278 -0.50880104 0.85411024 0.11337412
0.47668371 -1.0054983 0.96591985 0.31961921 -0.43735069 0.84057593 0.1188236
0.49140078 -0.99904704 0.96103847 0.56474286 -0.15831193 0.80994004 0.13015763
0.50509882 -0.99070925 0.94999212 0.67640573 0.09753111 0.73004311 0.13812923
0.19309588 -1.0683532 0.92359418 -0.59028423 -0.55907625 0.58223557 0.08712361
0.20729075 -1.0702574 0.93252355 -0.39611995 -0.60730308 0.68867403 0.081537865
0.21924821 -1.0703651 0.93874532 -0.31359285 -0.55683309 0.76915306 0.087454967
0.23300651 -1.0693722 0.9434734 -0.15644671 -0.50221908 0.85047072 0.10857462
0.24537295 -1.067633 0.94530922 -0.072883666 -0.46051764 0.88465333 0.12900269
0.25644302 -1.0652384 0.94574058 0.15134639 -0.52785563 0.8357408 0.18464656
0.26397666 -1.0590365 0.94395369 0.47574103 -0.64425874 0.5988332 0.18426432
0.27808619 -1.0562564 0.93392408 0.1270957 -0.83874172 0.52948934 0.099411003
0.29140177 -1.0744261 0.97460979 0.19967291 -0.090014517 0.97571927 0.10156551
0.3024075 -1.070762 0.97401267 0.080112398 -0.13659228 0.98738265 0.080421321
0.31353402 -1.0685874 0.9743399 0.062196139 -0.16482827 0.98435932 0.06503401
0.32494327 -1.0649871 0.97373044 0.14095594 -0.14278096 0.97966576 0.069097064
0.3360981 -1.0616312 0.97163224 0.27958333 -0.0984639 0.95505917 0.088464335
0.3456226 -1.057192 0.96628207 0.64231378 0.090973243 0.76102358 0.12283045
0.36239898 -1.0403111 0.94576031 0.14875416 -0.74116677 0.65463275 0.078362286
0.37605539 -1.038707 0.94711411 0.18812607 -0.71355975 0.67486376 0.094191767
0.38874829 -1.0354602 0.94739419 0.30391628 -0.76644766 0.56585586 0.13015063
0.4079746 -1.0276968 0.93385243 0.45834196 -0.76431149 0.4535974 0.09110456
0.4219667 -1.0221096 0.9308145 0.53986531 -0.76804233 0.3444654 0.11180352
0.4397608 -1.0077872 0.91572678 0.78696811 -0.5747512 0.22437072 0.078549236
0.45309535 -1.0239431 0.95889592 -0.067462295 -0.52934998 0.84571707 0.10405722
0.46747947 -1.0205914 0.95938325 0.14804232 -0.47136644 0.86942345 0.10436617
0.48109382 -1.0161136 0.95768613 0.32598594 -0.44702628 0.83300698 0.11124261
0.49612308 -1.0093145 0.95245457 0.53769851 -0.27457908 0.79717416 0.11695263
0.51302177 -0.99930954 0.94216514 0.69738865 -0.011552542 0.71660006 0.13676371
0.52331579 -0.99077749 0.92664534 0.83935612 0.26846781 0.47265884 0.13849311
0.19657893 -1.0784962 0.91407955 -0.53314978 -0.67989546 0.50348139 0.067163162
0.20909265 -1.0807747 0.92336017 -0.41325769 -0.68313152 0.60212076 0.073696502
0.22301568 -1.0808969 0.93179983 -0.32480738 -0.6412015 0.69524157 0.089188322
0.23707685 -1.0798794 0.93737692 -0.14637083 -0.58646768 0.79663748 0.12517479
0.24928348 -1.0778626 0.93968379 0.032904226 -0.53423452 0.84469569 0.15994471
0.25601849 -1.0732545 0.93882608 0.51849049 -0.52341491 0.67616892 0.1779791
0.26956892 -1.0664512 0.9200362 0.069925182 -0.92829949 0.36519924 0.13413702
0.28032979 -1.0635167 0.921875 -0.057356466 -0.85872298 0.50922 0.10779028
0.29208487 -1.0630639 0.92529726 -0.062701248 -0.8032378 0.59234923 0.099277698
0.30602068 -1.0833488 0.97195071 0.074256808 -0.12857692 0.9889155 0.072949916
0.31718045 -1.0803249 0.97219551 0.094837442 -0.15551157 0.98327106 0.063068852
0.32796818 -1.078351 0.97123247 0.16171852 -0.17475787 0.97123981 0.062255938
0.33964846 -1.0739107 0.96952403 0.27831334 -0.15951994 0.94715101 0.071052514
0.35111883 -1.0691419 0.96577007 0.52046424 -0.07599099 0.85049534 0.094320282
0.3677274 -1.0497967 0.93220109 0.25964141 -0.85104543 0.4564077 0.12679256
0.3796075 -1.0460671 0.93469119 0.34354004 -0.85485548 0.38884744 0.078357629
0.39847592 -1.0383911 0.92012662 0.46438479 -0.81614292 0.34388584 0.08088614
0.4112919 -1.0325773 0.91821873 0.46564797 -0.79315865 0.39251921 0.064302966
0.42464006 -1.0255318 0.91480809 0.62590712 -0.72459322 0.28845254 0.060849141
0.47238538 -1.0323232 0.95322657 0.17984332 -0.51053661 0.84083813 0.096059479
0.48347679 -1.0281435 0.95139879 0.33960086 -0.48397812 0.80649638 0.088265136
0.49980423 -1.0204287 0.94490516 0.5452311 -0.4300485 0.71957028 0.11947585
0.51840794 -1.0096321 0.93373555 0.69846427 -0.25763154 0.6676628 0.16091435
0.53102297 -1.0009079 0.92167938 0.85995346 0.12376957 0.49513748 0.13958421
0.20021757 -1.0876601 0.90371227 -0.51888722 -0.76250678 0.38644463 0.063546836
0.21207431 -1.0898507 0.91260183 -0.42145222 -0.75739819 0.49872434 0.062809862
0.22517107 -1.0905274 0.92146677 -0.35796681 -0.73061681 0.58142829 0.092082486
0.24030876 -1.0908409 0.92941028 -0.067212775 -0.71679813 0.6940338 0.17804468
0.25251123 -1.0858777 0.93072051 0.46399739 -0.63676399 0.61582303 0.20618166
0.25928339 -1.0635742 0.8927142 -0.88336247 -0.46073976 0.085962877 0.1603535
0.27147257 -1.0711538 0.90279168 -0.17710356 -0.94286704 0.28219858 0.12397872
0.28313693 -1.0712981 0.90680569 -0.098032296 -0.94071382 0.32472625 0.10717806
0.29545936 -1.0702355 0.91100669 -0.057939839 -0.91156167 0.40706059 0.10002654
0.30959582 -1.0952699 0.97014201 0.09758199 -0.13677318 0.98578441 0.075310431
0.32063568 -1.0923216 0.9696601 0.15042843 -0.17444122 0.97310925 0.067792602
0.33159235 -1.0895233 0.96857375 0.21547385 -0.20515236 0.95471644 0.061100326
0.34312022 -1.0855258 0.9664607 0.31458101 -0.21657415 0.92419392 0.072481535
0.35400224 -1.081118 0.96221375 0.52825993 -0.15359794 0.83507431 0.10158614
0.37124065 -1.0516807 0.91385335 0.52471352 -0.84668571 -0.088312417 0.15119804
0.38940942 -0.99779618 0.82199574 0.21363059 0.069156386 0.97446364 0.25226623
0.40118322 -1.0447676 0.90749907 0.44299558 -0.78526622 0.43256432 0.066316366
0.41334301 -1.0379386 0.90569359 0.55659115 -0.75371426 0.34945828 0.055914309
0.42541516 -1.0296531 0.90091228 0.68205816 -0.70158815 0.20632666 0.047421306
0.20363626 -1.0952094 0.88981158 -0.45314601 -0.84659487 0.27916983 0.06711752
0.21456762 -1.0981299 0.89817959 -0.40732285 -0.85641444 0.31724191 0.068233609
0.22828266 -1.0996647 0.90759856 -0.27613828 -0.87448972 0.39876726 0.1170654
0.22117086 -0.92565793 0.59937578 -0.078396745 -0.065999977 0.99473512 0.070169114
0.27481043 -1.0753456 0.88610023 -0.095649779 -0.9816727 0.16483274 0.14737323
0.28686392 -1.074508 0.89152557 -0.10141669 -0.97719198 0.18657553 0.10899411
0.29793701 -1.0758537 0.89560938 -0.212543 -0.92331386 0.31987029 0.093743116
0.30867887 -1.0778085 0.90102828 -0.20750578 -0.84003842 0.50127518 0.084476069
0.32412606 -1.1036426 0.96681005 0.23834521 -0.17827998 0.95467681 0.068644695
0.33463544 -1.100697 0.96482217 0.29640236 -0.24868664 0.92211747 0.058767483
0.34640685 -1.0963913 0.96212828 0.40705919 -0.27308103 0.87162465 0.063909426
0.35581213 -1.0926257 0.95819449 0.45862395 -0.29572669 0.83797961 0.10019057
0.38135457 -1.019068 0.82404786 0.36784586 -0.92651695 0.079093441 0.13640554
0.3949073 -1.0119362 0.82254833 0.43783203 -0.89870465 0.025160687 0.17770289
0.40359429 -1.050876 0.89476025 0.50439769 -0.82880771 0.24219972 0.084538162
0.42403421 -1.0331523 0.86498839 0.76819032 -0.63948095 -0.030786017 0.064954884
0.20599844 -1.1005375 0.87281483 -0.35660365 -0.90290743 0.23998338 0.086999089
0.21941876 -1.1031914 0.88502127 -0.31432936 -0.93070668 0.18703513 0.08120092
0.19576418 -0.94788581 0.59767139 0.028012542 -0.079179339 0.9964667 0.087233216
0.21145058 -0.94524068 0.59647697 0.020264588 -0.075387217 0.99694842 0.071050979
0.22683553 -0.94323272 0.59738338 -0.10168235 -0.13895227 0.98506498 0.075104073
0.27875531 -1.0771809 0.86744428 0.35806188 -0.93339652 -0.023720238 0.15484324
0.2908541 -1.0778081 0.87793201 -0.27417231 -0.93367136 0.230407 0.12439105
0.29732171 -1.0186926 0.75573784 -0.23431842 -0.96179497 -0.14158131 0.060558144
0.3128559 -1.0856719 0.89086097 -0.22620875 -0.84172434 0.49023438 0.06879314
0.32829666 -1.0844214 0.89605445 0.072265923 -0.84761566 0.52566653 0.080986544
0.33813575 -1.11105 0.96051311 0.39576167 -0.24290507 0.88564658 0.06178185
0.34899667 -1.1067172 0.95653892 0.49114913 -0.28969979 0.82149047 0.053357951
0.35810846 -1.1020795 0.95160151 0.57543004 -0.32225731 0.75168508 0.065241866
0.38736328 -1.0185037 0.79158205 0.35554036 -0.93466073 0.00063508406 0.067948453
0.40173173 -1.0117563 0.78995746 0.45689037 -0.88810724 -0.050166581 0.063292675
0.41463339 -1.034088 0.83965486 0.91151869 -0.13256885 -0.38930607 0.16458069
0.42191425 -1.0339129 0.84949279 0.88175529 -0.47095722 -0.026587931 0.12655258
0.18657176 -0.96848965 0.59759414 -0.003781429 -0.0073592071 0.99996579 0.10422125
0.20131221 -0.96420193 0.59749341 -0.017945325 -0.029592695 0.99940091 0.10358312
0.21761067 -0.96279502 0.59685248 0.016869942 -0.008014176 0.9998256 0.085200287
0.23324455 -0.96089089 0.59634352 -0.038646333 -0.072490901 0.99662006 0.064365886
0.24855468 -0.95944118 0.59908587 -0.17818145 -0.1897016 0.96553856 0.098500095
0.26359004 -0.95945388 0.60361308 -0.32523412 -0.45165217 0.83080268 0.13202025
0.27298838 -0.96802872 0.60688537 -0.64287215 -0.75741017 0.11421566 0.11384314
0.30192471 -1.0157962 0.72535747 -0.25962389 -0.95638657 -0.13386647 0.060256191
0.31814292 -1.0938044 0.87913305 -0.17175189 -0.88006377 0.44270656 0.095516615
0.33246598 -1.0912622 0.88384628 0.23087026 -0.86087769 0.45341867 0.095756777
0.34184888 -1.1208801 0.95546621 0.4636541 -0.25764388 0.84772903 0.071031719
0.35218686 -1.1163957 0.95046031 0.57973409 -0.29004815 0.76143312 0.056811783
0.39384773 -1.011418 0.74804628 0.40285265 -0.90459633 -0.13933854 0.048314225
0.19231461 -0.98501658 0.59566015 -0.020688029 -0.11762467 0.99284261 0.11439982
0.20743091 -0.98272669 0.59687823 -0.049222466 -0.10471818 0.99328309 0.11182746
0.22329392 -0.97998261 0.59646922 -0.0014878809 -0.05552597 0.99845612 0.092339791
0.23922062 -0.97840077 0.59690464 -0.028060848 -0.016871 0.99946386 0.0849545
0.25477168 -0.97552627 0.59717959 -0.047601026 -0.059284464 0.99710554 0.073982775
0.27069724 -0.97536641 0.5993802 -0.1971423 -0.30552861 0.93155098 0.12194595
0.28374448 -0.97746575 0.60418469 -0.43356809 -0.60262996 0.66996706 0.14336644
0.29901269 -0.98137373 0.60964394 -0.4866851 -0.82088661 0.2988022 0.14805339
0.32254779 -1.0997838 0.86801553 -0.11977939 -0.8965584 0.42642218 0.12442932
0.33543897 -1.09646 0.87162083 0.34641656 -0.85859108 0.3779113 0.12605596
0.34624788 -1.1304857 0.95032328 0.54135495 -0.25517923 0.80113566 0.084565759
0.35305798 -1.1270251 0.94568384 0.63140649 -0.24927448 0.73429424 0.088943087
0.38268545 -1.0094975 0.71307456 0.34528324 -0.91914302 -0.18961945 0.061000139
0.19839631 -0.99906558 0.59523326 0.024696801 0.043856949 0.99873251 0.11182923
0.21376953 -0.99691689 0.5968731 0.0073368549 0.010950391 0.9999131 0.14112663
0.22955713 -0.99652416 0.59616476 0.036231559 -0.075202987 0.99650979 0.1208509
0.24543488 -0.99563479 0.59663546 0.016375292 -0.086579278 0.99611038 0.10744168
0.26131657 -0.99508166 0.59580815 0.028162021 -0.027184265 0.99923366 0.079396114
0.27657479 -0.99210161 0.59725279 -0.10455094 -0.12110862 0.98711795 0.091420129
0.2918601 -0.99045092 0.5996809 -0.17654593 -0.29885247 0.93782657 0.11399994
0.30849463 -0.99042803 0.60276091 -0.1215731 -0.48399276 0.86658585 0.11542493
0.32592225 -0.98818177 0.60479689 0.060066607 -0.33462945 0.9404335 0.13908185
0.34371242 -0.98892128 0.6040228 0.11343342 -0.86435997 0.48991296 0.13863112
0.36137334 -0.99087322 0.59934264 0.13538037 -0.95956808 0.24678171 0.17346655
0.37796143 -0.97872734 0.60235393 0.17030835 -0.75478119 0.63348275 0.11058804
0.3962791 -0.97418249 0.6005345 0.36379442 -0.53612113 0.76172686 0.12893505
0.41351625 -0.96922863 0.5989067 0.26369658 -0.35865319 0.89545071 0.12322313
0.20557134 -1.0173212 0.59756017 0.029720364 0.003325335 0.99955273 0.11751698
0.22080462 -1.0160116 0.59684235 0.08178702 -0.056773923 0.99503148 0.1237512
0.23512842 -1.0115125 0.59599048 0.018185722 0.010414039 0.99978042 0.14352903
0.25104967 -1.0123798 0.59534109 0.018224524 -0.057187628 0.99819708 0.11861379
0.26658404 -1.0102504 0.59522516 -0.0021371369 -0.04795761 0.99884707 0.11045495
0.28251827 -1.0089748 0.59502739 0.011438375 -0.040761169 0.99910343 0.1060039
0.29824302 -1.0063159 0.59560341 -0.046964698 -0.1061387 0.99324161 0.09742818
0.31458905 -1.0044627 0.5960182 -0.023706261 -0.22729337 0.97353774 0.094176702
0.33088687 -1.0014054 0.59762561 0.023352955 -0.19328935 0.98086381 0.089770384
0.346784 -1.0005462 0.60147429 -0.13849422 -0.19627117 0.97071981 0.1505193
0.36489606 -0.99729317 0.60163593 0.11180367 -0.12343936 0.9860338 0.16660957
0.38186249 -0.99377924 0.60008758 0.0678261 -0.094238319 0.99323648 0.11643311
0.39907491 -0.99113774 0.59957844 0.12192023 -0.074751124 0.98972106 0.11035649
0.41678253 -0.98627853 0.59502167 0.070687182 0.012257438 0.99742323 0.039269671
0.43465769 -0.98295653 0.59448105 -0.055795211 -0.044962827 0.99742931 0.039739627
0.45244735 -0.98195815 0.59707463 -0.090247013 -0.0042066067 0.99591053 0.065577172
0.21156584 -1.0348462 0.59592128 0.088512436 -0.054753531 0.99456906 0.12190793
0.22549114 -1.0316054 0.59716326 -0.040823426 0.033919808 0.99859047 0.14773226
0.24240819 -1.0284811 0.59652144 0.10720944 0.054370441 0.99274868 0.16965908
0.25661942 -1.0270072 0.59482944 0.0307092 -0.065012291 0.99741185 0.16234341
0.27147669 -1.0267937 0.59492528 -0.055125996 -0.036851127 0.99779916 0.15897427
0.28776827 -1.025825 0.59464478 -0.0052131228 -0.0043246769 0.99997705 0.12995876
0.30369985 -1.0229461 0.59496671 0.011306832 0.016446602 0.9998008 0.085786432
0.31966513 -1.0220103 0.59642637 -0.027362529 0.030401876 0.99916315 0.095980361
0.33584538 -1.0181794 0.59598672 -0.013363472 -0.043021932 0.99898475 0.073612884
0.35230169 -1.0174654 0.59756261 -0.034011632 -0.095900752 0.99480969 0.088631898
0.36907643 -1.014227 0.59800071 0.011948777 -0.052072547 0.99857181 0.072560698
0.38606009 -1.0109385 0.59638041 0.0049700448 -0.049512889 0.99876112 0.048059482
0.40307742 -1.0089874 0.59722918 -0.025981549 0.026810205 0.99930286 0.047128621
0.42105675 -1.0042206 0.59646231 0.051873311 0.079766437 0.99546295 0.047463775
0.43835431 -1.0026013 0.59546822 0.015198163 0.061725073 0.9979775 0.045557119
0.45629078 -1.000267 0.59598315 -0.10526235 -0.014129927 0.99434412 0.074135803
0.47448197 -0.99703455 0.59837395 -0.02496754 -0.020616211 0.99947566 0.10941239
0.21818466 -1.0506471 0.59530514 0.090631776 -0.033167627 0.995332 0.10406789
0.23189341 -1.0478348 0.59702462 0.0101644 -0.0044909986 0.99993825 0.14865562
0.24871469 -1.0418311 0.5952664 0.15367448 0.22277914 0.9626804 0.16118526
0.26215485 -1.0416404 0.59509325 0.0041364417 0.15790083 0.98744631 0.14099477
0.27748865 -1.0407904 0.59576863 0.0020066488 0.11452807 0.99341798 0.13325246
0.29253966 -1.0405394 0.59594089 -0.0321992 0.075209878 0.99664772 0.12392155
0.30832186 -1.0382507 0.59595215 -0.035249434 -0.0037608345 0.99937147 0.096461467
0.32436925 -1.0380126 0.59634674 -0.058353193 -0.0077891662 0.99826562 0.067591533
0.34063762 -1.0362257 0.59713846 -0.017558293 0.02306959 0.99957967 0.069984861
0.35699201 -1.0328764 0.597229 -0.025456641 0.032424483 0.99914992 0.067085922
0.37359464 -1.0312028 0.59677857 0.047657724 0.020498503 0.99865335 0.060189951
0.39026967 -1.0294408 0.59512752 -0.015014621 -0.01771866 0.99973029 0.054595392
0.40716848 -1.0276511 0.59705418 -0.062803678 0.039438769 0.99724633 0.051326275
0.42457739 -1.0235076 0.59778446 0.0011573512 0.031792182 0.99949384 0.049823612
0.44217145 -1.0203465 0.59660822 -0.023825858 0.068942338 0.99733609 0.045176931
0.45986378 -1.0182616 0.59804612 0.0041185832 0.00023692349 0.99999148 0.071214192
0.4780159 -1.0151901 0.59913546 -0.012488967 -0.013012984 0.99983734 0.097085021
0.49639753 -1.0118457 0.59921676 2.4664747e-05 0.038518533 0.99925786 0.11786808
0.5147441 -1.0099494 0.59566778 0.058014743 0.12399271 0.99058574 0.067168474
0.22286974 -1.0646996 0.59551507 0.019045303 0.077197976 0.99683386 0.11754688
0.23755203 -1.0611056 0.5951224 0.0054281917 0.091633804 0.99577796 0.14773732
0.25333762 -1.0576261 0.59522432 0.11802586 0.13701092 0.98351306 0.16863199
0.26824585 -1.0593948 0.59643519 0.077947848 0.047760412 0.99581277 0.13380037
0.28223127 -1.058284 0.59645689 -0.0017476877 0.0026023553 0.99999511 0.12205889
0.29771197 -1.0565488 0.59656858 -0.027311973 -0.0089661134 0.99958676 0.098778322
0.31372523 -1.0560485 0.59532702 -0.0020436845 -0.004192431 0.99998915 0.077587612
0.32936272 -1.0555063 0.59567672 -0.08236073 0.0066324235 0.99658054 0.069876894
0.34519911 -1.0522858 0.59797823 -0.018314172 0.026529022 0.99948025 0.063691609
0.36180228 -1.0495844 0.59726214 0.031142367 0.050721399 0.99822718 0.062959693
0.37790605 -1.0479378 0.59646642 -0.0311669 0.062010936 0.99758875 0.05840759
0.3944743 -1.0462452 0.59735274 -0.025604106 0.066258788 0.9974739 0.052661013
0.41133049 -1.0437322 0.59849203 -0.021287074 0.020292869 0.99956745 0.048613302
0.42827505 -1.0420105 0.5982039 0.0059765456 0.030565975 0.99951488 0.044965595
0.44549918 -1.0398766 0.59649438 0.0050064409 0.043903966 0.9990232 0.042008989
0.46355882 -1.0355183 0.59810305 0.025827004 0.1465566 0.98886508 0.057561122
0.48098963 -1.0342406 0.59735185 -0.0096931988 0.020713227 0.99973845 0.090649836
0.49942246 -1.0307403 0.59777522 -0.0086252112 0.040683482 0.99913484 0.10137331
0.51791102 -1.0277866 0.59660602 0.019086236 0.068863928 0.9974435 0.076703414
0.53684646 -1.0247527 0.59736311 0.023070263 0.022624345 0.9994778 0.095623955
0.54632574 -1.0256108 0.59816402 0.80183589 0.022770377 0.59711027 0.12162859
0.22958256 -1.0802304 0.59568006 0.094143771 0.050741129 0.99426472 0.10580794
0.2432977 -1.0763074 0.59413433 0.05450324 0.076264508 0.99559689 0.13776696
0.25422511 -1.0705377 0.59257907 -0.13482277 0.18533519 0.97338259 0.15064049
0.27238607 -1.0750496 0.59567904 0.052181944 -0.0055549345 0.99862212 0.12247249
0.28691834 -1.0735154 0.5946728 -0.03336836 -0.017575838 0.99928856 0.10478988
0.30295515 -1.0719604 0.5961166 -0.008096992 0.070825726 0.99745584 0.093176648
0.31794563 -1.0686182 0.59495389 -0.054629762 0.1325995 0.98966306 0.081364721
0.33397213 -1.071471 0.59566015 -0.085799932 -0.010086957 0.9962613 0.069493331
0.34966549 -1.0687608 0.59803909 -0.037051391 0.02816415 0.99891639 0.055145141
0.36592966 -1.0670402 0.59764504 -0.013058684 0.031188926 0.99942821 0.051563717
0.38205412 -1.0667056 0.59747326 -0.050823137 0.005674928 0.99869156 0.048455182
0.39843279 -1.0642002 0.598809 -0.010691865 -0.014120468 0.99984312 0.048970822
0.41520828 -1.061295 0.59764612 -0.020206863 -0.0087046586 0.99975795 0.046941467
0.4320356 -1.0588377 0.59830898 -0.057768591 -0.013177287 0.99824303 0.038285933
0.44905651 -1.0570877 0.59895045 -0.033400919 0.073333554 0.99674797 0.043120205
0.46662095 -1.0541236 0.59831166 -0.028461862 0.014735467 0.99948627 0.044083878
0.48437887 -1.0499399 0.60177803 -0.11965846 0.032905478 0.99226964 0.078759857
0.50192165 -1.0492778 0.60067052 -0.031652048 0.14990853 0.98819309 0.086175606
0.52040011 -1.0464717 0.59966099 0.044613045 0.15557307 0.98681647 0.089280754
0.53894526 -1.0438709 0.59762609 0.095929645 0.12734817 0.98720813 0.11503571
0.54477406 -1.0404413 0.60011327 0.91877007 -0.084123835 -0.38572618 0.15119785
0.26605129 -0.79302132 0.96200228 0.74148256 -0.1451194 -0.65509081 0.27060267
0.2599538 -0.80086899 0.94203532 0.92357612 -0.078445092 -0.37530452 0.2185576
0.27259853 -0.80654579 0.96318895 0.69135165 0.36293733 -0.62474746 0.19478664
0.2813718 -0.80494612 0.96994394 -0.2952165 0.12587157 0.94710273 0.20856234
0.29352838 -0.79689211 0.9704504 -0.02536233 0.40087432 0.91578192 0.17355038
0.2457289 -0.87533998 1.0043591 -0.60309362 0.50336283 0.6187923 0.13194445
0.26047274 -0.8170228 0.94430155 0.7278682 0.18835241 -0.65934151 0.1570811
0.26883876 -0.8146112 0.95425546 0.75348753 0.21008933 -0.62299198 0.18591627
0.28837731 -0.82243633 0.97257257 -0.35324502 -0.097698487 0.93041545 0.18932784
0.30049449 -0.81379616 0.97443444 -0.0052630482 0.10121198 0.99485093 0.15229852
0.31364745 -0.8044464 0.97116542 0.28407019 0.26391262 0.92176694 0.13381934
0.17017844 -0.91129261 0.97701526 -0.69849968 -0.12796724 0.70407569 0.10524832
0.18363497 -0.91288829 0.98961419 -0.60389858 -0.19192219 0.77360994 0.12693533
0.2405455 -0.90066093 1.0178016 -0.54005188 0.39468899 0.74334687 0.11052165
0.25138825 -0.89712036 1.0225527 -0.39163482 0.35359073 0.84946793 0.10299959
0.26236078 -0.89256966 1.0252459 -0.2973575 0.3519443 0.88753235 0.11023365
0.27366537 -0.88788968 1.0260711 -0.20556372 0.40046957 0.89295447 0.12657708
0.28408617 -0.87418926 1.0183712 0.087569766 0.61149806 0.78638518 0.13192646
0.28868854 -0.83158696 0.96579689 -0.58122104 -0.38980839 0.71430492 0.16008489
0.30758414 -0.8304677 0.97486931 0.16809 0.028224614 0.98536754 0.13694809
0.32197925 -0.81799257 0.97066706 0.39124507 0.080956332 0.91671878 0.12852682
0.33202457 -0.81010795 0.96229649 0.56220645 0.31995651 0.76259542 0.14172506
0.34245333 -0.86016256 1.0491489 -0.28122717 0.048259679 0.95842695 0.17926791
0.15588318 -0.92763269 0.96070933 0.81114125 0.1114862 -0.57412601 0.11092764
0.16717552 -0.92826426 0.97333121 0.71391213 0.068239599 -0.69690233 0.090514652
0.17996642 -0.92869192 0.98419386 -0.57386053 -0.094408214 0.81349319 0.1043238
0.19193523 -0.9274897 0.99165982 -0.44662157 -0.20088114 0.87188071 0.11344249
0.20242181 -0.92437077 0.99658424 -0.36397371 -0.28165138 0.88780385 0.12032749
0.21277176 -0.92237258 1.0028963 -0.40452704 -0.43033537 0.80695063 0.12948605
0.23737597 -0.92248923 1.0223242 -0.56577474 -0.027629331 0.82409686 0.11742455
0.24683397 -0.91803503 1.0272776 -0.35229003 0.053482581 0.93436146 0.10527417
0.25805074 -0.91415805 1.0295399 -0.23214474 0.075664245 0.96973383 0.10275123
0.26830074 -0.90775281 1.0310127 -0.21996212 0.12168829 0.96788877 0.10901362
0.27951682 -0.90318912 1.0325567 -0.21007948 0.18199174 0.9605965 0.13175809
0.29081047 -0.89692611 1.0320424 0.0076068975 0.36459917 0.93113351 0.15205315
0.3026841 -0.85414571 0.97241306 -0.58536887 0.13819827 0.79890209 0.21316759
0.32845551 -0.8332445 0.96691 0.52561688 0.015779393 0.85057503 0.14012982
0.33654368 -0.87942761 1.0442389 -0.6363762 -0.14239204 0.75812256 0.15862234
0.34826347 -0.87709719 1.0507665 -0.17438602 -0.12230636 0.97705203 0.14953795
0.36024714 -0.87177658 1.0527486 -0.087700896 -0.067358859 0.99386686 0.1543555
0.16152403 -0.94204456 0.96496433 0.80314499 0.19841157 -0.56177479 0.10044381
0.17369226 -0.94303221 0.97835457 -0.62772125 -0.12990882 0.7675218 0.09663558
0.18601727 -0.94201398 0.9863807 -0.45429695 -0.18233986 0.87198997 0.090128966
0.19845612 -0.93996537 0.99138165 -0.31811506 -0.24605976 0.915564 0.093425162
0.20892984 -0.93636715 0.99497843 -0.25238642 -0.31461892 0.91504973 0.11175393
0.21982205 -0.9336338 0.99970388 -0.34335455 -0.45726401 0.82037634 0.1305481
0.22868083 -0.93301302 1.0072356 -0.54309565 -0.50958639 0.66735959 0.12495151
0.24381165 -0.93616152 1.0241215 -0.45029247 -0.3049615 0.8391872 0.12414226
0.25356853 -0.93189365 1.0279559 -0.15193677 -0.20250316 0.9674232 0.10765703
0.2642476 -0.92693216 1.029303 -0.072659776 -0.19874465 0.97735417 0.10157702
0.27461809 -0.92160237 1.0309765 -0.15079166 -0.18176252 0.97171205 0.12774886
0.28604624 -0.91889173 1.0344768 -0.21517125 -0.16086367 0.96323633 0.12615818
0.29697821 -0.91333961 1.0359313 0.0070893536 0.012723726 0.9998939 0.18140675
0.32020202 -0.87180048 0.98972702 -0.07601276 0.51795322 0.85202497 0.12293924
0.33296734 -0.85930979 0.9818061 0.022908915 0.58667099 0.80950129 0.12700328
0.34210914 -0.89335227 1.0436871 -0.37150478 -0.38674358 0.844046 0.16251832
0.35399896 -0.88950646 1.048479 -0.072811946 -0.30144483 0.95069945 0.13509479
0.36590549 -0.88454533 1.0506117 -0.036187492 -0.25139946 0.96720672 0.13168524
0.37798634 -0.87916952 1.0524244 -0.13572992 -0.26572672 0.95444578 0.15319319
0.40162724 -0.81565809 0.96389538 -0.034065034 0.099948399 0.99440932 0.15937488
0.41496131 -0.80570829 0.96176696 0.1938782 0.086919844 0.97716743 0.15752281
0.17013288 -0.95768255 0.97004044 0.77058148 0.346733 -0.53477138 0.13015889
0.18112414 -0.95690501 0.98061651 -0.49500692 -0.25727865 0.82992518 0.10898022
0.19297785 -0.95475686 0.98645765 -0.31834438 -0.28208441 0.90503329 0.095632233
0.20470515 -0.95159853 0.9899264 -0.1771508 -0.31438053 0.9326213 0.085937776
0.21595748 -0.94786906 0.99213827 -0.12233795 -0.38530388 0.91464436 0.10389052
0.22686234 -0.94375014 0.99506152 -0.17994389 -0.566625 0.80408728 0.14179733
0.23475245 -0.94353837 1.001477 -0.48459557 -0.67578405 0.55541247 0.13539563
0.24976125 -0.9469946 1.0211875 -0.36389828 -0.52607858 0.76864773 0.14429651
0.25992057 -0.9431324 1.0243875 0.033507083 -0.38283139 0.92321038 0.10583524
0.27035072 -0.93787658 1.0250463 0.020752193 -0.39220762 0.91964263 0.097798459
0.28104135 -0.93359667 1.0271772 -0.096505851 -0.43583396 0.89483815 0.11360511
0.29184687 -0.92989689 1.0307864 -0.14424005 -0.44050497 0.886087 0.15586382
0.30283168 -0.92586803 1.0334029 0.082669877 -0.37269709 0.92426324 0.18660906
0.32604796 -0.89049953 1.0007385 -0.059499245 0.43054467 0.90060598 0.1229857
0.33845609 -0.88212442 0.99717635 -0.036902733 0.48950768 0.87121779 0.11947817
0.34830821 -0.90489769 1.0394145 -0.24396196 -0.47584209 0.84501886 0.1768235
0.35994163 -0.90038085 1.0426234 -0.013357664 -0.41959557 0.90761286 0.14820032
0.37167224 -0.89613879 1.0459145 -0.085242242 -0.44574073 0.89109427 0.13920075
0.3834545 -0.89226329 1.0500815 -0.18134087 -0.42738038 0.88569832 0.15518028
0.40746343 -0.82710135 0.96160853 0.2754176 -0.25604865 0.92659819 0.16108963
0.41979763 -0.81826234 0.95888025 0.47395578 -0.2695792 0.83826786 0.13700527
0.43668267 -0.80439276 0.95210826 0.64326054 -0.30855224 0.7007221 0.15652458
0.17885281 -0.97048557 0.97033864 -0.58736849 -0.54005426 0.60277659 0.14418361
0.18843828 -0.96967518 0.97808403 -0.37877038 -0.55142033 0.74328232 0.13026513
0.19990912 -0.9667362 0.98370749 -0.19399329 -0.47759196 0.85689706 0.11439952
0.2113563 -0.96246982 0.98620909 -0.057013057 -0.42171541 0.90493405 0.10128633
0.22176574 -0.9580797 0.98781705 0.01798559 -0.43877745 0.89841574 0.094353899
0.23220842 -0.9536463 0.98941857 0.079063103 -0.5036453 0.8602851 0.11126187
0.24200797 -0.95136064 0.99331856 -0.31042364 -0.7785669 0.54540879 0.17436051
0.25569305 -0.95659256 1.0167621 -0.19562753 -0.66409957 0.7215966 0.13618183
0.26575935 -0.95286059 1.0185156 0.11401808 -0.53390473 0.83782196 0.10196493
0.27627397 -0.94768548 1.0190941 0.093512177 -0.52582842 0.84543478 0.098265618
0.28687385 -0.94341016 1.021278 0.0021426508 -0.5711472 0.82084483 0.13162316
0.29782766 -0.93922919 1.0240422 0.15338039 -0.55572575 0.81709445 0.17944762
0.30752835 -0.91994274 1.0040964 -0.30645713 -0.044841208 0.95082766 0.15483795
0.31998977 -0.91750044 1.007604 -0.21416622 0.062765606 0.97477859 0.16893931
0.33133039 -0.90831596 1.007992 -0.14393072 0.20357458 0.96842211 0.11267984
0.34405789 -0.90088755 1.0074338 0.000530174 0.31953171 0.94757545 0.12745836
0.35410073 -0.9155677 1.0344417 -0.10668967 -0.54591531 0.83101976 0.20097144
0.365989 -0.91044003 1.0353614 -0.023158479 -0.6123361 0.79025829 0.20168506
0.37753853 -0.90663904 1.040084 -0.13027263 -0.56965655 0.81149274 0.14682291
0.3890129 -0.90409708 1.0462315 -0.22220717 -0.54540867 0.80817908 0.14262222
0.41174942 -0.83879471 0.95385593 0.47054699 -0.34387133 0.81261188 0.1343863
0.42533022 -0.82675087 0.94899279 0.63901281 -0.42541745 0.64084524 0.15293856
0.19645469 -0.97829187 0.97217286 -0.15688618 -0.73820221 0.65608251 0.13840705
0.20724101 -0.9760074 0.97814083 -0.042347614 -0.70138776 0.71152085 0.12284746
0.21756268 -0.97236162 0.9811542 0.024561198 -0.62026232 0.78400981 0.12048091
0.22778544 -0.96788275 0.98239452 0.11926091 -0.56099343 0.81918448 0.10804342
0.23823611 -0.96303397 0.98301363 0.24823053 -0.51916707 0.81783074 0.124899
0.24880065 -0.95787328 0.98309875 0.44704399 -0.51113802 0.73409098 0.17814817
0.26148406 -0.96357483 1.009537 -0.15718313 -0.82711971 0.53959841 0.13955556
0.271375 -0.96115029 1.0101547 0.14216971 -0.70606184 0.69373226 0.11645283
0.282139 -0.95649016 1.0111359 0.16218553 -0.64459801 0.74712068 0.1194884
0.29275432 -0.9520787 1.0135418 0.18326494 -0.68318945 0.70687062 0.15055129
0.3023397 -0.94596112 1.0144792 0.44661528 -0.62208849 0.64307129 0.15612707
0.31274161 -0.93433177 1.005419 -0.29179022 -0.26967219 0.91767937 0.17974816
0.32485631 -0.92909509 1.0066892 -0.23422329 -0.19102326 0.9532311 0.10871898
0.33664224 -0.92504621 1.0104116 -0.22214533 -0.075994939 0.97204745 0.13636044
0.34759954 -0.9209621 1.0136232 -0.3906 0.011945662 0.92048299 0.23890361
0.35993823 -0.92408419 1.0267402 -0.022036185 -0.66455287 0.74691623 0.21180783
0.37194219 -0.9198091 1.0281045 -0.029748036 -0.71543121 0.6980496 0.20500313
0.38357416 -0.91624987 1.0328065 -0.12557893 -0.65379673 0.74617678 0.15044926
0.39466432 -0.91456538 1.0397243 -0.29003561 -0.69161594 0.66147321 0.15579985
0.42461041 -0.82926965 0.91974699 0.45739546 -0.88157588 0.11667648 0.24115406
0.43036804 -0.83009428 0.93388861 0.89203644 -0.4406223 0.10061304 0.21544886
0.21269196 -0.98203838 0.96852303 0.031568035 -0.83034587 0.55635351 0.11972534
0.22324511 -0.97902322 0.97354347 0.06754791 -0.76743025 0.63756418 0.1179207
0.23300415 -0.97514093 0.97611666 0.17904137 -0.68192875 0.70916665 0.1200904
0.24358869 -0.97124755 0.97481656 0.36808524 -0.62576747 0.68769789 0.12936781
0.25398448 -0.96535778 0.97313207 0.51930898 -0.52789932 0.67204201 0.15974803
0.26460952 -0.96312046 0.97470582 -0.039051685 -0.97183907 0.23238704 0.26672363
0.27671137 -0.96734709 0.99920446 0.0082634473 -0.91632277 0.40035525 0.13646559
0.28858846 -0.96454859 1.0003572 0.37776253 -0.76881331 0.51596665 0.15247479
0.29761487 -0.95833462 1.0036192 0.33025953 -0.73327076 0.59434217 0.12965241
0.30509344 -0.94677424 0.98743057 0.66506791 0.52653563 -0.52957046 0.12003651
0.31877786 -0.94607919 1.0000163 -0.33745128 -0.41189304 0.84644598 0.1529751
0.3304714 -0.94186866 1.0039722 -0.27385065 -0.32140195 0.90648037 0.090244882
0.34212857 -0.93811059 1.0081774 -0.25480333 -0.25853616 0.93179095 0.12136474
0.35367575 -0.93566817 1.0136937 -0.24792002 -0.32450536 0.91281539 0.22412811
0.36544073 -0.93253857 1.0183562 0.14595088 -0.66754901 0.73012096 0.20170745
0.37820172 -0.92759258 1.0183662 -0.016619276 -0.7722739 0.63507235 0.23605208
0.38967052 -0.92530084 1.0248793 -0.11202393 -0.76117992 0.6387924 0.16798313
0.40119007 -0.92305261 1.0310563 -0.10994011 -0.74901068 0.65337288 0.15114155
0.18663885 -1.0005158 0.94685674 0.20972158 -0.53083056 0.82111859 0.20852336
0.19457416 -0.99593502 0.95112568 -0.12204781 -0.23280215 0.96483546 0.23016612
0.20389025 -0.99258447 0.95427787 -0.22008231 -0.29931715 0.92842501 0.2507627
0.21424976 -0.99006236 0.95672041 -0.24203561 -0.43202457 0.86877704 0.24734521
0.22641869 -0.98754269 0.95834839 -0.16951242 -0.60777265 0.77580792 0.21438016
0.23838152 -0.98408812 0.96223408 0.038505614 -0.55319804 0.8321594 0.19799559
0.25004986 -0.97875828 0.96396744 0.28843302 -0.41717896 0.86183995 0.20967136
0.25982928 -0.97288233 0.9629994 0.33542645 -0.27683607 0.90047258 0.19314221
0.27054542 -0.96579522 0.96073186 0.20836559 0.082713775 0.97454721 0.23139207
0.29289109 -0.96894109 0.98757505 0.31654346 -0.82413256 0.46968684 0.18702887
0.29980573 -0.95423257 0.96659327 0.82435298 0.35369045 -0.44197878 0.1709886
0.31057543 -0.95651829 0.98262441 0.71353519 0.41566697 -0.56399333 0.12763953
0.32408994 -0.95678198 0.99578685 -0.44462717 -0.36159179 0.81948644 0.12393493
0.33608499 -0.95348084 1.0011125 -0.27248088 -0.31378067 0.90955806 0.10095793
0.34858847 -0.9496935 1.005971 -0.12754227 -0.31354123 0.94097018 0.12768677
0.36074212 -0.94745976 1.0087677 0.067664616 -0.550551 0.83205473 0.19273946
0.37153584 -0.94085032 1.0087912 0.23155911 -0.63684046 0.73540097 0.1909627
0.38406125 -0.93501532 1.009482 0.063115321 -0.79623085 0.60169172 0.22587729
0.39584965 -0.93317407 1.0158572 -0.015822878 -0.83112544 0.55585986 0.17937575
0.40777102 -0.92999339 1.0201256 0.19404416 -0.79902822 0.56912279 0.19634165
0.42598274 -0.90261823 0.97265196 0.35079822 0.65707833 0.66722465 0.15550731
0.19147848 -1.0109137 0.94068581 0.067916133 -0.57866246 0.81273437 0.15530784
0.20046824 -1.0066072 0.9439916 -0.050825678 -0.50209796 0.86331594 0.18920149
0.20970975 -1.0028828 0.94736147 -0.22094503 -0.41729015 0.88150567 0.17343634
0.21931717 -0.99886364 0.95259309 -0.31011149 -0.26950753 0.91169983 0.15126143
0.23185265 -0.99651146 0.9575814 -0.28198957 -0.22354585 0.93301082 0.12085431
0.24353988 -0.99275011 0.96113908 -0.0757064 -0.18957765 0.97894275 0.13537072
0.25507328 -0.9884569 0.96112603 0.080474526 -0.16108723 0.98365378 0.12350356
0.26599577 -0.9817636 0.96146137 0.12828191 -0.018380001 0.99156743 0.1444079
0.27612153 -0.9761973 0.96149296 -0.0087695783 0.070912063 0.99744403 0.17495187
0.30271354 -0.9634105 0.96440911 0.74734491 0.12321595 -0.65291148 0.20457236
0.31824166 -0.96916401 0.98450142 -0.65084589 -0.24330075 0.7191692 0.13282007
0.33012778 -0.9684006 0.99415803 -0.47466779 -0.26259646 0.84007955 0.10638975
0.34261072 -0.96560377 0.99951172 -0.2418332 -0.20372473 0.94869012 0.1015567
0.35494468 -0.96109825 1.0023743 -0.020908358 -0.261774 0.9649027 0.1339646
0.36861387 -0.95626491 1.0022975 0.30406222 -0.35331172 0.88471293 0.16834855
0.37826881 -0.94962925 0.999322 0.36395711 -0.56434798 0.74097675 0.17983074
0.39032874 -0.9432463 0.9987998 0.27193949 -0.70813036 0.65161359 0.21758136
0.40181172 -0.93810207 1.0020356 0.32736209 -0.79972333 0.50326598 0.21358542
0.41147056 -0.93246889 1.0069438 0.38163757 -0.84352201 0.37791982 0.19704609
0.43111044 -0.91847724 0.98232466 0.3416225 0.40691802 0.84717876 0.13975374
0.19778378 -1.0208941 0.9296028 0.21663691 -0.82082701 0.52849931 0.17536108
0.20947841 -1.0147785 0.92866939 0.62632811 -0.76175141 0.16567397 0.2324805
0.21741991 -1.0138619 0.95024681 -0.46439973 0.021315645 0.88536918 0.11199944
0.22843888 -1.0117424 0.95664346 -0.37675777 0.019278774 0.92611116 0.099655949
0.24027643 -1.0096427 0.9607054 -0.20843002 0.011901468 0.97796488 0.090853952
0.25106153 -1.0062021 0.96168369 -0.11656788 0.016035525 0.99305326 0.087911598
0.26156217 -1.0019277 0.9614886 -0.10938586 0.0958343 0.98936874 0.099717319
0.27138975 -0.99531168 0.96138519 -0.14424622 0.18488234 0.97211707 0.10693454
0.28243583 -0.99208558 0.96272606 -0.27743202 0.14501619 0.94973773 0.13142985
0.29057515 -0.98186511 0.96320152 -0.29481784 0.22745977 0.92808646 0.17201711
0.3000235 -0.97896528 0.9667716 -0.45537978 0.15056974 0.87747252 0.15506884
0.31334269 -0.98224103 0.97607273 -0.59636134 -0.060831849 0.80040777 0.13631892
0.32326174 -0.98103964 0.98412955 -0.58799171 -0.20932782 0.78131145 0.1195785
0.33490816 -0.97994131 0.99306536 -0.45403713 -0.24356648 0.8570447 0.091722965
0.34755632 -0.976991 0.99921429 -0.23568507 -0.14488235 0.96096915 0.10638883
0.36046523 -0.9728474 1.0006607 0.060149983 -0.081933506 0.99482101 0.11943913
0.37246552 -0.9670434 0.9975788 0.36590332 -0.12129587 0.92271453 0.12935682
0.38581529 -0.95806909 0.98992699 0.5568741 -0.342976 0.75647783 0.18748119
0.39838934 -0.95215905 0.98820937 0.22884513 -0.59214139 0.77265674 0.19954003
0.40873918 -0.9464125 0.99075389 0.25653967 -0.63451493 0.72909409 0.1788716
0.42389929 -0.9387666 0.98862159 0.2384474 0.0032980565 0.9711498 0.14826429
0.43625236 -0.93306935 0.98603714 0.30319533 0.15535666 0.94017917 0.14097977
