9.0	 1.40574943498	 0.354354228856	 
9.0	 1.39688932156	 0.531338727759	 
9.0	 1.28976493698	 0.675879116654	 
9.0	 1.1826405524	 0.82041950555	 
9.0	 1.10364339855	 0.980361730299	 
9.0	 1.03956633148	 1.14847385737	 
9.0	 0.975489264415	 1.31658598445	 
9.0	 0.894426034	 1.46897265765	 
9.0	 0.731744323401	 1.54579855712	 
9.0	 0.569062612802	 1.62262445659	 
9.0	 0.394732915833	 1.59744420154	 
9.0	 0.218919536491	 1.55927073644	 
9.0	 0.0431061571481	 1.52109727135	 
9.0	 -0.132707222194	 1.48292380625	 
9.0	 -0.308520601537	 1.44475034116	 
9.0	 -0.484333980879	 1.40657687606	 
9.0	 -0.634152154271	 1.31323041034	 
9.0	 -0.775524879764	 1.20195907405	 
9.0	 -0.904756879794	 1.08279564364	 
9.0	 -0.949064697817	 0.908427140017	 
9.0	 -0.993372515839	 0.734058636396	 
9.0	 -1.03768033386	 0.559690132774	 
9.0	 -1.08198815188	 0.385321629152	 
9.0	 -1.1222759952	 0.210450367457	 
9.0	 -1.1222759952	 0.0305405072684	 
9.0	 -1.1183532179	 -0.149059794183	 
9.0	 -1.09013443462	 -0.326742821125	 
9.0	 -1.06191565134	 -0.504425848068	 
9.0	 -0.999290582068	 -0.66909056372	 
9.0	 -0.902820576819	 -0.820949366166	 
9.0	 -0.917449355595	 -0.998848182211	 
9.5	 -0.134726634443	 -0.957677277656	 
9.5	 0.0456526591749	 -0.924554401616	 
9.5	 0.226031952792	 -0.891431525576	 
9.5	 0.40641124641	 -0.858308649535	 
9.5	 0.586790540027	 -0.825185773495	 
9.5	 0.767169833645	 -0.792062897455	 
9.5	 0.947549127262	 -0.758940021414	 
9.5	 1.12642270287	 -0.786683116153	 
9.5	 1.29127653253	 -0.746416908987	 
9.5	 1.44495044445	 -0.647910149491	 
9.5	 1.46312985665	 -0.465418167598	 
9.5	 1.48130926885	 -0.282926185706	 
9.5	 1.49948868105	 -0.100434203813	 
9.5	 1.51766809325	 0.0820577780799	 
9.5	 1.50984642995	 0.263561366609	 
9.5	 1.47786516278	 0.444146562662	 
9.5	 1.44588389561	 0.624731758715	 
9.5	 1.41006886696	 0.804247662039	 
9.5	 1.34396860886	 0.975316567343	 
9.5	 1.27786835076	 1.14638547265	 
9.5	 1.21176809266	 1.31745437795	 
9.5	 1.06414461103	 1.41259867656	 
9.5	 0.898202684701	 1.49068255178	 
9.5	 0.728968695549	 1.55551014415	 
9.5	 0.545776151726	 1.56413025845	 
9.5	 0.362583607903	 1.57275037276	 
9.5	 0.17939106408	 1.58137048707	 
9.5	 -0.00380147974367	 1.58999060138	 
9.5	 -0.186994023567	 1.59861071568	 
9.5	 -0.369285670393	 1.59593277174	 
9.5	 -0.548797303206	 1.55839095282	 
9.5	 -0.683718074732	 1.43905707145	 
9.5	 -0.812526304517	 1.30851108559	 
9.5	 -0.937374555407	 1.1748075232	 
9.5	 -1.03596579704	 1.02016735521	 
9.5	 -1.13455703867	 0.865527187218	 
9.5	 -1.2331482803	 0.710887019225	 
9.5	 -1.33173952193	 0.556246851233	 
9.5	 -1.40713110885	 0.398006313984	 
9.5	 -1.36004577469	 0.220758504999	 
9.5	 -1.31296044052	 0.043510696015	 
9.5	 -1.26357069167	 -0.133064173788	 
9.5	 -1.20787026616	 -0.307796188832	 
9.5	 -1.15216984065	 -0.482528203876	 
9.5	 -1.08214039275	 -0.650547907233	 
9.5	 -0.983549151121	 -0.805188075226	 
9.5	 -0.846541938696	 -0.921132653274	 
9.5	 -0.676089124115	 -0.981143056648	 
9.5	 -0.49556870919	 -1.00893324463	 
9.5	 -0.313247483443	 -0.999678717576	 
10.0	 -0.308695598853	 -1.0282096106	 
10.0	 -0.126367172686	 -1.01412208435	 
10.0	 0.0559612534812	 -1.00003455811	 
10.0	 0.238289679648	 -0.985947031869	 
10.0	 0.420618105816	 -0.971859505627	 
10.0	 0.602166887531	 -0.949964633028	 
10.0	 0.783680617115	 -0.927718748991	 
10.0	 0.9651943467	 -0.905472864954	 
10.0	 1.14670807628	 -0.883226980917	 
10.0	 1.32822180587	 -0.86098109688	 
10.0	 1.44435818201	 -0.771346478254	 
10.0	 1.49032794263	 -0.594346776298	 
10.0	 1.53629770325	 -0.417347074343	 
10.0	 1.58226746388	 -0.240347372387	 
10.0	 1.6016935155	 -0.0630318334015	 
10.0	 1.55994832495	 0.115011567067	 
10.0	 1.5182031344	 0.293054967536	 
10.0	 1.47645794385	 0.471098368005	 
10.0	 1.43544913248	 0.649310967971	 
10.0	 1.39529163576	 0.827719176419	 
10.0	 1.35513413904	 1.00612738487	 
10.0	 1.29024388613	 1.17066253679	 
10.0	 1.15893531671	 1.29794243693	 
10.0	 1.02762674728	 1.42522233708	 
10.0	 0.866572284414	 1.48811789562	 
10.0	 0.6845383439	 1.50560382954	 
10.0	 0.502504403386	 1.52308976346	 
10.0	 0.320470462871	 1.54057569739	 
10.0	 0.138436522357	 1.55806163131	 
10.0	 -0.0435974181572	 1.57554756523	 
10.0	 -0.225442567079	 1.59432316558	 
10.0	 -0.404850475898	 1.62974795404	 
10.0	 -0.559919691243	 1.58765221549	 
10.0	 -0.686883183377	 1.45603768343	 
10.0	 -0.813846675511	 1.32442315137	 
10.0	 -0.921529488192	 1.17909912079	 
10.0	 -1.00415265592	 1.01595646683	 
10.0	 -1.08677582364	 0.852813812877	 
10.0	 -1.16939899137	 0.689671158923	 
10.0	 -1.18788307974	 0.50846608757	 
10.0	 -1.20253659663	 0.326182276366	 
10.0	 -1.1868353067	 0.144802495996	 
10.0	 -1.16135978258	 -0.0362861868505	 
10.0	 -1.1279500152	 -0.215494606054	 
10.0	 -1.06945103704	 -0.388757362983	 
10.0	 -1.01095205888	 -0.562020119911	 
10.0	 -0.952453080715	 -0.735282876839	 
10.0	 -0.819426099883	 -0.859184952563	 
10.0	 -0.663270348633	 -0.947752693722	 
10.0	 -0.485944806999	 -0.983211481792	 
10.5	 -0.0894657732007	 -1.12403271739	 
10.5	 0.0920523463442	 -1.10652839843	 
10.5	 0.273570465889	 -1.08902407947	 
10.5	 0.451733378795	 -1.05679913318	 
10.5	 0.622908434815	 -0.99391567668	 
10.5	 0.794083490836	 -0.931032220178	 
10.5	 0.965258546856	 -0.868148763675	 
10.5	 1.13581289675	 -0.803616771601	 
10.5	 1.20492256285	 -0.642343022269	 
10.5	 1.26113996271	 -0.468864398634	 
10.5	 1.31735736257	 -0.295385775	 
10.5	 1.37357476244	 -0.121907151366	 
10.5	 1.4297921623	 0.0515714722687	 
10.5	 1.43984418155	 0.227374437366	 
10.5	 1.4013355613	 0.405622340779	 
10.5	 1.36282694104	 0.583870244192	 
10.5	 1.32431832078	 0.762118147605	 
10.5	 1.28580970052	 0.940366051018	 
10.5	 1.22848729538	 1.11312790188	 
10.5	 1.16515349395	 1.28413684463	 
10.5	 1.00337826976	 1.3336614661	 
10.5	 0.822955631662	 1.36017373811	 
10.5	 0.642532993563	 1.38668601012	 
10.5	 0.461514211381	 1.40504089673	 
10.5	 0.279154048776	 1.40504089673	 
10.5	 0.0967938861712	 1.40504089673	 
10.5	 -0.0855662764339	 1.40504089673	 
10.5	 -0.266717159413	 1.3861533008	 
10.5	 -0.447588360593	 1.36289738781	 
10.5	 -0.622289573187	 1.31250830035	 
10.5	 -0.795431669036	 1.25526283284	 
10.5	 -0.968573764885	 1.19801736533	 
10.5	 -1.14171586073	 1.14077189782	 
10.5	 -1.31485795658	 1.08352643031	 
10.5	 -1.32090084172	 0.915527217312	 
10.5	 -1.30617520111	 0.733762577148	 
10.5	 -1.30907816539	 0.551602573354	 
10.5	 -1.31564008498	 0.369360508735	 
10.5	 -1.32220200458	 0.187118444116	 
10.5	 -1.32876392417	 0.00487637949706	 
10.5	 -1.32620955105	 -0.176557797246	 
10.5	 -1.28770093079	 -0.354805700659	 
10.5	 -1.24919231053	 -0.533053604072	 
10.5	 -1.17616552853	 -0.699377292258	 
10.5	 -1.09644189117	 -0.863387568008	 
10.5	 -0.973515154532	 -0.987201607905	 
10.5	 -0.815345637842	 -1.07760337008	 
10.5	 -0.635118125175	 -1.10541114927	 
10.5	 -0.454186098411	 -1.12403271739	 
10.5	 -0.271825935806	 -1.12403271739	 
11.0	 -0.456712817997	 -1.11906776982	 
11.0	 -0.28213876529	 -1.08173320351	 
11.0	 -0.107564712583	 -1.04439863721	 
11.0	 0.0670093401239	 -1.0070640709	 
11.0	 0.241583392831	 -0.96972950459	 
11.0	 0.416067060209	 -0.93198128597	 
11.0	 0.590302916493	 -0.893098949297	 
11.0	 0.764538772776	 -0.854216612624	 
11.0	 0.938774629059	 -0.815334275951	 
11.0	 1.11301048534	 -0.776451939278	 
11.0	 1.25935778566	 -0.681786379469	 
11.0	 1.39501534017	 -0.565738985592	 
11.0	 1.44094418853	 -0.406484897932	 
11.0	 1.44707847367	 -0.228068698371	 
11.0	 1.45321275881	 -0.04965249881	 
11.0	 1.45934704394	 0.128763700751	 
11.0	 1.46548132908	 0.307179900312	 
11.0	 1.46761672276	 0.48517248763	 
11.0	 1.42423793832	 0.658343647989	 
11.0	 1.38085915387	 0.831514808349	 
11.0	 1.28956556712	 0.980874246498	 
11.0	 1.17773232226	 1.12002630384	 
11.0	 1.0658990774	 1.25917836119	 
11.0	 0.933436104658	 1.36043920339	 
11.0	 0.755866512584	 1.37885141919	 
11.0	 0.578296920511	 1.39726363499	 
11.0	 0.400727328437	 1.41567585079	 
11.0	 0.223157736363	 1.43408806659	 
11.0	 0.0455881442899	 1.4525002824	 
11.0	 -0.131981447784	 1.4709124982	 
11.0	 -0.307545956753	 1.4419156981	 
11.0	 -0.481959154697	 1.40492056081	 
11.0	 -0.650866149373	 1.34712439424	 
11.0	 -0.819773144049	 1.28932822768	 
11.0	 -0.977286264741	 1.22093560841	 
11.0	 -1.02269678407	 1.04828609508	 
11.0	 -1.06810730339	 0.875636581744	 
11.0	 -1.11351782272	 0.702987068409	 
11.0	 -1.15892834204	 0.530337555075	 
11.0	 -1.20433886136	 0.357688041741	 
11.0	 -1.24974938069	 0.185038528407	 
11.0	 -1.28292696111	 0.0108071535471	 
11.0	 -1.28292696111	 -0.167714469009	 
11.0	 -1.28292696111	 -0.346236091564	 
11.0	 -1.2261728704	 -0.509387978981	 
11.0	 -1.13608778604	 -0.663513406135	 
11.0	 -1.04600270168	 -0.817638833289	 
11.0	 -0.929811736972	 -0.949951517411	 
11.0	 -0.794154182467	 -1.06599891129	 
11.0	 -0.635234440553	 -1.11906776982	 
11.5	 -0.309562006472	 -0.792053861494	 
11.5	 -0.122610921819	 -0.826706201645	 
11.5	 0.0643401628346	 -0.861358541796	 
11.5	 0.251291247488	 -0.896010881946	 
11.5	 0.438242332142	 -0.930663222097	 
11.5	 0.61701200363	 -0.921617489162	 
11.5	 0.778764165159	 -0.821678853131	 
11.5	 0.940516326688	 -0.7217402171	 
11.5	 1.09481093476	 -0.615508400411	 
11.5	 1.16612820861	 -0.439254778656	 
11.5	 1.19381361569	 -0.252046400742	 
11.5	 1.21421102326	 -0.0630082075229	 
11.5	 1.23460843083	 0.126029985696	 
11.5	 1.2550058384	 0.315068178915	 
11.5	 1.2637413676	 0.504733715529	 
11.5	 1.2637413676	 0.694869174428	 
11.5	 1.2637413676	 0.885004633328	 
11.5	 1.2637413676	 1.07514009223	 
11.5	 1.2637413676	 1.26527555113	 
11.5	 1.2637413676	 1.45541101003	 
11.5	 1.09495148803	 1.49099850579	 
11.5	 0.905552363628	 1.50771569476	 
11.5	 0.716153239227	 1.52443288374	 
11.5	 0.526754114826	 1.54115007271	 
11.5	 0.337354990425	 1.55786726168	 
11.5	 0.147955866024	 1.57458445066	 
11.5	 -0.041680562425	 1.58050029192	 
11.5	 -0.231631132835	 1.57211736093	 
11.5	 -0.421581703244	 1.56373442993	 
11.5	 -0.611532273654	 1.55535149893	 
11.5	 -0.801482844064	 1.54696856794	 
11.5	 -0.991433414473	 1.53858563694	 
11.5	 -1.18138398488	 1.53020270595	 
11.5	 -1.19956775156	 1.3428842699	 
11.5	 -1.21570599104	 1.15343493642	 
11.5	 -1.23184423052	 0.963985602935	 
11.5	 -1.24798247001	 0.774536269452	 
11.5	 -1.26412070949	 0.585086935968	 
11.5	 -1.26764072211	 0.395297682454	 
11.5	 -1.26172556639	 0.205254256722	 
11.5	 -1.25581041068	 0.0152108309899	 
11.5	 -1.24989525496	 -0.174832594742	 
11.5	 -1.24398009925	 -0.364876020474	 
11.5	 -1.23806494353	 -0.554919446206	 
11.5	 -1.23214978781	 -0.744962871937	 
11.5	 -1.20033766232	 -0.922291171388	 
11.5	 -1.04295546397	 -0.993443831938	 
11.5	 -0.859607099596	 -0.943096339327	 
11.5	 -0.676258735221	 -0.892748846716	 
11.5	 -0.492910370847	 -0.842401354105	 
12.0	 -0.702167701462	 -1.02401257101	 
12.0	 -0.523591856543	 -1.01573206687	 
12.0	 -0.345016011624	 -1.00745156273	 
12.0	 -0.166440166705	 -0.99917105859	 
12.0	 0.0121356782146	 -0.990890554449	 
12.0	 0.190711523134	 -0.982610050308	 
12.0	 0.369287368053	 -0.974329546167	 
12.0	 0.547863212972	 -0.966049042026	 
12.0	 0.723290480733	 -0.935225351341	 
12.0	 0.897301350649	 -0.894260533649	 
12.0	 1.07131222057	 -0.853295715957	 
12.0	 1.18935252553	 -0.732518405152	 
12.0	 1.28714776866	 -0.582872190507	 
12.0	 1.3153282295	 -0.412496056209	 
12.0	 1.3153282295	 -0.233728332228	 
12.0	 1.3153282295	 -0.0549606082466	 
12.0	 1.3153282295	 0.123807115735	 
12.0	 1.3153282295	 0.302574839716	 
12.0	 1.29269752708	 0.479055327317	 
12.0	 1.2569275687	 0.6542078586	 
12.0	 1.22115761032	 0.829360389884	 
12.0	 1.18538765195	 1.00451292117	 
12.0	 1.14961769357	 1.17966545245	 
12.0	 1.09946548162	 1.34037159841	 
12.0	 0.924155538063	 1.37536192318	 
12.0	 0.748845594507	 1.41035224795	 
12.0	 0.573535650951	 1.44534257273	 
12.0	 0.398225707395	 1.4803328975	 
12.0	 0.222915763838	 1.51532322228	 
12.0	 0.0455676805858	 1.49928120806	 
12.0	 -0.131974344099	 1.47838315532	 
12.0	 -0.309516368783	 1.45748510258	 
12.0	 -0.487058393468	 1.43658704984	 
12.0	 -0.664600418152	 1.4156889971	 
12.0	 -0.83354699693	 1.38001952371	 
12.0	 -0.939438335287	 1.23598854233	 
12.0	 -1.04532967364	 1.09195756094	 
12.0	 -1.151221012	 0.94792657956	 
12.0	 -1.17687262639	 0.777573647007	 
12.0	 -1.17687262639	 0.598805923026	 
12.0	 -1.17687262639	 0.420038199045	 
12.0	 -1.17687262639	 0.241270475064	 
12.0	 -1.17687262639	 0.0625027510824	 
12.0	 -1.17687262639	 -0.116264972899	 
12.0	 -1.16502052552	 -0.29443839018	 
12.0	 -1.14713738522	 -0.472309389589	 
12.0	 -1.12925424493	 -0.650180388997	 
12.0	 -1.11137110463	 -0.828051388406	 
12.0	 -1.0555893891	 -0.969932008366	 
12.0	 -0.878878545282	 -0.996972289689	 
12.5	 -0.0513528482761	 -1.01034751983	 
12.5	 0.135378787837	 -1.02846093466	 
12.5	 0.32211042395	 -1.04657434949	 
12.5	 0.508842060063	 -1.06468776432	 
12.5	 0.69138164556	 -1.02352796698	 
12.5	 0.873705186281	 -0.97931341936	 
12.5	 1.056028727	 -0.93509887174	 
12.5	 1.22552696196	 -0.870406603369	 
12.5	 1.34489361297	 -0.725670974209	 
12.5	 1.43240958295	 -0.568360673791	 
12.5	 1.44410832604	 -0.381117678908	 
12.5	 1.45580706913	 -0.193874684026	 
12.5	 1.4660264509	 -0.00665312861438	 
12.5	 1.4489065661	 0.18017221567	 
12.5	 1.43178668131	 0.366997559955	 
12.5	 1.41466679651	 0.553822904239	 
12.5	 1.39754691172	 0.740648248524	 
12.5	 1.33424435839	 0.913095826525	 
12.5	 1.24229092869	 1.07662370332	 
12.5	 1.150337499	 1.24015158012	 
12.5	 1.05838406931	 1.40367945692	 
12.5	 0.898568704808	 1.496489186	 
12.5	 0.731390887075	 1.5816265866	 
12.5	 0.564213069342	 1.66676398719	 
12.5	 0.397035251608	 1.75190138779	 
12.5	 0.223411904015	 1.79505821108	 
12.5	 0.0383932096886	 1.76399565368	 
12.5	 -0.146625484638	 1.73293309628	 
12.5	 -0.331644178964	 1.70187053888	 
12.5	 -0.51666287329	 1.67080798148	 
12.5	 -0.70008511181	 1.63680692919	 
12.5	 -0.826833304456	 1.49848955724	 
12.5	 -0.953581497101	 1.36017218529	 
12.5	 -1.08032968975	 1.22185481333	 
12.5	 -1.16777264853	 1.06367854093	 
12.5	 -1.20392149461	 0.879586008089	 
12.5	 -1.23860815175	 0.695224340495	 
12.5	 -1.27037691292	 0.510325596485	 
12.5	 -1.30214567408	 0.325426852476	 
12.5	 -1.33391443525	 0.140528108466	 
12.5	 -1.36568319642	 -0.0443706355432	 
12.5	 -1.37982870585	 -0.230772355624	 
12.5	 -1.37982870585	 -0.418380457055	 
12.5	 -1.24192468894	 -0.511575601522	 
12.5	 -1.0670211597	 -0.579439842348	 
12.5	 -0.892117630463	 -0.647304083173	 
12.5	 -0.716466273902	 -0.713178552824	 
12.5	 -0.540160356851	 -0.77731140973	 
12.5	 -0.363854439799	 -0.841444266636	 
12.5	 -0.192680815617	 -0.886965165456	 
13.0	 0.319741976367	 -0.915999769056	 
13.0	 0.490901344632	 -0.846924243762	 
13.0	 0.662060712897	 -0.777848718468	 
13.0	 0.833220081162	 -0.708773193174	 
13.0	 1.00437944943	 -0.63969766788	 
13.0	 1.16437573159	 -0.553186068458	 
13.0	 1.29874799495	 -0.42665128123	 
13.0	 1.43312025832	 -0.300116494002	 
13.0	 1.48289180511	 -0.131459786998	 
13.0	 1.50287665636	 0.0520274421493	 
13.0	 1.52286150761	 0.235514671296	 
13.0	 1.54284635885	 0.419001900444	 
13.0	 1.5176231005	 0.601280534279	 
13.0	 1.48786309329	 0.783437882499	 
13.0	 1.45810308609	 0.965595230719	 
13.0	 1.42339053544	 1.14525586958	 
13.0	 1.29464605998	 1.27751250487	 
13.0	 1.16590158452	 1.40976914016	 
13.0	 1.03715710906	 1.54202577544	 
13.0	 0.868021581594	 1.60101393847	 
13.0	 0.687457632929	 1.63927119899	 
13.0	 0.506893684265	 1.67752845951	 
13.0	 0.326329735601	 1.71578572002	 
13.0	 0.14525142625	 1.71535919228	 
13.0	 -0.0362658858257	 1.68191636111	 
13.0	 -0.217783197902	 1.64847352995	 
13.0	 -0.399300509978	 1.61503069879	 
13.0	 -0.580817822054	 1.58158786763	 
13.0	 -0.735074034614	 1.48989845298	 
13.0	 -0.877037011149	 1.37194307653	 
13.0	 -1.01899998768	 1.25398770008	 
13.0	 -1.16096296422	 1.13603232364	 
13.0	 -1.28889115779	 1.01108261162	 
13.0	 -1.29759278901	 0.826715480185	 
13.0	 -1.30629442023	 0.64234834875	 
13.0	 -1.31499605145	 0.457981217315	 
13.0	 -1.32369768268	 0.27361408588	 
13.0	 -1.31213916871	 0.0898683951576	 
13.0	 -1.29215431746	 -0.0936188339896	 
13.0	 -1.27216946622	 -0.277106063137	 
13.0	 -1.25218461497	 -0.460593292284	 
13.0	 -1.2056684598	 -0.638916813689	 
13.0	 -1.11553878692	 -0.784301180075	 
13.0	 -0.952434818767	 -0.870695931728	 
13.0	 -0.779120091326	 -0.915999769056	 
13.0	 -0.594547727362	 -0.915999769056	 
13.0	 -0.412196519682	 -0.938236476263	 
13.0	 -0.230803828565	 -0.970069199869	 
13.0	 -0.0468716899668	 -0.959153561647	 
13.0	 0.1364351432	 -0.937576665352	 
13.5	 0.816454712085	 0.773984234987	 
13.5	 0.735666187942	 0.944360454894	 
13.5	 0.622626502432	 1.07675776634	 
13.5	 0.441411179854	 1.12887157263	 
13.5	 0.260195857276	 1.18098537892	 
13.5	 0.0770850197293	 1.22548334085	 
13.5	 -0.107416647527	 1.26439319465	 
13.5	 -0.291918314782	 1.30330304845	 
13.5	 -0.476419982038	 1.34221290226	 
13.5	 -0.663926467614	 1.36093325074	 
13.5	 -0.851762599067	 1.37743869421	 
13.5	 -1.03959873052	 1.39394413768	 
13.5	 -1.22743486197	 1.41044958115	 
13.5	 -1.37880442245	 1.33664487878	 
13.5	 -1.50251395297	 1.19433959426	 
13.5	 -1.62622348349	 1.05203430974	 
13.5	 -1.749933014	 0.909729025215	 
13.5	 -1.80577442836	 0.742048050616	 
13.5	 -1.80577442836	 0.553488134559	 
13.5	 -1.80577442836	 0.364928218503	 
13.5	 -1.80577442836	 0.176368302447	 
13.5	 -1.80577442836	 -0.0121916136098	 
13.5	 -1.80577442836	 -0.200751529666	 
13.5	 -1.80577442836	 -0.389311445722	 
13.5	 -1.80577442836	 -0.577871361779	 
13.5	 -1.72992467376	 -0.736184409945	 
13.5	 -1.60017252052	 -0.87300261295	 
13.5	 -1.47042036728	 -1.00982081596	 
13.5	 -1.3174005794	 -1.10800224878	 
13.5	 -1.13578278668	 -1.15869563403	 
13.5	 -0.954164993952	 -1.20938901929	 
13.5	 -0.772547201225	 -1.26008240454	 
13.5	 -0.590774834206	 -1.3102061463	 
13.5	 -0.408443847669	 -1.35827124061	 
13.5	 -0.226112861131	 -1.40633633493	 
13.5	 -0.0433978166119	 -1.43278319361	 
13.5	 0.1405253732	 -1.39122477458	 
13.5	 0.324448563013	 -1.34966635555	 
13.5	 0.508371752825	 -1.30810793651	 
13.5	 0.657075848732	 -1.19866360591	 
13.5	 0.796965224162	 -1.07222862426	 
13.5	 0.877488251031	 -0.913644902215	 
13.5	 0.906876406583	 -0.727393191178	 
13.5	 0.906876406583	 -0.538833275122	 
13.5	 0.906876406583	 -0.350273359065	 
13.5	 0.906876406583	 -0.161713443009	 
13.5	 0.906876406583	 0.0268464730472	 
13.5	 0.904769170608	 0.215240882539	 
13.5	 0.875331017767	 0.401488666688	 
13.5	 0.845892864926	 0.587736450838	 
14.0	 0.260666040068	 -0.718802093252	 
14.0	 0.451265342761	 -0.734349945839	 
14.0	 0.641864645454	 -0.749897798427	 
14.0	 0.832463948147	 -0.765445651015	 
14.0	 1.02306325084	 -0.780993503603	 
14.0	 1.19679245808	 -0.701570341711	 
14.0	 1.37037669383	 -0.621331055763	 
14.0	 1.43524154182	 -0.467837462034	 
14.0	 1.44442425268	 -0.276825662062	 
14.0	 1.45360696355	 -0.0858138620904	 
14.0	 1.46278967441	 0.105197937881	 
14.0	 1.47197238527	 0.296209737853	 
14.0	 1.43982872296	 0.483328337329	 
14.0	 1.39513516273	 0.669264658637	 
14.0	 1.35044160251	 0.855200979945	 
14.0	 1.30574804228	 1.04113730125	 
14.0	 1.18360881774	 1.17816641725	 
14.0	 1.034931777	 1.29843681038	 
14.0	 0.886254736262	 1.41870720352	 
14.0	 0.732757924717	 1.5276657552	 
14.0	 0.543027294759	 1.5515847427	 
14.0	 0.353296664801	 1.5755037302	 
14.0	 0.163566034843	 1.5994227177	 
14.0	 -0.026164595115	 1.62334170519	 
14.0	 -0.215895225073	 1.64726069269	 
14.0	 -0.406474704196	 1.63619458021	 
14.0	 -0.597142093998	 1.62150525167	 
14.0	 -0.787809483801	 1.60681592313	 
14.0	 -0.978476873603	 1.59212659458	 
14.0	 -1.10419785949	 1.47625012346	 
14.0	 -1.19695924665	 1.30902227004	 
14.0	 -1.28972063381	 1.14179441662	 
14.0	 -1.38248202097	 0.974566563199	 
14.0	 -1.47524340813	 0.80733870978	 
14.0	 -1.476772523	 0.62121662276	 
14.0	 -1.45805827368	 0.430902128358	 
14.0	 -1.43934402435	 0.240587633957	 
14.0	 -1.42062977503	 0.0502731395547	 
14.0	 -1.4019155257	 -0.140041354847	 
14.0	 -1.38320127638	 -0.330355849249	 
14.0	 -1.36448702706	 -0.520670343651	 
14.0	 -1.29859932253	 -0.695840831034	 
14.0	 -1.20304048411	 -0.861486049218	 
14.0	 -1.03944646039	 -0.929702959325	 
14.0	 -0.851023973678	 -0.962364808756	 
14.0	 -0.664334422832	 -0.932592753238	 
14.0	 -0.478013789275	 -0.88952941131	 
14.0	 -0.291693155718	 -0.846466069382	 
14.0	 -0.10080478463	 -0.843449855087	 
14.0	 0.0799839068821	 -0.781442309204	 
14.5	 0.717033487726	 -1.01282627171	 
14.5	 0.878252476735	 -0.920046281385	 
14.5	 1.03947146574	 -0.827266291062	 
14.5	 1.20069045475	 -0.73448630074	 
14.5	 1.31249302305	 -0.614681367416	 
14.5	 1.30362345856	 -0.428883036295	 
14.5	 1.29475389407	 -0.243084705174	 
14.5	 1.28588432959	 -0.0572863740527	 
14.5	 1.2770147651	 0.128511957068	 
14.5	 1.2562013172	 0.312919938448	 
14.5	 1.22215563825	 0.495787597606	 
14.5	 1.18810995929	 0.678655256764	 
14.5	 1.15406428033	 0.861522915922	 
14.5	 1.06321590665	 1.01889316836	 
14.5	 0.949203948801	 1.16586582734	 
14.5	 0.835191990956	 1.31283848633	 
14.5	 0.721180033111	 1.45981114532	 
14.5	 0.539522742516	 1.49002915337	 
14.5	 0.355312378701	 1.51584060208	 
14.5	 0.171102014886	 1.54165205079	 
14.5	 -0.0131083489287	 1.5674634995	 
14.5	 -0.197318712744	 1.59327494822	 
14.5	 -0.378651871494	 1.57242174236	 
14.5	 -0.558296092871	 1.52417609232	 
14.5	 -0.737940314247	 1.47593044229	 
14.5	 -0.917584535624	 1.42768479225	 
14.5	 -1.07495989687	 1.34543881862	 
14.5	 -1.19097306891	 1.20004063109	 
14.5	 -1.30698624094	 1.05464244356	 
14.5	 -1.41924870743	 0.907792318072	 
14.5	 -1.43137398405	 0.722178022587	 
14.5	 -1.44349926067	 0.536563727102	 
14.5	 -1.45562453729	 0.350949431617	 
14.5	 -1.46774981391	 0.165335136132	 
14.5	 -1.47987509053	 -0.0202791593533	 
14.5	 -1.49200036715	 -0.205893454838	 
14.5	 -1.50412564377	 -0.391507750323	 
14.5	 -1.41774759246	 -0.555939614206	 
14.5	 -1.33039258675	 -0.720161391081	 
14.5	 -1.23760748626	 -0.876674655607	 
14.5	 -1.05356179496	 -0.903635229361	 
14.5	 -0.869516103665	 -0.930595803115	 
14.5	 -0.68632461169	 -0.925516404493	 
14.5	 -0.503976905657	 -0.888787626594	 
14.5	 -0.321629199624	 -0.852058848696	 
14.5	 -0.139281493591	 -0.815330070797	 
14.5	 0.0458308015455	 -0.806327711457	 
14.5	 0.231840718006	 -0.806327711457	 
14.5	 0.417850634466	 -0.806327711457	 
14.5	 0.572186814896	 -0.896125241758	 
15.0	 0.0494479370968	 1.22887987083	 
15.0	 -0.127123486156	 1.21509269377	 
15.0	 -0.303694909408	 1.20130551672	 
15.0	 -0.480266332661	 1.18751833966	 
15.0	 -0.64054572242	 1.12646538555	 
15.0	 -0.788110741247	 1.02852602176	 
15.0	 -0.935675760074	 0.93058665797	 
15.0	 -1.0832407789	 0.832647294182	 
15.0	 -1.17496407838	 0.689077195675	 
15.0	 -1.24153917723	 0.524957391955	 
15.0	 -1.30811427609	 0.360837588236	 
15.0	 -1.37468937495	 0.196717784516	 
15.0	 -1.36661430653	 0.0209269827798	 
15.0	 -1.35330953052	 -0.155681444811	 
15.0	 -1.34000475452	 -0.332289872402	 
15.0	 -1.32669997852	 -0.508898299993	 
15.0	 -1.31339520251	 -0.685506727584	 
15.0	 -1.26427528795	 -0.852544819084	 
15.0	 -1.18771216671	 -1.01224967883	 
15.0	 -1.11114904547	 -1.17195453858	 
15.0	 -1.006587545	 -1.29897838154	 
15.0	 -0.83702676435	 -1.35013202681	 
15.0	 -0.667465983696	 -1.40128567208	 
15.0	 -0.497905203041	 -1.45243931735	 
15.0	 -0.328344422387	 -1.50359296262	 
15.0	 -0.156135956543	 -1.49694818628	 
15.0	 0.0173914570766	 -1.46151105204	 
15.0	 0.190918870696	 -1.4260739178	 
15.0	 0.364446284315	 -1.39063678355	 
15.0	 0.537973697935	 -1.35519964931	 
15.0	 0.697979610982	 -1.29318228453	 
15.0	 0.828801365625	 -1.17379542481	 
15.0	 0.959623120267	 -1.0544085651	 
15.0	 1.09044487491	 -0.935021705382	 
15.0	 1.22126662955	 -0.815634845666	 
15.0	 1.25674101926	 -0.643961397849	 
15.0	 1.28707634036	 -0.46946978758	 
15.0	 1.31741166146	 -0.29497817731	 
15.0	 1.33509430161	 -0.119394921395	 
15.0	 1.33509430161	 0.0577139540483	 
15.0	 1.33509430161	 0.234822829491	 
15.0	 1.33509430161	 0.411931704934	 
15.0	 1.24270588738	 0.560963803373	 
15.0	 1.1441604914	 0.708124799198	 
15.0	 1.04304303958	 0.852050058166	 
15.0	 0.87744385583	 0.914855026943	 
15.0	 0.711844672083	 0.97765999572	 
15.0	 0.546245488337	 1.0404649645	 
15.0	 0.38064630459	 1.10326993327	 
15.0	 0.215047120843	 1.16607490205	 
15.5	 -0.967470976064	 -1.16842105263	 
15.5	 -0.790254511369	 -1.15984913481	 
15.5	 -0.613038046675	 -1.15127721699	 
15.5	 -0.435821581981	 -1.14270529917	 
15.5	 -0.258605117286	 -1.13413338135	 
15.5	 -0.0821445932364	 -1.12146034555	 
15.5	 0.086481604686	 -1.06628463977	 
15.5	 0.255107802608	 -1.01110893399	 
15.5	 0.423734000531	 -0.955933228215	 
15.5	 0.594233798769	 -0.908697070621	 
15.5	 0.769737162409	 -0.882663966984	 
15.5	 0.945240526049	 -0.856630863347	 
15.5	 1.11711673135	 -0.825596327772	 
15.5	 1.1963834697	 -0.666864045848	 
15.5	 1.27565020806	 -0.508131763924	 
15.5	 1.3219766727	 -0.338754281964	 
15.5	 1.35059361348	 -0.163653671359	 
15.5	 1.37888839226	 0.0114432145878	 
15.5	 1.34623081036	 0.185835403284	 
15.5	 1.31357322846	 0.360227591981	 
15.5	 1.28091564656	 0.534619780677	 
15.5	 1.24825806466	 0.709011969374	 
15.5	 1.21560048276	 0.88340415807	 
15.5	 1.16962680909	 1.05250944485	 
15.5	 1.07376869406	 1.20180905944	 
15.5	 0.96123374192	 1.33038315907	 
15.5	 0.794880108057	 1.39207287972	 
15.5	 0.618878949728	 1.4	 
15.5	 0.441455295347	 1.4	 
15.5	 0.264031640966	 1.4	 
15.5	 0.086607986585	 1.4	 
15.5	 -0.0897187454633	 1.38218457539	 
15.5	 -0.265802236921	 1.36041861182	 
15.5	 -0.441885728379	 1.33865264826	 
15.5	 -0.617969219838	 1.3168866847	 
15.5	 -0.755170106198	 1.20661876128	 
15.5	 -0.890306890123	 1.09165266731	 
15.5	 -1.02544367405	 0.976686573332	 
15.5	 -1.16058045797	 0.861720479355	 
15.5	 -1.27024917884	 0.734983548153	 
15.5	 -1.27024917884	 0.557559893772	 
15.5	 -1.27024917884	 0.380136239391	 
15.5	 -1.27024917884	 0.20271258501	 
15.5	 -1.27024917884	 0.0252889306291	 
15.5	 -1.24370593185	 -0.147507913119	 
15.5	 -1.18367573336	 -0.314467574125	 
15.5	 -1.12364553487	 -0.481427235131	 
15.5	 -1.09466873495	 -0.656214702718	 
15.5	 -1.0683818692	 -0.83168023729	 
15.5	 -1.04020351963	 -1.00659049235	 
16.0	 -0.922629713379	 -1.18078559119	 
16.0	 -0.743378496825	 -1.14119570685	 
16.0	 -0.564127280272	 -1.1016058225	 
16.0	 -0.384876063718	 -1.06201593815	 
16.0	 -0.203858102133	 -1.03861742637	 
16.0	 -0.0202869780993	 -1.03861742637	 
16.0	 0.163284145934	 -1.03861742637	 
16.0	 0.346855269967	 -1.03861742637	 
16.0	 0.530426394	 -1.03861742637	 
16.0	 0.713997518033	 -1.03861742637	 
16.0	 0.897568642067	 -1.03861742637	 
16.0	 1.0811397661	 -1.03861742637	 
16.0	 1.26471089013	 -1.03861742637	 
16.0	 1.31878926831	 -0.86871701115	 
16.0	 1.33716660172	 -0.68606808234	 
16.0	 1.34986060016	 -0.50327700443	 
16.0	 1.3406372041	 -0.319937738194	 
16.0	 1.33141380804	 -0.136598471959	 
16.0	 1.32219041197	 0.0467407942771	 
16.0	 1.31296701591	 0.230080060513	 
16.0	 1.29581631602	 0.412708276592	 
16.0	 1.27226526115	 0.594762404238	 
16.0	 1.24871420627	 0.776816531884	 
16.0	 1.2251631514	 0.95887065953	 
16.0	 1.20161209652	 1.14092478718	 
16.0	 1.17549770971	 1.32243014941	 
16.0	 1.1224512483	 1.49816981628	 
16.0	 1.00819320875	 1.59149362291	 
16.0	 0.824622084719	 1.59149362291	 
16.0	 0.641050960686	 1.59149362291	 
16.0	 0.457479836653	 1.59149362291	 
16.0	 0.27390871262	 1.59149362291	 
16.0	 0.0933367595186	 1.58186831803	 
16.0	 -0.0577431723458	 1.47759362424	 
16.0	 -0.20882310421	 1.37331893044	 
16.0	 -0.359903036075	 1.26904423664	 
16.0	 -0.508760452431	 1.16165219993	 
16.0	 -0.656590171081	 1.05281869469	 
16.0	 -0.801766426959	 0.941300139694	 
16.0	 -0.912341612805	 0.7947686214	 
16.0	 -1.01133346893	 0.643566147702	 
16.0	 -1.03333780614	 0.461318605269	 
16.0	 -1.05136874315	 0.278832059073	 
16.0	 -1.05136874315	 0.0952609350402	 
16.0	 -1.05136874315	 -0.0883101889929	 
16.0	 -1.04934919576	 -0.271746451777	 
16.0	 -1.02494102976	 -0.453687648353	 
16.0	 -1.00053286376	 -0.635628844929	 
16.0	 -0.976124697768	 -0.817570041505	 
16.0	 -0.95002465179	 -0.999270096186	 
16.5	 0.148802712219	 -1.04386336212	 
16.5	 0.330272606082	 -1.02863135721	 
16.5	 0.511742499945	 -1.01339935231	 
16.5	 0.693212393808	 -0.9981673474	 
16.5	 0.874682287671	 -0.982935342493	 
16.5	 1.02584545898	 -0.908733911257	 
16.5	 1.14386634603	 -0.770045748201	 
16.5	 1.26188723308	 -0.631357585145	 
16.5	 1.37980696784	 -0.492632208173	 
16.5	 1.37980696784	 -0.310524173336	 
16.5	 1.37980696784	 -0.1284161385	 
16.5	 1.36352238558	 0.0515952589924	 
16.5	 1.31739426894	 0.227764306238	 
16.5	 1.2712661523	 0.403933353483	 
16.5	 1.22513803566	 0.580102400729	 
16.5	 1.17900991902	 0.756271447974	 
16.5	 1.11767413783	 0.925522886801	 
16.5	 1.01519225676	 1.0760579339	 
16.5	 0.912710375684	 1.22659298099	 
16.5	 0.810228494612	 1.37712802809	 
16.5	 0.707746613539	 1.52766307518	 
16.5	 0.550012878702	 1.57374324137	 
16.5	 0.367904843865	 1.57374324137	 
16.5	 0.185796809028	 1.57374324137	 
16.5	 0.00368877419086	 1.57374324137	 
16.5	 -0.178419260646	 1.57374324137	 
16.5	 -0.360527295483	 1.57374324137	 
16.5	 -0.54263533032	 1.57374324137	 
16.5	 -0.72334086486	 1.56164564602	 
16.5	 -0.900618659092	 1.51998127245	 
16.5	 -1.07789645332	 1.47831689889	 
16.5	 -1.25517424755	 1.43665252532	 
16.5	 -1.27590517933	 1.25772118864	 
16.5	 -1.29404629582	 1.07651899151	 
16.5	 -1.31218741232	 0.895316794382	 
16.5	 -1.33032852881	 0.714114597253	 
16.5	 -1.34846964531	 0.532912400124	 
16.5	 -1.3666107618	 0.351710202994	 
16.5	 -1.35182229915	 0.172985217528	 
16.5	 -1.30677597624	 -0.00346354314994	 
16.5	 -1.26172965334	 -0.179912303828	 
16.5	 -1.21668333043	 -0.356361064506	 
16.5	 -1.12659638415	 -0.509503610533	 
16.5	 -1.0085754971	 -0.648191773589	 
16.5	 -0.86597218718	 -0.757604280586	 
16.5	 -0.708960566927	 -0.849857667827	 
16.5	 -0.551948946673	 -0.942111055069	 
16.5	 -0.394937326419	 -1.03436444231	 
16.5	 -0.215413357455	 -1.04386336212	 
16.5	 -0.0333053226184	 -1.04386336212	 
17.0	 -0.75305306102	 -1.17074927693	 
17.0	 -0.571121507105	 -1.17074927693	 
17.0	 -0.38918995319	 -1.17074927693	 
17.0	 -0.207258399275	 -1.17074927693	 
17.0	 -0.0269475482157	 -1.15841937637	 
17.0	 0.14880403924	 -1.11140374262	 
17.0	 0.324555626695	 -1.06438810887	 
17.0	 0.50030721415	 -1.01737247512	 
17.0	 0.672064781784	 -0.957536296359	 
17.0	 0.843422324486	 -0.896416063462	 
17.0	 1.01477986719	 -0.835295830566	 
17.0	 1.15898721644	 -0.736420381225	 
17.0	 1.24165605044	 -0.576565060425	 
17.0	 1.24165605044	 -0.39463350651	 
17.0	 1.24165605044	 -0.212701952595	 
17.0	 1.24165605044	 -0.0307703986795	 
17.0	 1.2286965586	 0.150653774529	 
17.0	 1.21447265455	 0.33202844438	 
17.0	 1.2002487505	 0.513403114231	 
17.0	 1.16332471305	 0.690980377401	 
17.0	 1.117743378	 0.867109398874	 
17.0	 1.07216204295	 1.04323842035	 
17.0	 1.0069857136	 1.21265068644	 
17.0	 0.934930906096	 1.37970515369	 
17.0	 0.779613207137	 1.46022923366	 
17.0	 0.609910211043	 1.52580349254	 
17.0	 0.440207214949	 1.59137775141	 
17.0	 0.270504218855	 1.65695201028	 
17.0	 0.100801222761	 1.72252626916	 
17.0	 -0.0689017733327	 1.78810052803	 
17.0	 -0.238604769427	 1.79579303395	 
17.0	 -0.40830776552	 1.73021877508	 
17.0	 -0.578010761614	 1.66464451621	 
17.0	 -0.747713757708	 1.59907025733	 
17.0	 -0.917416753802	 1.53349599846	 
17.0	 -1.04012241627	 1.41139987659	 
17.0	 -1.13556149364	 1.25651129464	 
17.0	 -1.20950156074	 1.09475386375	 
17.0	 -1.22154763303	 0.913221545826	 
17.0	 -1.23359370531	 0.731689227898	 
17.0	 -1.2456397776	 0.55015690997	 
17.0	 -1.23892997655	 0.369342691713	 
17.0	 -1.21303898417	 0.18926285713	 
17.0	 -1.18714799178	 0.00918302254674	 
17.0	 -1.1612569994	 -0.170896812036	 
17.0	 -1.10216554042	 -0.342938734011	 
17.0	 -1.05602216101	 -0.518312095826	 
17.0	 -1.02509048297	 -0.697594893673	 
17.0	 -0.934452092291	 -0.855327729324	 
17.0	 -0.843752576655	 -1.01303850313	 
17.5	 -0.777167558719	 -1.01706210748	 
17.5	 -0.597793553418	 -1.0320992562	 
17.5	 -0.418419548117	 -1.04713640492	 
17.5	 -0.239045542816	 -1.06217355363	 
17.5	 -0.0596715375149	 -1.07721070235	 
17.5	 0.120073006226	 -1.08339224492	 
17.5	 0.300076199585	 -1.08339224492	 
17.5	 0.480079392944	 -1.08339224492	 
17.5	 0.660082586303	 -1.08339224492	 
17.5	 0.83172475628	 -1.04605797893	 
17.5	 0.994534582057	 -0.969284870035	 
17.5	 1.15734440783	 -0.892511761136	 
17.5	 1.22729175562	 -0.776162208672	 
17.5	 1.22729175562	 -0.596159015313	 
17.5	 1.22729175562	 -0.416155821955	 
17.5	 1.22729175562	 -0.236152628596	 
17.5	 1.22729175562	 -0.0561494352371	 
17.5	 1.22729175562	 0.123853758122	 
17.5	 1.22044593693	 0.303469332054	 
17.5	 1.20012703489	 0.482322041956	 
17.5	 1.17980813285	 0.661174751858	 
17.5	 1.14853852156	 0.838319882597	 
17.5	 1.11343867308	 1.01486775219	 
17.5	 1.07833882461	 1.19141562177	 
17.5	 0.954583980685	 1.30459231787	 
17.5	 0.798900627237	 1.39494630549	 
17.5	 0.643217273789	 1.48530029311	 
17.5	 0.487533920341	 1.57565428073	 
17.5	 0.324667947332	 1.62608805078	 
17.5	 0.147254107739	 1.59566636213	 
17.5	 -0.0301597318548	 1.56524467349	 
17.5	 -0.207573571448	 1.53482298484	 
17.5	 -0.384987411042	 1.5044012962	 
17.5	 -0.562401250635	 1.47397960755	 
17.5	 -0.739815090229	 1.44355791891	 
17.5	 -0.901214963989	 1.36782597679	 
17.5	 -1.0583441302	 1.28001040446	 
17.5	 -1.21547329642	 1.19219483213	 
17.5	 -1.26286878745	 1.03400296344	 
17.5	 -1.27713845988	 0.85456627246	 
17.5	 -1.2914081323	 0.675129581484	 
17.5	 -1.30214556188	 0.495899577114	 
17.5	 -1.2670457134	 0.319351707526	 
17.5	 -1.23194586492	 0.142803837938	 
17.5	 -1.19684601644	 -0.0337440316506	 
17.5	 -1.16174616796	 -0.210291901239	 
17.5	 -1.10896082531	 -0.38161310055	 
17.5	 -1.04245204188	 -0.548878552291	 
17.5	 -0.97041049266	 -0.713315886168	 
17.5	 -0.873789025689	 -0.865188996823	 
18.0	 -1.19928143133	 -1.03498348299	 
18.0	 -1.01945224972	 -1.04668608417	 
18.0	 -0.839623068108	 -1.05838868534	 
18.0	 -0.659793886499	 -1.07009128651	 
18.0	 -0.479964704889	 -1.08179388769	 
18.0	 -0.30013552328	 -1.09349648886	 
18.0	 -0.121414095074	 -1.11615622145	 
18.0	 0.0571185176691	 -1.14068358616	 
18.0	 0.235651130412	 -1.16521095087	 
18.0	 0.414183743155	 -1.18973831558	 
18.0	 0.592716355899	 -1.21426568029	 
18.0	 0.76715719159	 -1.17205761126	 
18.0	 0.941356056016	 -1.12590307665	 
18.0	 1.11555492044	 -1.07974854204	 
18.0	 1.28792114324	 -1.03076522968	 
18.0	 1.37882103606	 -0.883963421051	 
18.0	 1.36069495442	 -0.70466776969	 
18.0	 1.34256887278	 -0.525372118329	 
18.0	 1.29183811014	 -0.356077511958	 
18.0	 1.20631258796	 -0.197455727554	 
18.0	 1.12078706577	 -0.0388339431501	 
18.0	 1.03758868038	 0.120745143677	 
18.0	 0.986742802587	 0.293632916939	 
18.0	 0.935896924788	 0.466520690201	 
18.0	 0.88505104699	 0.639408463463	 
18.0	 0.828368413515	 0.810102771137	 
18.0	 0.752767209961	 0.973687438676	 
18.0	 0.677166006407	 1.13727210621	 
18.0	 0.56237279449	 1.27166843176	 
18.0	 0.427300087003	 1.39096155447	 
18.0	 0.286202367521	 1.49226413849	 
18.0	 0.10652850532	 1.47837930236	 
18.0	 -0.0731453568815	 1.46449446624	 
18.0	 -0.252819219083	 1.45060963012	 
18.0	 -0.432493081285	 1.436724794	 
18.0	 -0.606178832185	 1.39144311555	 
18.0	 -0.77835049763	 1.33822279001	 
18.0	 -0.869439596198	 1.21767012647	 
18.0	 -0.89012311395	 1.03865147513	 
18.0	 -0.917730796469	 0.861212801896	 
18.0	 -0.976749364452	 0.690941565141	 
18.0	 -1.03576793243	 0.520670328387	 
18.0	 -1.09478650042	 0.350399091633	 
18.0	 -1.1538050684	 0.180127854878	 
18.0	 -1.21004476163	 0.0090015989719	 
18.0	 -1.25695265726	 -0.164995914689	 
18.0	 -1.30386055289	 -0.33899342835	 
18.0	 -1.34000511821	 -0.512990942011	 
18.0	 -1.29309722259	 -0.686988455671	 
18.0	 -1.24618932696	 -0.860985969332	 
18.5	 -1.26696286762	 -0.974952729433	 
18.5	 -1.08051853513	 -0.974952729433	 
18.5	 -0.894074202643	 -0.974952729433	 
18.5	 -0.707629870154	 -0.974952729433	 
18.5	 -0.521185537666	 -0.974952729433	 
18.5	 -0.33538437232	 -0.960528785939	 
18.5	 -0.149679979331	 -0.94393458389	 
18.5	 0.0360244136581	 -0.927340381841	 
18.5	 0.221728806647	 -0.910746179792	 
18.5	 0.407967415673	 -0.906132536767	 
18.5	 0.594411748162	 -0.906132536767	 
18.5	 0.78085608065	 -0.906132536767	 
18.5	 0.967300413139	 -0.906132536767	 
18.5	 1.15374474563	 -0.906132536767	 
18.5	 1.25013531134	 -0.823722566256	 
18.5	 1.23364084704	 -0.638009287882	 
18.5	 1.21714638274	 -0.452296009507	 
18.5	 1.14178667719	 -0.283720378983	 
18.5	 1.05601799817	 -0.118175150072	 
18.5	 0.989144221976	 0.0537768970778	 
18.5	 0.956535895038	 0.237347554132	 
18.5	 0.923927568099	 0.420918211187	 
18.5	 0.884208980381	 0.603029578196	 
18.5	 0.841875880292	 0.784604349995	 
18.5	 0.799542780204	 0.966179121795	 
18.5	 0.760354093795	 1.14844615668	 
18.5	 0.722519430023	 1.33101128844	 
18.5	 0.684684766251	 1.5135764202	 
18.5	 0.64685010248	 1.69614155196	 
18.5	 0.583583272478	 1.85312310208	 
18.5	 0.400796771581	 1.88987339741	 
18.5	 0.229364934373	 1.88011372791	 
18.5	 0.0840761744511	 1.76326910733	 
18.5	 -0.0612125854705	 1.64642448676	 
18.5	 -0.206501345392	 1.52957986618	 
18.5	 -0.351790105314	 1.41273524561	 
18.5	 -0.497078865235	 1.29589062503	 
18.5	 -0.63488158405	 1.17099079323	 
18.5	 -0.759381572815	 1.03227338779	 
18.5	 -0.879949965754	 0.890059634095	 
18.5	 -1.00051835869	 0.747845880396	 
18.5	 -1.12108675163	 0.605632126697	 
18.5	 -1.24165514457	 0.463418372997	 
18.5	 -1.35369701643	 0.317695900206	 
18.5	 -1.36814292842	 0.131812052753	 
18.5	 -1.38258884041	 -0.0540717947002	 
18.5	 -1.39145938297	 -0.239681556517	 
18.5	 -1.35885105603	 -0.423252213571	 
18.5	 -1.32624272909	 -0.606822870625	 
18.5	 -1.29559798358	 -0.790720486731	 
19.0	 -1.27688250206	 -1.03165107523	 
19.0	 -1.08952466206	 -1.03165107523	 
19.0	 -0.90216682206	 -1.03165107523	 
19.0	 -0.714808982057	 -1.03165107523	 
19.0	 -0.52847088007	 -1.01273288841	 
19.0	 -0.342198615638	 -0.992593282816	 
19.0	 -0.155926351206	 -0.972453677219	 
19.0	 0.0302082146717	 -0.951131379867	 
19.0	 0.216124902831	 -0.927937732583	 
19.0	 0.40204159099	 -0.904744085299	 
19.0	 0.587263464109	 -0.877300705426	 
19.0	 0.770886140721	 -0.840076078579	 
19.0	 0.95480050497	 -0.804375120977	 
19.0	 1.13918857727	 -0.771148640515	 
19.0	 1.32425392504	 -0.745499682102	 
19.0	 1.24757442718	 -0.576700180662	 
19.0	 1.1740086162	 -0.404583412373	 
19.0	 1.11174587115	 -0.227873732985	 
19.0	 1.0494831261	 -0.0511640535968	 
19.0	 0.987220381051	 0.125545625791	 
19.0	 0.924957636003	 0.302255305179	 
19.0	 0.862694890955	 0.478964984567	 
19.0	 0.825692996638	 0.661608824873	 
19.0	 0.802761609526	 0.847558042929	 
19.0	 0.779830222414	 1.03350726098	 
19.0	 0.756898835302	 1.21945647904	 
19.0	 0.752199873943	 1.40652567274	 
19.0	 0.752199873943	 1.59388351274	 
19.0	 0.729283528984	 1.75832500779	 
19.0	 0.541925688982	 1.75832500779	 
19.0	 0.35456784898	 1.75832500779	 
19.0	 0.167210008977	 1.75832500779	 
19.0	 -0.0165288099856	 1.74609645894	 
19.0	 -0.173710014591	 1.6441306356	 
19.0	 -0.330891219197	 1.54216481226	 
19.0	 -0.478676136369	 1.42904176125	 
19.0	 -0.605892950067	 1.29149597788	 
19.0	 -0.724807647532	 1.14791407476	 
19.0	 -0.816419568514	 0.984481470475	 
19.0	 -0.908031489496	 0.821048866187	 
19.0	 -0.999643410477	 0.657616261899	 
19.0	 -1.09125533146	 0.494183657611	 
19.0	 -1.18567902537	 0.332405030417	 
19.0	 -1.28401373866	 0.172926993141	 
19.0	 -1.38234845194	 0.0134489558651	 
19.0	 -1.48068316523	 -0.146029081411	 
19.0	 -1.49743493424	 -0.328637469264	 
19.0	 -1.49743493424	 -0.515995309267	 
19.0	 -1.42791881188	 -0.688722695015	 
19.0	 -1.35240065697	 -0.860186885123	 
19.5	 -1.34861544991	 -0.902870217622	 
19.5	 -1.14998077831	 -0.878069083332	 
19.5	 -0.951346106704	 -0.853267949043	 
19.5	 -0.752711435102	 -0.828466814753	 
19.5	 -0.554076763499	 -0.803665680464	 
19.5	 -0.355442091897	 -0.778864546174	 
19.5	 -0.158322544609	 -0.797628288293	 
19.5	 0.0381091785152	 -0.836169268756	 
19.5	 0.235381404229	 -0.870140211198	 
19.5	 0.432672044665	 -0.901729407392	 
19.5	 0.629962685102	 -0.867858590739	 
19.5	 0.827253325538	 -0.833987774086	 
19.5	 1.02454396597	 -0.800116957432	 
19.5	 1.22225001785	 -0.77112091548	 
19.5	 1.37259033777	 -0.736227510358	 
19.5	 1.30411255319	 -0.548127478345	 
19.5	 1.18983554137	 -0.386111335305	 
19.5	 1.06298962781	 -0.231253519106	 
19.5	 0.936143714252	 -0.076395702907	 
19.5	 0.839682613036	 0.0935992507878	 
19.5	 0.79247026508	 0.288128999734	 
19.5	 0.747511210358	 0.483166415068	 
19.5	 0.706741523968	 0.679147694011	 
19.5	 0.665971837579	 0.875128972954	 
19.5	 0.65820235658	 1.07514641441	 
19.5	 0.650536993275	 1.27517659021	 
19.5	 0.642871629971	 1.47520676601	 
19.5	 0.635206266667	 1.67523694181	 
19.5	 0.627540903362	 1.8752671176	 
19.5	 0.619875540058	 2.0752972934	 
19.5	 0.488102743576	 2.05606714191	 
19.5	 0.312658219735	 1.95968224642	 
19.5	 0.137471334801	 1.86297713575	 
19.5	 0.00576321418818	 1.71223298167	 
19.5	 -0.125944906425	 1.56148882759	 
19.5	 -0.257653027038	 1.41074467351	 
19.5	 -0.389361147652	 1.26000051943	 
19.5	 -0.521069268265	 1.10925636535	 
19.5	 -0.652777388878	 0.958512211274	 
19.5	 -0.778225416031	 0.802770448856	 
19.5	 -0.896051366624	 0.640943768758	 
19.5	 -1.01387731722	 0.47911708866	 
19.5	 -1.13170326781	 0.317290408562	 
19.5	 -1.2495292184	 0.155463728464	 
19.5	 -1.36735516899	 -0.00636295163434	 
19.5	 -1.48518111959	 -0.168189631732	 
19.5	 -1.56845391312	 -0.346619636576	 
19.5	 -1.62117969939	 -0.539727949413	 
19.5	 -1.67390548566	 -0.73283626225	 
19.5	 -1.53495876862	 -0.829747057151	 
20.0	 -1.58272913591	 -0.870365464584	 
20.0	 -1.40412157118	 -0.900769980241	 
20.0	 -1.22551400644	 -0.931174495898	 
20.0	 -1.04568813043	 -0.947162417341	 
20.0	 -0.8645111541	 -0.947162417341	 
20.0	 -0.68333417777	 -0.947162417341	 
20.0	 -0.50215720144	 -0.947162417341	 
20.0	 -0.322487473347	 -0.927127204809	 
20.0	 -0.143349715147	 -0.900020741754	 
20.0	 0.0357880430528	 -0.8729142787	 
20.0	 0.216773272199	 -0.870365464584	 
20.0	 0.397950248529	 -0.870365464584	 
20.0	 0.579127224859	 -0.870365464584	 
20.0	 0.760304201189	 -0.870365464584	 
20.0	 0.94148117752	 -0.870365464584	 
20.0	 1.12265815385	 -0.870365464584	 
20.0	 1.1219483272	 -0.69069302597	 
20.0	 1.10721531401	 -0.510116075408	 
20.0	 1.09248230081	 -0.329539124846	 
20.0	 1.07774928762	 -0.148962174284	 
20.0	 1.05876158214	 0.0311071907222	 
20.0	 1.03059999249	 0.210082109692	 
20.0	 1.00243840284	 0.389057028662	 
20.0	 0.974276813183	 0.568031947632	 
20.0	 0.94611522353	 0.747006866603	 
20.0	 0.917953633877	 0.925981785573	 
20.0	 0.898508939387	 1.10563831035	 
20.0	 0.85328905418	 1.28031168738	 
20.0	 0.802230827117	 1.45414538435	 
20.0	 0.6798333305	 1.57214382263	 
20.0	 0.523357955494	 1.66347045494	 
20.0	 0.367625675753	 1.7254625834	 
20.0	 0.215974957744	 1.62633056799	 
20.0	 0.0643242397358	 1.52719855258	 
20.0	 -0.0873264782728	 1.42806653717	 
20.0	 -0.238977196281	 1.32893452176	 
20.0	 -0.39062791429	 1.22980250635	 
20.0	 -0.542278632299	 1.13067049093	 
20.0	 -0.693929350307	 1.03153847552	 
20.0	 -0.845580068316	 0.93240646011	 
20.0	 -0.997230786325	 0.833274444698	 
20.0	 -1.09324943577	 0.685025952414	 
20.0	 -1.14763606911	 0.512204683859	 
20.0	 -1.20202270246	 0.339383415304	 
20.0	 -1.25640933581	 0.166562146748	 
20.0	 -1.31079596916	 -0.0062591218069	 
20.0	 -1.36518260251	 -0.179080390362	 
20.0	 -1.41956923586	 -0.351901658918	 
20.0	 -1.47395586921	 -0.524722927473	 
20.0	 -1.52834250256	 -0.697544196028	 
20.5	 -1.25412634114	 -0.998789266572	 
20.5	 -1.06311220076	 -1.02392866018	 
20.5	 -0.872098060378	 -1.0490680538	 
20.5	 -0.6814741593	 -1.06684450398	 
20.5	 -0.494187482152	 -1.02165499747	 
20.5	 -0.306900805004	 -0.976465490953	 
20.5	 -0.119614127856	 -0.931275984438	 
20.5	 0.0713745231863	 -0.907167731363	 
20.5	 0.262852205637	 -0.885844315607	 
20.5	 0.454329888088	 -0.864520899851	 
20.5	 0.646363735855	 -0.853216741889	 
20.5	 0.839025073274	 -0.853216741889	 
20.5	 1.02428994251	 -0.895386672433	 
20.5	 1.14820242784	 -0.831129373908	 
20.5	 1.22196623265	 -0.6531482175	 
20.5	 1.27143515726	 -0.468732258269	 
20.5	 1.29544291568	 -0.277572590786	 
20.5	 1.31945067409	 -0.086412923304	 
20.5	 1.34345843251	 0.104746744178	 
20.5	 1.3629241248	 0.296295600201	 
20.5	 1.37178672907	 0.488752985567	 
20.5	 1.38064933334	 0.681210370932	 
20.5	 1.3895119376	 0.873667756298	 
20.5	 1.39837454187	 1.06612514166	 
20.5	 1.40723714614	 1.25858252703	 
20.5	 1.41054298947	 1.45116778822	 
20.5	 1.41054298947	 1.64382912564	 
20.5	 1.34130556046	 1.76231556866	 
20.5	 1.14910041253	 1.74906520843	 
20.5	 0.956895264603	 1.7358148482	 
20.5	 0.764690116675	 1.72256448797	 
20.5	 0.572484968747	 1.70931412774	 
20.5	 0.380279820819	 1.69606376751	 
20.5	 0.202803220567	 1.62484549165	 
20.5	 0.027584581968	 1.54474043798	 
20.5	 -0.147634056631	 1.46463538431	 
20.5	 -0.32285269523	 1.38453033064	 
20.5	 -0.498071333828	 1.30442527696	 
20.5	 -0.626645951961	 1.18196294661	 
20.5	 -0.689540469273	 0.999856739609	 
20.5	 -0.752434986585	 0.817750532608	 
20.5	 -0.808773627926	 0.63395794687	 
20.5	 -0.841558374541	 0.44410655413	 
20.5	 -0.874343121157	 0.254255161389	 
20.5	 -0.907127867773	 0.0644037686489	 
20.5	 -0.939912614389	 -0.125447624092	 
20.5	 -0.991278313267	 -0.310519407982	 
20.5	 -1.08449991591	 -0.446256557776	 
20.5	 -1.14104205765	 -0.630434127374	 
20.5	 -1.19758419939	 -0.814611696973	 
21.0	 -1.17360917284	 -0.849332620314	 
21.0	 -0.992111301944	 -0.849332620314	 
21.0	 -0.810613431052	 -0.849332620314	 
21.0	 -0.62911556016	 -0.849332620314	 
21.0	 -0.447617689268	 -0.849332620314	 
21.0	 -0.266119818376	 -0.849332620314	 
21.0	 -0.0846219474838	 -0.849332620314	 
21.0	 0.0968759234083	 -0.849332620314	 
21.0	 0.2783737943	 -0.849332620314	 
21.0	 0.459871665193	 -0.849332620314	 
21.0	 0.641369536085	 -0.849332620314	 
21.0	 0.822867406977	 -0.849332620314	 
21.0	 1.00436527787	 -0.849332620314	 
21.0	 1.10312517962	 -0.743766784334	 
21.0	 1.1414102711	 -0.566528062091	 
21.0	 1.1679200588	 -0.386976653591	 
21.0	 1.1929390664	 -0.207240256836	 
21.0	 1.21111798716	 -0.0266550858542	 
21.0	 1.22929690791	 0.153930085128	 
21.0	 1.24747582866	 0.33451525611	 
21.0	 1.26565474941	 0.515100427092	 
21.0	 1.28383367016	 0.695685598074	 
21.0	 1.30201259092	 0.876270769057	 
21.0	 1.32019151167	 1.05685594004	 
21.0	 1.33837043242	 1.23744111102	 
21.0	 1.35654935317	 1.418026282	 
21.0	 1.24478532769	 1.55285363956	 
21.0	 1.1107183261	 1.66466173901	 
21.0	 0.92953442145	 1.65399075814	 
21.0	 0.748350516796	 1.64331977728	 
21.0	 0.567166612141	 1.63264879642	 
21.0	 0.385982707487	 1.62197781556	 
21.0	 0.204798802832	 1.6113068347	 
21.0	 0.023614898178	 1.60063585384	 
21.0	 -0.157569006476	 1.58996487298	 
21.0	 -0.30838846977	 1.489793013	 
21.0	 -0.458662114929	 1.38801232373	 
21.0	 -0.608935760087	 1.28623163446	 
21.0	 -0.759209405246	 1.18445094518	 
21.0	 -0.883454562114	 1.05744063527	 
21.0	 -0.980502867839	 0.904068201327	 
21.0	 -1.07755117356	 0.750695767382	 
21.0	 -1.17370669642	 0.597038903511	 
21.0	 -1.18326383762	 0.415792832683	 
21.0	 -1.19282097883	 0.234546761856	 
21.0	 -1.20237812003	 0.0533006910283	 
21.0	 -1.21193526123	 -0.127945379799	 
21.0	 -1.22149240243	 -0.309191450627	 
21.0	 -1.22662874824	 -0.490229803314	 
21.0	 -1.20011896054	 -0.669781211814	 
21.5	 -1.52566544843	 -0.970042943585	 
21.5	 -1.33454260879	 -0.970042943585	 
21.5	 -1.14461375613	 -0.956473007012	 
21.5	 -0.956427462699	 -0.92309848388	 
21.5	 -0.770994777498	 -0.880159676947	 
