62.5	 -0.0809845409253	 1.62309948558	 
62.5	 0.102673758606	 1.59124607927	 
62.5	 0.286332058137	 1.55939267296	 
62.5	 0.469990357668	 1.52753926665	 
62.5	 0.6536486572	 1.49568586034	 
62.5	 0.809462770567	 1.4162727292	 
62.5	 0.927134681883	 1.27171017607	 
62.5	 1.0448065932	 1.12714762294	 
62.5	 1.16247850452	 0.982585069808	 
62.5	 1.25658111675	 0.822072408247	 
62.5	 1.34703464705	 0.659090294702	 
62.5	 1.43748817735	 0.496108181156	 
62.5	 1.49833073512	 0.324108000414	 
62.5	 1.51407913447	 0.138374324421	 
62.5	 1.52982753382	 -0.0473593515731	 
62.5	 1.5429783577	 -0.233071192599	 
62.5	 1.52410988581	 -0.41851388253	 
62.5	 1.50524141391	 -0.60395657246	 
62.5	 1.45524865312	 -0.776015481879	 
62.5	 1.33363157623	 -0.917275161513	 
62.5	 1.21201449935	 -1.05853484115	 
62.5	 1.09039742247	 -1.19979452078	 
62.5	 0.968780345582	 -1.34105420042	 
62.5	 0.811510757694	 -1.41875053577	 
62.5	 0.627562088048	 -1.44888187188	 
62.5	 0.476012477433	 -1.35316348482	 
62.5	 0.329481074591	 -1.23795255451	 
62.5	 0.18294967175	 -1.12274162421	 
62.5	 0.0404447679971	 -1.00295386296	 
62.5	 -0.0924972047403	 -0.872296133127	 
62.5	 -0.242434295844	 -0.776104323461	 
62.5	 -0.427023914582	 -0.750187473061	 
62.5	 -0.605636872319	 -0.704820319492	 
62.5	 -0.7729291488	 -0.622611410547	 
62.5	 -0.904140882301	 -0.502474487087	 
62.5	 -0.994594412605	 -0.339492373541	 
62.5	 -1.08504794291	 -0.176510259996	 
63.0	 -1.0727257434	 -0.653274439654	 
63.0	 -1.12487952031	 -0.472761341126	 
63.0	 -1.17703329722	 -0.292248242599	 
63.0	 -1.22524599128	 -0.111177225647	 
63.0	 -1.22524599128	 0.0767190095087	 
63.0	 -1.22524599128	 0.264615244664	 
63.0	 -1.22524599128	 0.452511479819	 
63.0	 -1.22524599128	 0.640407714974	 
63.0	 -1.19290711684	 0.825039896863	 
63.0	 -1.15535983949	 1.00914638004	 
63.0	 -1.11781256213	 1.19325286322	 
63.0	 -1.08026528477	 1.3773593464	 
63.0	 -0.937385180704	 1.47938881989	 
63.0	 -0.768039860959	 1.56079617746	 
63.0	 -0.597536560105	 1.63910286381	 
63.0	 -0.416285155261	 1.68862986077	 
63.0	 -0.235033750417	 1.73815685772	 
63.0	 -0.0537823455723	 1.78768385468	 
63.0	 0.127469059272	 1.83721085164	 
63.0	 0.308720464116	 1.88673784859	 
63.0	 0.486072007315	 1.84806965856	 
63.0	 0.662244526697	 1.78273790059	 
63.0	 0.838417046079	 1.71740614261	 
63.0	 1.01458956546	 1.65207438464	 
63.0	 1.0984367178	 1.50234113762	 
63.0	 1.14773997335	 1.32102874374	 
63.0	 1.1970432289	 1.13971634985	 
63.0	 1.24634648445	 0.958403955958	 
63.0	 1.32925586603	 0.792476940045	 
63.0	 1.4342872632	 0.636677707715	 
63.0	 1.53931866036	 0.480878475384	 
63.0	 1.60161410958	 0.323600049491	 
63.0	 1.50760633443	 0.160911594467	 
63.0	 1.41359855929	 -0.00177686055632	 
63.0	 1.31959078414	 -0.16446531558	 
63.0	 1.225583009	 -0.327153770604	 
63.0	 1.21360575216	 -0.476034357373	 
63.0	 1.09876711433	 -0.621942726434	 
63.0	 0.956014441485	 -0.743935361116	 
63.0	 0.791421321798	 -0.834567034042	 
63.0	 0.626828202112	 -0.925198706968	 
63.0	 0.462235082425	 -1.01583037989	 
63.0	 0.284657181582	 -1.06944263546	 
63.0	 0.0995129583845	 -1.10148341888	 
63.0	 -0.0856312648134	 -1.1335242023	 
63.0	 -0.25457966311	 -1.07221186293	 
63.0	 -0.438228048033	 -1.03248446808	 
63.0	 -0.616584264838	 -0.978075023168	 
63.0	 -0.783345203554	 -0.891496824387	 
63.0	 -0.930638022143	 -0.776221886364	 
63.5	 -0.884276979654	 -1.24568678587	 
63.5	 -0.871363640748	 -1.05809101264	 
63.5	 -0.858450301843	 -0.870495239414	 
63.5	 -0.845536962937	 -0.682899466184	 
63.5	 -0.832623624032	 -0.495303692954	 
63.5	 -0.819710285126	 -0.307707919724	 
63.5	 -0.87660677928	 -0.129336647744	 
63.5	 -0.937803036558	 0.0484664640127	 
63.5	 -0.998999293836	 0.22626957577	 
63.5	 -1.0268382316	 0.411135728444	 
63.5	 -1.04295853762	 0.598483170886	 
63.5	 -1.05907884363	 0.785830613327	 
63.5	 -1.07519914965	 0.973178055768	 
63.5	 -0.98266566366	 1.11662047048	 
63.5	 -0.840915395285	 1.24017527562	 
63.5	 -0.699165126911	 1.36373008075	 
63.5	 -0.557414858537	 1.48728488588	 
63.5	 -0.411983319925	 1.60202577077	 
63.5	 -0.224463277	 1.6159958086	 
63.5	 -0.0369432340763	 1.62996584644	 
63.5	 0.150576808848	 1.64393588427	 
63.5	 0.338096851772	 1.6579059221	 
63.5	 0.511422436133	 1.61125924118	 
63.5	 0.673243904788	 1.51548481485	 
63.5	 0.835065373443	 1.41971038853	 
63.5	 0.996886842098	 1.3239359622	 
63.5	 1.15870831075	 1.22816153588	 
63.5	 1.32052977941	 1.13238710956	 
63.5	 1.48235124806	 1.03661268323	 
63.5	 1.61529189399	 0.917294893472	 
63.5	 1.67648815127	 0.739491781715	 
63.5	 1.73768440855	 0.561688669958	 
63.5	 1.79888066583	 0.383885558201	 
63.5	 1.85649695177	 0.207021954335	 
63.5	 1.71587683043	 0.0821824176194	 
63.5	 1.57525670908	 -0.0426571190964	 
63.5	 1.43463658773	 -0.167496655812	 
63.5	 1.29401646638	 -0.292336192528	 
63.5	 1.15339634503	 -0.417175729244	 
63.5	 1.00302638513	 -0.528536114962	 
63.5	 0.840443249505	 -0.62301178625	 
63.5	 0.667161840556	 -0.684258186311	 
63.5	 0.479997858737	 -0.702384751483	 
63.5	 0.292833876918	 -0.720511316656	 
63.5	 0.105669895099	 -0.738637881829	 
63.5	 -0.0694045853591	 -0.806155974505	 
63.5	 -0.243781650136	 -0.876523351429	 
63.5	 -0.418158714912	 -0.946890728354	 
63.5	 -0.592535779689	 -1.01725810528	 
63.5	 -0.749201468512	 -1.11486807641	 
64.0	 -1.14402081147	 -0.965623627475	 
64.0	 -1.14402081147	 -0.774771092156	 
64.0	 -1.14402081147	 -0.583918556837	 
64.0	 -1.14402081147	 -0.393066021517	 
64.0	 -1.14402081147	 -0.202213486198	 
64.0	 -1.14402081147	 -0.0113609508792	 
64.0	 -1.14402081147	 0.17949158444	 
64.0	 -1.16509487311	 0.368524616057	 
64.0	 -1.1956608991	 0.556536417194	 
64.0	 -1.16007429121	 0.744041839987	 
64.0	 -1.12448768332	 0.93154726278	 
64.0	 -1.08314477587	 1.11633103452	 
64.0	 -0.960813458059	 1.26282246402	 
64.0	 -0.818723461482	 1.38074787145	 
64.0	 -0.638493892144	 1.44353316093	 
64.0	 -0.458264322807	 1.5063184504	 
64.0	 -0.277160071548	 1.56584539272	 
64.0	 -0.0897170802171	 1.60175939053	 
64.0	 0.0977259111135	 1.63767338834	 
64.0	 0.283440974547	 1.64477311664	 
64.0	 0.465248724564	 1.58671597004	 
64.0	 0.647056474581	 1.52865882344	 
64.0	 0.828864224599	 1.47060167684	 
64.0	 0.91249662503	 1.31180824724	 
64.0	 0.975215203113	 1.13155545198	 
64.0	 1.0379337812	 0.951302656715	 
64.0	 1.10065235928	 0.771049861449	 
64.0	 1.16337093736	 0.590797066184	 
64.0	 1.22608951545	 0.410544270919	 
64.0	 1.23692313769	 0.221245152614	 
64.0	 1.28511429029	 0.0365770637398	 
64.0	 1.33330544289	 -0.148091025135	 
64.0	 1.38149659549	 -0.332759114009	 
64.0	 1.3883747712	 -0.522728962217	 
64.0	 1.3883747712	 -0.713581497536	 
64.0	 1.32904406635	 -0.891341545164	 
64.0	 1.24872450025	 -1.06446998748	 
64.0	 1.15610632466	 -1.21833504513	 
64.0	 0.977540897411	 -1.16865669083	 
64.0	 0.808692603169	 -1.0796907211	 
64.0	 0.639844308927	 -0.990724751376	 
64.0	 0.470996014684	 -0.90175878165	 
64.0	 0.302147720442	 -0.812792811924	 
64.0	 0.1332994262	 -0.723826842198	 
64.0	 -0.0421308548392	 -0.664021271247	 
64.0	 -0.226212305286	 -0.714406882676	 
64.0	 -0.410293755733	 -0.764792494106	 
64.0	 -0.59437520618	 -0.815178105535	 
64.0	 -0.778213509273	 -0.866215742054	 
64.0	 -0.956577820138	 -0.929709629664	 
64.5	 -1.09738624363	 -1.01337467876	 
64.5	 -1.12552921297	 -0.829008153684	 
64.5	 -1.15367218231	 -0.644641628612	 
64.5	 -1.18181515164	 -0.460275103539	 
64.5	 -1.20995812098	 -0.275908578466	 
64.5	 -1.22350270044	 -0.0927577407037	 
64.5	 -1.16525244448	 0.0844143506948	 
64.5	 -1.10700218851	 0.261586442093	 
64.5	 -1.04875193255	 0.438758533492	 
64.5	 -0.990501676585	 0.61593062489	 
64.5	 -0.907229594893	 0.780445746643	 
64.5	 -0.799022029468	 0.93234757374	 
64.5	 -0.690814464043	 1.08424940084	 
64.5	 -0.572500847299	 1.22797477464	 
64.5	 -0.446535490122	 1.3655093924	 
64.5	 -0.320570132944	 1.50304401015	 
64.5	 -0.194604775767	 1.64057862791	 
64.5	 -0.0686394185895	 1.77811324567	 
64.5	 0.0573259385878	 1.91564786343	 
64.5	 0.18750247899	 2.03349938095	 
64.5	 0.358715553755	 1.95954584608	 
64.5	 0.529928628521	 1.88559231121	 
64.5	 0.701141703286	 1.81163877634	 
64.5	 0.872354778051	 1.73768524146	 
64.5	 1.04356785282	 1.66373170659	 
64.5	 1.21478092758	 1.58977817172	 
64.5	 1.35830424686	 1.49299835382	 
64.5	 1.39823483184	 1.31082099333	 
64.5	 1.43816541683	 1.12864363285	 
64.5	 1.47809600182	 0.946466272361	 
64.5	 1.5180265868	 0.764288911877	 
64.5	 1.5248014335	 0.579371072359	 
64.5	 1.51532404015	 0.393109908114	 
64.5	 1.50584664681	 0.206848743869	 
64.5	 1.49636925346	 0.0205875796241	 
64.5	 1.48689186011	 -0.165673584621	 
64.5	 1.35900460122	 -0.293147782935	 
64.5	 1.20845949642	 -0.400938453289	 
64.5	 1.03953651214	 -0.479983172729	 
64.5	 0.870613527858	 -0.55902789217	 
64.5	 0.701690543575	 -0.638072611611	 
64.5	 0.532767559292	 -0.717117331052	 
64.5	 0.363844575009	 -0.796162050493	 
64.5	 0.18320318353	 -0.822514873789	 
64.5	 -0.00329894056084	 -0.822514873789	 
64.5	 -0.189801064652	 -0.822514873789	 
64.5	 -0.374063920905	 -0.837212363934	 
64.5	 -0.552104034017	 -0.892752983425	 
64.5	 -0.730144147129	 -0.948293602917	 
64.5	 -0.913690806354	 -0.98114071198	 
65.0	 -1.24531151744	 -0.59425038072	 
65.0	 -1.11749506101	 -0.458303056074	 
65.0	 -0.989678604583	 -0.322355731427	 
65.0	 -0.894916339262	 -0.167255316993	 
65.0	 -0.840530087955	 0.0112407817932	 
65.0	 -0.786143836648	 0.189736880579	 
65.0	 -0.741309153261	 0.369015921437	 
65.0	 -0.765902084689	 0.553985944243	 
65.0	 -0.790495016117	 0.738955967049	 
65.0	 -0.803723810542	 0.923449691525	 
65.0	 -0.763739241594	 1.10571311588	 
65.0	 -0.723754672646	 1.28797654024	 
65.0	 -0.62044765348	 1.41235892436	 
65.0	 -0.442500450858	 1.4685150878	 
65.0	 -0.264553248236	 1.52467125123	 
65.0	 -0.0866060456139	 1.58082741467	 
65.0	 0.0913411570083	 1.63698357811	 
65.0	 0.270069771067	 1.67725812837	 
65.0	 0.452670158749	 1.63884172522	 
65.0	 0.635270546432	 1.60042532206	 
65.0	 0.80461594363	 1.52816205562	 
65.0	 0.964743389699	 1.43236058054	 
65.0	 1.12487083577	 1.33655910545	 
65.0	 1.28499828184	 1.24075763037	 
65.0	 1.40581300276	 1.09893092796	 
65.0	 1.52547198066	 0.955751143708	 
65.0	 1.60810457032	 0.792804944811	 
65.0	 1.66049010977	 0.613711458415	 
65.0	 1.71287564922	 0.434617972018	 
65.0	 1.76526118866	 0.255524485621	 
65.0	 1.76279090186	 0.0814165859172	 
65.0	 1.67897647176	 -0.085298329192	 
65.0	 1.59516204166	 -0.252013244301	 
65.0	 1.51134761156	 -0.41872815941	 
65.0	 1.42753318145	 -0.58544307452	 
65.0	 1.29250222283	 -0.70329375067	 
65.0	 1.1299091626	 -0.794848206477	 
65.0	 0.967316102374	 -0.886402662285	 
65.0	 0.804723042144	 -0.977957118092	 
65.0	 0.623696991711	 -1.01757895927	 
65.0	 0.439767084585	 -1.0490195521	 
65.0	 0.255837177458	 -1.08046014493	 
65.0	 0.0700030115423	 -1.08945903132	 
65.0	 -0.116594741963	 -1.08945903132	 
65.0	 -0.301129974306	 -1.1137658612	 
65.0	 -0.48225954617	 -1.12365223184	 
65.0	 -0.652049344782	 -1.04625619899	 
65.0	 -0.803271100945	 -0.937478815932	 
65.0	 -0.952842367509	 -0.825911984699	 
65.0	 -1.10105699354	 -0.712611497414	 
65.5	 -1.13107154944	 -0.610080992347	 
65.5	 -1.06331565781	 -0.428385152943	 
65.5	 -0.995559766189	 -0.246689313538	 
65.5	 -0.927803874565	 -0.064993474134	 
65.5	 -0.877480674766	 0.121297054114	 
65.5	 -0.846877461669	 0.312785127515	 
65.5	 -0.816274248571	 0.504273200916	 
65.5	 -0.785671035473	 0.695761274317	 
65.5	 -0.779807415028	 0.888346908627	 
65.5	 -0.793333208194	 1.08179274556	 
65.5	 -0.750580867827	 1.25165676939	 
65.5	 -0.603192077701	 1.37767574991	 
65.5	 -0.455803287576	 1.50369473043	 
65.5	 -0.30841449745	 1.62971371095	 
65.5	 -0.161025707324	 1.75573269148	 
65.5	 -0.0496584973307	 1.68001912839	 
65.5	 0.0450084054239	 1.5107784228	 
65.5	 0.139675308179	 1.34153771721	 
65.5	 0.234342210933	 1.17229701161	 
65.5	 0.386249734621	 1.10066158413	 
65.5	 0.580167858856	 1.10066158413	 
65.5	 0.77408598309	 1.10066158413	 
65.5	 0.96771650532	 1.10518433843	 
65.5	 1.16007265622	 1.12974752468	 
65.5	 1.35178229723	 1.15288720604	 
65.5	 1.45985740498	 0.991877858512	 
65.5	 1.56793251274	 0.830868510987	 
65.5	 1.67600762049	 0.669859163463	 
65.5	 1.69589755451	 0.486957924141	 
65.5	 1.67567027593	 0.294097622088	 
65.5	 1.65544299735	 0.101237320035	 
65.5	 1.63521571877	 -0.0916229820185	 
65.5	 1.60194755591	 -0.281260069321	 
65.5	 1.52999886807	 -0.461336789704	 
65.5	 1.45805018022	 -0.641413510086	 
65.5	 1.38610149237	 -0.821490230469	 
65.5	 1.30290901328	 -0.988359728678	 
65.5	 1.11365873701	 -1.03065123891	 
65.5	 0.924408460736	 -1.07294274914	 
65.5	 0.735158184464	 -1.11523425937	 
65.5	 0.545907908192	 -1.1575257696	 
65.5	 0.356473471329	 -1.19814875301	 
65.5	 0.162555347094	 -1.19814875301	 
65.5	 -0.0313627771404	 -1.19814875301	 
65.5	 -0.225280901375	 -1.19814875301	 
65.5	 -0.411590640664	 -1.15012896323	 
65.5	 -0.595882478802	 -1.08985016203	 
65.5	 -0.772922917569	 -1.01072417421	 
65.5	 -0.947068221395	 -0.925547301737	 
65.5	 -1.06937145431	 -0.793921513363	 
66.0	 -1.07429565007	 -0.710844593376	 
66.0	 -1.00296323471	 -0.539038263427	 
66.0	 -0.931630819347	 -0.367231933478	 
66.0	 -0.860298403987	 -0.195425603528	 
66.0	 -0.788965988628	 -0.0236192735787	 
66.0	 -0.741775567902	 0.152999662507	 
66.0	 -0.741775567902	 0.339025812528	 
66.0	 -0.741775567902	 0.525051962549	 
66.0	 -0.741775567902	 0.711078112571	 
66.0	 -0.741775567902	 0.897104262592	 
66.0	 -0.741775567902	 1.08313041261	 
66.0	 -0.741775567902	 1.26915656263	 
66.0	 -0.672392228879	 1.40064935157	 
66.0	 -0.491633563589	 1.44460425362	 
66.0	 -0.3108748983	 1.48855915567	 
66.0	 -0.13011623301	 1.53251405773	 
66.0	 0.0430599410495	 1.54633960356	 
66.0	 0.181479645474	 1.42205881696	 
66.0	 0.319899349898	 1.29777803035	 
66.0	 0.458319054322	 1.17349724375	 
66.0	 0.596738758746	 1.04921645714	 
66.0	 0.747836195278	 0.941493291492	 
66.0	 0.903919042211	 0.840281269553	 
66.0	 1.06000188914	 0.739069247613	 
66.0	 1.21431377816	 0.635709508354	 
66.0	 1.34340992269	 0.501769544346	 
66.0	 1.47250606722	 0.367829580338	 
66.0	 1.60160221176	 0.23388961633	 
66.0	 1.68821384547	 0.080222273664	 
66.0	 1.70723875825	 -0.104828479334	 
66.0	 1.72626367104	 -0.289879232332	 
66.0	 1.74528858383	 -0.47492998533	 
66.0	 1.76431349661	 -0.659980738329	 
66.0	 1.70647045738	 -0.79495431558	 
66.0	 1.52951299803	 -0.852328404437	 
66.0	 1.35255553868	 -0.909702493294	 
66.0	 1.17559807933	 -0.967076582152	 
66.0	 0.998640619984	 -1.02445067101	 
66.0	 0.821683160635	 -1.08182475987	 
66.0	 0.644725701285	 -1.13919884872	 
66.0	 0.467768241935	 -1.19657293758	 
66.0	 0.284096872325	 -1.22366903578	 
66.0	 0.0994736798138	 -1.24647266002	 
66.0	 -0.0851495126973	 -1.26927628427	 
66.0	 -0.269772705208	 -1.29207990851	 
66.0	 -0.45439589772	 -1.31488353276	 
66.0	 -0.625530601822	 -1.2790759674	 
66.0	 -0.781613448755	 -1.17786394546	 
66.0	 -0.894805702908	 -1.03673763233	 
66.0	 -0.984550676487	 -0.873791112851	 
66.5	 -1.36774002408	 -0.710635442815	 
66.5	 -1.27459895633	 -0.552155452587	 
66.5	 -1.18145788858	 -0.393675462358	 
66.5	 -1.08831682083	 -0.23519547213	 
66.5	 -0.995175753082	 -0.0767154819011	 
66.5	 -0.902034685332	 0.0817645083275	 
66.5	 -0.808893617583	 0.240244498556	 
66.5	 -0.715752549834	 0.398724488784	 
66.5	 -0.622611482085	 0.557204479013	 
66.5	 -0.559167333876	 0.725562592428	 
66.5	 -0.538823109522	 0.90825708698	 
66.5	 -0.518478885168	 1.09095158153	 
66.5	 -0.498134660814	 1.27364607608	 
66.5	 -0.47779043646	 1.45634057064	 
66.5	 -0.4319823933	 1.61761656192	 
66.5	 -0.255473172448	 1.66895524868	 
66.5	 -0.078963951596	 1.72029393544	 
66.5	 0.0975452692562	 1.7716326222	 
66.5	 0.265605666833	 1.78323366572	 
66.5	 0.405960240832	 1.66452494927	 
66.5	 0.546314814831	 1.54581623282	 
66.5	 0.686669388831	 1.42710751636	 
66.5	 0.82702396283	 1.30839879991	 
66.5	 0.967378536829	 1.18969008346	 
66.5	 1.10773311083	 1.07098136701	 
66.5	 1.24713557447	 0.951632780838	 
66.5	 1.30403255778	 0.77683604433	 
66.5	 1.3609295411	 0.602039307822	 
66.5	 1.41782652441	 0.427242571313	 
66.5	 1.47472350773	 0.252445834805	 
66.5	 1.53162049104	 0.0776490982969	 
66.5	 1.58851747436	 -0.0971476382113	 
66.5	 1.64541445767	 -0.271944374719	 
66.5	 1.60518155434	 -0.422000157272	 
66.5	 1.47159504836	 -0.548276882065	 
66.5	 1.33800854238	 -0.674553606857	 
66.5	 1.17106458821	 -0.73626218714	 
66.5	 0.990776219639	 -0.772140731726	 
66.5	 0.810487851066	 -0.808019276312	 
66.5	 0.630199482493	 -0.843897820898	 
66.5	 0.44991111392	 -0.879776365484	 
66.5	 0.269360400093	 -0.910920686613	 
66.5	 0.0862116746896	 -0.895181875119	 
66.5	 -0.0969370507142	 -0.879443063624	 
66.5	 -0.280085776118	 -0.86370425213	 
66.5	 -0.458190956146	 -0.819399215735	 
66.5	 -0.635656156445	 -0.771469386951	 
66.5	 -0.817720960552	 -0.750629467319	 
66.5	 -1.00106064839	 -0.737298125818	 
66.5	 -1.18440033624	 -0.723966784316	 
67.0	 -1.09290483674	 -0.648744984087	 
67.0	 -1.02053232447	 -0.4826753323	 
67.0	 -0.948159812191	 -0.316605680513	 
67.0	 -0.875787299914	 -0.150536028726	 
67.0	 -0.803414787638	 0.0155336230607	 
67.0	 -0.775408707731	 0.193984213703	 
67.0	 -0.751332995705	 0.373531616547	 
67.0	 -0.727257283678	 0.553079019392	 
67.0	 -0.703181571652	 0.732626422237	 
67.0	 -0.679373276894	 0.912191674345	 
67.0	 -0.679373276894	 1.09334605541	 
67.0	 -0.573599699767	 1.23487422797	 
67.0	 -0.454572500314	 1.37143716426	 
67.0	 -0.335545300862	 1.50800010055	 
67.0	 -0.216518101409	 1.64456303684	 
67.0	 -0.0429858441603	 1.62684306356	 
67.0	 0.135410759368	 1.59535399201	 
67.0	 0.313807362897	 1.56386492045	 
67.0	 0.492203966426	 1.5323758489	 
67.0	 0.64944317998	 1.45271407604	 
67.0	 0.793332238755	 1.34265568907	 
67.0	 0.937221297529	 1.2325973021	 
67.0	 1.0811103563	 1.12253891513	 
67.0	 1.22499941508	 1.01248052815	 
67.0	 1.31980429981	 0.863979755395	 
67.0	 1.39217681208	 0.697910103608	 
67.0	 1.46454932436	 0.531840451821	 
67.0	 1.53692183664	 0.365770800034	 
67.0	 1.60929434891	 0.199701148247	 
67.0	 1.68166686119	 0.0336314964605	 
67.0	 1.66836867491	 -0.146441261864	 
67.0	 1.652639033	 -0.326911448164	 
67.0	 1.63690939109	 -0.507381634465	 
67.0	 1.58961734007	 -0.666577445955	 
67.0	 1.42823352777	 -0.748870671103	 
67.0	 1.26684971547	 -0.831163896252	 
67.0	 1.10546590317	 -0.9134571214	 
67.0	 0.930520162508	 -0.959085042652	 
67.0	 0.75442975621	 -1.00161830714	 
67.0	 0.578339349912	 -1.04415157162	 
67.0	 0.402248943614	 -1.0866848361	 
67.0	 0.226158537316	 -1.12921810059	 
67.0	 0.0500681310178	 -1.17175136507	 
67.0	 -0.128796952814	 -1.19097959765	 
67.0	 -0.309951333876	 -1.19097959765	 
67.0	 -0.491105714937	 -1.19097959765	 
67.0	 -0.672260095999	 -1.19097959765	 
67.0	 -0.822730579188	 -1.09229310803	 
67.0	 -0.971946990835	 -0.989573235204	 
67.0	 -1.03326817449	 -0.819801636378	 
67.5	 -1.1858296222	 -0.885081503001	 
67.5	 -1.10776799391	 -0.714369546369	 
67.5	 -1.02970636562	 -0.543657589737	 
67.5	 -0.951644737334	 -0.372945633106	 
67.5	 -0.873583109044	 -0.202233676474	 
67.5	 -0.79650918559	 -0.0311824744329	 
67.5	 -0.753202433524	 0.151466684267	 
67.5	 -0.709895681458	 0.334115842967	 
67.5	 -0.668376696151	 0.516974046676	 
67.5	 -0.668376696151	 0.704687098829	 
67.5	 -0.668376696151	 0.892400150981	 
67.5	 -0.668376696151	 1.08011320313	 
67.5	 -0.617314859598	 1.25901635023	 
67.5	 -0.554413523017	 1.43587678052	 
67.5	 -0.400995991735	 1.51151608615	 
67.5	 -0.218232835759	 1.55433919634	 
67.5	 -0.0354696797834	 1.59716230652	 
67.5	 0.147293476192	 1.63998541671	 
67.5	 0.330056632168	 1.6828085269	 
67.5	 0.512819788144	 1.72563163708	 
67.5	 0.695582944119	 1.76845474727	 
67.5	 0.847339306399	 1.6953863435	 
67.5	 0.984300915094	 1.56702081973	 
67.5	 1.12126252379	 1.43865529596	 
67.5	 1.25822413248	 1.3102897722	 
67.5	 1.3817394545	 1.17043368713	 
67.5	 1.48718384561	 1.01513503828	 
67.5	 1.59262823671	 0.859836389437	 
67.5	 1.69807262782	 0.704537740592	 
67.5	 1.79216743373	 0.545078334075	 
67.5	 1.81208273356	 0.35842472232	 
67.5	 1.83199803339	 0.171771110566	 
67.5	 1.85191333321	 -0.0148825011889	 
67.5	 1.7206830473	 -0.135170306342	 
67.5	 1.56978595891	 -0.246822707399	 
67.5	 1.41888887051	 -0.358475108456	 
67.5	 1.26799178211	 -0.470127509513	 
67.5	 1.11709469372	 -0.58177991057	 
67.5	 0.966197605321	 -0.693432311628	 
67.5	 0.815300516925	 -0.805084712685	 
67.5	 0.664403428529	 -0.916737113742	 
67.5	 0.486241682851	 -0.945703523754	 
67.5	 0.298528630699	 -0.945703523754	 
67.5	 0.111871252198	 -0.957065286831	 
67.5	 -0.0726284416962	 -0.991649284591	 
67.5	 -0.258977855055	 -1.00632554451	 
67.5	 -0.446690907207	 -1.00632554451	 
67.5	 -0.63188856131	 -0.984564044072	 
67.5	 -0.814901636295	 -0.943022758273	 
67.5	 -1.00036562925	 -0.914052130637	 
68.0	 -1.11507591135	 -0.963323950908	 
68.0	 -0.942994927363	 -1.00340167387	 
68.0	 -0.77091394338	 -1.04347939684	 
68.0	 -0.598832959398	 -1.08355711981	 
68.0	 -0.426751975415	 -1.12363484277	 
68.0	 -0.254670991432	 -1.16371256574	 
68.0	 -0.0825900074498	 -1.2037902887	 
68.0	 0.0894909765328	 -1.24386801167	 
68.0	 0.261979219344	 -1.22514091991	 
68.0	 0.434598794949	 -1.18745045633	 
68.0	 0.607218370553	 -1.14975999275	 
68.0	 0.779837946158	 -1.11206952918	 
68.0	 0.952457521763	 -1.0743790656	 
68.0	 1.12507709737	 -1.03668860202	 
68.0	 1.21780599085	 -0.887626152928	 
68.0	 1.30883457112	 -0.73619337411	 
68.0	 1.39986315139	 -0.584760595292	 
68.0	 1.46760173277	 -0.431745458157	 
68.0	 1.39789227913	 -0.269391890289	 
68.0	 1.32818282549	 -0.107038322421	 
68.0	 1.25847337185	 0.0553152454467	 
68.0	 1.17151552962	 0.208161761102	 
68.0	 1.07146811605	 0.353793502028	 
68.0	 0.971420702481	 0.499425242953	 
68.0	 0.871373288914	 0.645056983879	 
68.0	 0.771325875346	 0.790688724805	 
68.0	 0.671278461779	 0.93632046573	 
68.0	 0.582475310151	 1.08867483779	 
68.0	 0.501549396346	 1.24573879101	 
68.0	 0.420623482542	 1.40280274423	 
68.0	 0.339697568737	 1.55986669745	 
68.0	 0.174571443808	 1.5959106969	 
68.0	 -0.000829238719558	 1.61718719791	 
68.0	 -0.176229921247	 1.63846369893	 
68.0	 -0.315460445857	 1.57962293958	 
68.0	 -0.415507859425	 1.43399119865	 
68.0	 -0.515555272992	 1.28835945772	 
68.0	 -0.615602686559	 1.1427277168	 
68.0	 -0.715650100127	 0.997095975874	 
68.0	 -0.815697513694	 0.851464234948	 
68.0	 -0.915744927261	 0.705832494022	 
68.0	 -1.01579234083	 0.560200753097	 
68.0	 -1.1158397544	 0.414569012171	 
68.0	 -1.21479814732	 0.268599239716	 
68.0	 -1.21479814732	 0.0919128256191	 
68.0	 -1.20136253062	 -0.0841158740009	 
68.0	 -1.18410520676	 -0.259957489382	 
68.0	 -1.16684788291	 -0.435799104764	 
68.0	 -1.14959055905	 -0.611640720145	 
68.0	 -1.1323332352	 -0.787482335526	 
68.5	 -0.844294349574	 -1.17527783626	 
68.5	 -0.861889696541	 -0.994321041616	 
68.5	 -0.879485043507	 -0.813364246969	 
68.5	 -0.897080390473	 -0.632407452322	 
68.5	 -0.91467573744	 -0.451450657675	 
68.5	 -0.932363296957	 -0.270503824428	 
68.5	 -0.953819159041	 -0.0899640677377	 
68.5	 -0.975275021125	 0.090575688953	 
68.5	 -0.996730883209	 0.271115445644	 
68.5	 -1.01818674529	 0.451655202334	 
68.5	 -1.03964260738	 0.632194959025	 
68.5	 -1.06109846946	 0.812734715716	 
68.5	 -1.08255433155	 0.993274472406	 
68.5	 -1.10401019363	 1.1738142291	 
68.5	 -0.963456298934	 1.26180574776	 
68.5	 -0.797040974622	 1.3350238985	 
68.5	 -0.630625650311	 1.40824204924	 
68.5	 -0.464210325999	 1.48146019998	 
68.5	 -0.294190930107	 1.50779743297	 
68.5	 -0.118539646369	 1.46087638988	 
68.5	 0.0571116373684	 1.41395534678	 
68.5	 0.232762921106	 1.36703430369	 
68.5	 0.408414204843	 1.32011326059	 
68.5	 0.584065488581	 1.2731922175	 
68.5	 0.759716772319	 1.2262711744	 
68.5	 0.937903550919	 1.19866644992	 
68.5	 1.1197137755	 1.19866644992	 
68.5	 1.30152400009	 1.19866644992	 
68.5	 1.46543536803	 1.1597939372	 
68.5	 1.58363845224	 1.02165274621	 
68.5	 1.70184153644	 0.883511555216	 
68.5	 1.76470792889	 0.734231428509	 
68.5	 1.70915908069	 0.561115042145	 
68.5	 1.65361023249	 0.387998655781	 
68.5	 1.5980613843	 0.214882269417	 
68.5	 1.5425125361	 0.0417658830534	 
68.5	 1.42738459779	 -0.0837646365367	 
68.5	 1.2708305748	 -0.176208109262	 
68.5	 1.11427655181	 -0.268651581987	 
68.5	 0.957722528825	 -0.361095054712	 
68.5	 0.801168505836	 -0.453538527437	 
68.5	 0.644614482846	 -0.545982000162	 
68.5	 0.488060459856	 -0.638425472887	 
68.5	 0.331506436867	 -0.730868945612	 
68.5	 0.174952413877	 -0.823312418337	 
68.5	 0.0183983908876	 -0.915755891063	 
68.5	 -0.138155632102	 -1.00819936379	 
68.5	 -0.314450022429	 -1.05143449176	 
68.5	 -0.491488549535	 -1.09281465227	 
68.5	 -0.668643065837	 -1.12835679317	 
69.0	 -1.01821859561	 -0.400596372401	 
69.0	 -0.926837005621	 -0.241263042279	 
69.0	 -0.835455415628	 -0.081929712157	 
69.0	 -0.760437112281	 0.0831228627799	 
69.0	 -0.732668264271	 0.264689919697	 
69.0	 -0.704899416262	 0.446256976614	 
69.0	 -0.677130568252	 0.627824033531	 
69.0	 -0.651122810502	 0.80964694972	 
69.0	 -0.626076404364	 0.991609535481	 
69.0	 -0.527828742331	 1.13402924954	 
69.0	 -0.389377572967	 1.25473127429	 
69.0	 -0.250926403602	 1.37543329904	 
69.0	 -0.111349862722	 1.49313193349	 
69.0	 0.0723284023975	 1.49313193349	 
69.0	 0.256006667517	 1.49313193349	 
69.0	 0.436750476751	 1.46854672945	 
69.0	 0.615268717041	 1.42531545649	 
69.0	 0.79378695733	 1.38208418353	 
69.0	 0.96838008156	 1.32908353294	 
69.0	 1.12718464178	 1.23678609673	 
69.0	 1.285989202	 1.14448866052	 
69.0	 1.4394305129	 1.04842882125	 
69.0	 1.47216450506	 0.867690914776	 
69.0	 1.50489849721	 0.686953008307	 
69.0	 1.53763248937	 0.506215101838	 
69.0	 1.57036648153	 0.325477195369	 
69.0	 1.60310047368	 0.1447392889	 
69.0	 1.63583446584	 -0.0359986175693	 
69.0	 1.66856845799	 -0.216736524038	 
69.0	 1.67283469007	 -0.396814757462	 
69.0	 1.61259212684	 -0.561982357281	 
69.0	 1.4554661454	 -0.65710927794	 
69.0	 1.29834016396	 -0.752236198599	 
69.0	 1.14121418252	 -0.847363119258	 
69.0	 0.978544221341	 -0.930674966597	 
69.0	 0.8049600569	 -0.990726968499	 
69.0	 0.631375892458	 -1.0507789704	 
69.0	 0.457791728017	 -1.1108309723	 
69.0	 0.284207563575	 -1.17088297421	 
69.0	 0.110623399134	 -1.23093497611	 
69.0	 -0.0657110692471	 -1.27462482128	 
69.0	 -0.249389334367	 -1.27462482128	 
69.0	 -0.433067599486	 -1.27462482128	 
69.0	 -0.616745864606	 -1.27462482128	 
69.0	 -0.800424129725	 -1.27462482128	 
69.0	 -0.933751505002	 -1.17884869198	 
69.0	 -1.0378854819	 -1.02754165337	 
69.0	 -1.1420194588	 -0.876234614761	 
69.0	 -1.19539877795	 -0.722400665871	 
69.0	 -1.10680868678	 -0.561498519136	 
69.5	 -1.30723189889	 -0.454605943884	 
69.5	 -1.13217624668	 -0.376776459484	 
69.5	 -1.02195383985	 -0.244485898346	 
69.5	 -0.975504644955	 -0.0586247073819	 
69.5	 -0.936026749495	 0.128759508315	 
69.5	 -0.9007330464	 0.317057847487	 
69.5	 -0.868381713132	 0.505753436953	 
69.5	 -0.852477549474	 0.696669564065	 
69.5	 -0.836573385815	 0.887585691176	 
69.5	 -0.836833311957	 1.07816879263	 
69.5	 -0.860587458764	 1.26826784713	 
69.5	 -0.775945895262	 1.40417627299	 
69.5	 -0.609624304304	 1.49925013057	 
69.5	 -0.443302713345	 1.59432398814	 
69.5	 -0.276981122386	 1.68939784571	 
69.5	 -0.116878846491	 1.60392534198	 
69.5	 0.0425062033001	 1.49763180542	 
69.5	 0.20613432988	 1.40102015443	 
69.5	 0.392315287945	 1.35586972955	 
69.5	 0.57849624601	 1.31071930467	 
69.5	 0.756072827756	 1.24205920171	 
69.5	 0.927413004854	 1.15635941335	 
69.5	 1.08564312739	 1.05062090961	 
69.5	 1.23279607274	 0.927950943082	 
69.5	 1.36356466378	 0.79475539238	 
69.5	 1.41395575884	 0.609923989334	 
69.5	 1.46434685389	 0.425092586288	 
69.5	 1.51473794895	 0.240261183242	 
69.5	 1.53970361711	 0.0510522689596	 
69.5	 1.55402674513	 -0.139988977939	 
69.5	 1.56834987315	 -0.331030224838	 
69.5	 1.54065251071	 -0.518135456253	 
69.5	 1.49110054627	 -0.703193589912	 
69.5	 1.44154858183	 -0.88825172357	 
69.5	 1.39199661739	 -1.07330985723	 
69.5	 1.30801085301	 -1.22390187042	 
69.5	 1.12241998528	 -1.26957025792	 
69.5	 0.930842559647	 -1.26957025792	 
69.5	 0.739265134012	 -1.26957025792	 
69.5	 0.547687708376	 -1.26957025792	 
69.5	 0.357943619389	 -1.24469367851	 
69.5	 0.168435977842	 -1.21660873934	 
69.5	 -0.0147561125264	 -1.16208631242	 
69.5	 -0.196496115027	 -1.10148530993	 
69.5	 -0.37478144517	 -1.03145650736	 
69.5	 -0.55264811297	 -0.960285175361	 
69.5	 -0.731465305482	 -0.89160316857	 
69.5	 -0.911501219814	 -0.826112867275	 
69.5	 -1.09153713415	 -0.76062256598	 
69.5	 -1.20869124664	 -0.618897300525	 
70.0	 -1.32971090469	 -0.776653351705	 
70.0	 -1.16795875816	 -0.678312753746	 
70.0	 -1.04863262461	 -0.540474965479	 
70.0	 -0.962093872638	 -0.372113228373	 
70.0	 -0.875555120663	 -0.203751491268	 
70.0	 -0.801740210335	 -0.0313769455353	 
70.0	 -0.776033553855	 0.156169843099	 
70.0	 -0.750326897376	 0.343716631734	 
70.0	 -0.749051120984	 0.532929974639	 
70.0	 -0.749051120984	 0.722230344724	 
70.0	 -0.749051120984	 0.91153071481	 
70.0	 -0.770400614286	 1.09958124096	 
70.0	 -0.792488991801	 1.28758851128	 
70.0	 -0.754137087615	 1.44788623129	 
70.0	 -0.597273796312	 1.55385102712	 
70.0	 -0.440410505009	 1.65981582296	 
70.0	 -0.283371590275	 1.76487412363	 
70.0	 -0.0982843208621	 1.72515847412	 
70.0	 0.0868029485511	 1.68544282462	 
70.0	 0.271890217964	 1.64572717511	 
70.0	 0.456977487377	 1.60601152561	 
70.0	 0.642064756791	 1.5662958761	 
70.0	 0.811448754865	 1.48712881777	 
70.0	 0.973200901397	 1.38878821982	 
70.0	 1.13495304793	 1.29044762186	 
70.0	 1.29670519446	 1.1921070239	 
70.0	 1.4045439358	 1.06074290999	 
70.0	 1.41865746352	 0.871969399008	 
70.0	 1.43277099124	 0.683195888023	 
70.0	 1.44688451895	 0.494422377037	 
70.0	 1.45745605711	 0.305516643303	 
70.0	 1.45745605711	 0.116216273217	 
70.0	 1.43813396224	 -0.0704836283462	 
70.0	 1.3880864161	 -0.25304833808	 
70.0	 1.33803886997	 -0.435613047814	 
70.0	 1.28799132383	 -0.618177757548	 
70.0	 1.15011224642	 -0.743375408308	 
70.0	 0.982598478581	 -0.827910044037	 
70.0	 0.807160805158	 -0.899017377402	 
70.0	 0.631723131734	 -0.970124710767	 
70.0	 0.44879742613	 -1.01636747504	 
70.0	 0.263268543399	 -1.05396619558	 
70.0	 0.0768939864026	 -1.08707007712	 
70.0	 -0.109613479059	 -1.11946753753	 
70.0	 -0.298033664796	 -1.12967760248	 
70.0	 -0.487334034881	 -1.12967760248	 
70.0	 -0.673987321147	 -1.11469665591	 
70.0	 -0.851825008232	 -1.04982457281	 
70.0	 -1.02966269532	 -0.984952489698	 
70.0	 -1.2075003824	 -0.920080406591	 
70.5	 -1.20596102237	 -0.414644214431	 
70.5	 -1.09774117675	 -0.263149992564	 
70.5	 -0.989521331139	 -0.111655770696	 
70.5	 -0.914813239086	 0.0566786313783	 
70.5	 -0.857836614736	 0.233923373251	 
70.5	 -0.800859990386	 0.411168115124	 
70.5	 -0.761659593073	 0.591199779473	 
70.5	 -0.761659593073	 0.777377206257	 
70.5	 -0.744279327703	 0.961513896967	 
70.5	 -0.701153160675	 1.14262758491	 
70.5	 -0.658026993648	 1.32374127286	 
70.5	 -0.557196258959	 1.45781010039	 
70.5	 -0.388482713112	 1.53653604079	 
70.5	 -0.219769167264	 1.61526198119	 
70.5	 -0.0432003376314	 1.65857685773	 
70.5	 0.142977089152	 1.65857685773	 
70.5	 0.329154515936	 1.65857685773	 
70.5	 0.50953766289	 1.63047761105	 
70.5	 0.680527755993	 1.55682693349	 
70.5	 0.851517849096	 1.48317625594	 
70.5	 1.0225079422	 1.40952557838	 
70.5	 1.1934980353	 1.33587490083	 
70.5	 1.31831016659	 1.2119376767	 
70.5	 1.40623324926	 1.04782928028	 
70.5	 1.49415633193	 0.883720883853	 
70.5	 1.58207941461	 0.719612487428	 
70.5	 1.67000249728	 0.555504091003	 
70.5	 1.70466170001	 0.380744293178	 
70.5	 1.68661134903	 0.195443944895	 
70.5	 1.66856099806	 0.0101435966124	 
70.5	 1.65051064709	 -0.17515675167	 
70.5	 1.59651060269	 -0.353278319002	 
70.5	 1.54200935216	 -0.531299800667	 
70.5	 1.43003686303	 -0.671490430686	 
70.5	 1.28806955513	 -0.791936757876	 
70.5	 1.14610224724	 -0.912383085067	 
70.5	 1.00413493935	 -1.03282941226	 
70.5	 0.862167631457	 -1.15327573945	 
70.5	 0.6875237325	 -1.18469775552	 
70.5	 0.501346305717	 -1.18469775552	 
70.5	 0.315168878933	 -1.18469775552	 
70.5	 0.128991452149	 -1.18469775552	 
70.5	 -0.051740011347	 -1.1488573414	 
70.5	 -0.22951419317	 -1.09355476893	 
70.5	 -0.408359813807	 -1.04196304553	 
70.5	 -0.58825201755	 -0.993996085269	 
70.5	 -0.767357918627	 -0.944212897007	 
70.5	 -0.92543704155	 -0.845861358433	 
70.5	 -1.08351616447	 -0.747509819859	 
70.5	 -1.16694809693	 -0.596688236285	 
71.0	 -1.15126123194	 -0.330700749539	 
71.0	 -1.07023441566	 -0.165971340258	 
71.0	 -0.989207599382	 -0.00124193097754	 
71.0	 -0.908180783104	 0.163487478303	 
71.0	 -0.827153966825	 0.328216887584	 
71.0	 -0.746127150547	 0.492946296864	 
71.0	 -0.665100334269	 0.657675706145	 
71.0	 -0.597852914673	 0.828365822245	 
71.0	 -0.53328261741	 1.00021401092	 
71.0	 -0.468712320147	 1.17206219959	 
71.0	 -0.404142022884	 1.34391038826	 
71.0	 -0.284470225516	 1.46471651151	 
71.0	 -0.118055750991	 1.54222358156	 
71.0	 0.0483587235332	 1.6197306516	 
71.0	 0.214773198058	 1.69723772165	 
71.0	 0.381187672583	 1.77474479169	 
71.0	 0.547602147107	 1.85225186174	 
71.0	 0.714016621632	 1.92975893178	 
71.0	 0.880431096157	 2.00726600182	 
71.0	 1.02420509994	 2.03281376453	 
71.0	 1.08074363785	 1.858158341	 
71.0	 1.13728217576	 1.68350291747	 
71.0	 1.19382071368	 1.50884749394	 
71.0	 1.25035925159	 1.33419207041	 
71.0	 1.30689778951	 1.15953664688	 
71.0	 1.36343632742	 0.984881223351	 
71.0	 1.3968113612	 0.807357884714	 
71.0	 1.38457588913	 0.624187427322	 
71.0	 1.37234041706	 0.441016969929	 
71.0	 1.36010494499	 0.257846512537	 
71.0	 1.34786947292	 0.0746760551441	 
71.0	 1.29547765333	 -0.100084638486	 
71.0	 1.23318734789	 -0.272772336618	 
71.0	 1.15979379415	 -0.437189941444	 
71.0	 1.01217485834	 -0.546321848007	 
71.0	 0.864555922537	 -0.65545375457	 
71.0	 0.716936986732	 -0.764585661133	 
71.0	 0.551877301909	 -0.842155877631	 
71.0	 0.380925634478	 -0.909063654763	 
71.0	 0.209973967047	 -0.975971431894	 
71.0	 0.0390222996153	 -1.04287920903	 
71.0	 -0.131929367816	 -1.10978698616	 
71.0	 -0.305386656086	 -1.15549763665	 
71.0	 -0.48722667128	 -1.13029184144	 
71.0	 -0.669066686475	 -1.10508604623	 
71.0	 -0.850906701669	 -1.07988025102	 
71.0	 -1.02063940681	 -1.0183826544	 
71.0	 -1.10413557502	 -0.879416779561	 
71.0	 -1.11984412732	 -0.69651143622	 
71.0	 -1.13555267963	 -0.513606092879	 
71.5	 -0.953636704097	 -0.167649643038	 
71.5	 -0.928109065512	 0.00849521852901	 
71.5	 -0.902581426928	 0.184640080096	 
71.5	 -0.877053788344	 0.360784941662	 
71.5	 -0.851526149759	 0.536929803229	 
71.5	 -0.825998511175	 0.713074664796	 
71.5	 -0.800470872591	 0.889219526362	 
71.5	 -0.692596128307	 1.02371586311	 
71.5	 -0.565841029656	 1.1486631222	 
71.5	 -0.439085931004	 1.27361038129	 
71.5	 -0.281890827919	 1.34735318109	 
71.5	 -0.11156774296	 1.39901282993	 
71.5	 0.0587553419997	 1.45067247877	 
71.5	 0.229078426959	 1.50233212761	 
71.5	 0.399401511918	 1.55399177644	 
71.5	 0.569724596877	 1.60565142528	 
71.5	 0.74071739801	 1.59019711408	 
71.5	 0.912037465086	 1.54194665081	 
71.5	 1.08335753216	 1.49369618755	 
71.5	 1.21229660311	 1.39529063908	 
71.5	 1.28845469031	 1.23442231298	 
71.5	 1.36461277752	 1.07355398688	 
71.5	 1.44077086473	 0.912685660787	 
71.5	 1.51692895193	 0.751817334691	 
71.5	 1.59308703914	 0.590949008595	 
71.5	 1.66924512635	 0.430080682499	 
71.5	 1.72043389989	 0.267761601733	 
71.5	 1.66341876011	 0.0991557108988	 
71.5	 1.60640362033	 -0.0694501799354	 
71.5	 1.52026647687	 -0.219825104546	 
71.5	 1.39351137821	 -0.344772363635	 
71.5	 1.26675627956	 -0.469719622724	 
71.5	 1.14000118091	 -0.594666881813	 
71.5	 1.01324608226	 -0.719614140902	 
71.5	 0.886490983607	 -0.844561399991	 
71.5	 0.725404556185	 -0.913240547175	 
71.5	 0.556313511031	 -0.96880034412	 
71.5	 0.387222465876	 -1.02436014107	 
71.5	 0.218131420722	 -1.07991993801	 
71.5	 0.0490403755675	 -1.13547973496	 
71.5	 -0.120050669587	 -1.1910395319	 
71.5	 -0.289141714741	 -1.24659932885	 
71.5	 -0.465402213008	 -1.25737232278	 
71.5	 -0.631609030619	 -1.21432117992	 
71.5	 -0.784805265103	 -1.12371441236	 
71.5	 -0.938001499586	 -1.0331076448	 
71.5	 -0.99292589387	 -0.868945002925	 
71.5	 -1.03021961985	 -0.696084227738	 
71.5	 -1.00469198127	 -0.519939366171	 
71.5	 -0.979164342681	 -0.343794504604	 
72.0	 -1.08201433333	 -0.302759844099	 
72.0	 -1.03648190608	 -0.129347647002	 
72.0	 -0.990949478827	 0.0440645500948	 
72.0	 -0.938461920043	 0.215102520408	 
72.0	 -0.86845339424	 0.380159475269	 
72.0	 -0.798444868438	 0.545216430131	 
72.0	 -0.728436342636	 0.710273384992	 
72.0	 -0.658427816834	 0.875330339854	 
72.0	 -0.588419291031	 1.04038729472	 
72.0	 -0.456536735759	 1.16148688179	 
72.0	 -0.323721086594	 1.28192356793	 
72.0	 -0.190905437429	 1.40236025408	 
72.0	 -0.0580897882637	 1.52279694023	 
72.0	 0.0747258609012	 1.64323362638	 
72.0	 0.226075982427	 1.71563911656	 
72.0	 0.405366227653	 1.71563911656	 
72.0	 0.584656472879	 1.71563911656	 
72.0	 0.763946718105	 1.71563911656	 
72.0	 0.943236963331	 1.71563911656	 
72.0	 1.03642642481	 1.57121864858	 
72.0	 1.12168685398	 1.41349848103	 
72.0	 1.20694728315	 1.25577831349	 
72.0	 1.29220771231	 1.09805814594	 
72.0	 1.37746814148	 0.940337978393	 
72.0	 1.46272857065	 0.782617810846	 
72.0	 1.54798899982	 0.624897643299	 
72.0	 1.56518935724	 0.453411229361	 
72.0	 1.54792622084	 0.27495401837	 
72.0	 1.53066308444	 0.0964968073788	 
72.0	 1.51339994804	 -0.0819604036122	 
72.0	 1.49613681163	 -0.260417614603	 
72.0	 1.47887367523	 -0.438874825594	 
72.0	 1.46161053883	 -0.617332036585	 
72.0	 1.38032970655	 -0.759150571726	 
72.0	 1.22911762346	 -0.851895750484	 
72.0	 1.05664182837	 -0.900855858132	 
72.0	 0.884166033281	 -0.949815965779	 
72.0	 0.71169023819	 -0.998776073427	 
72.0	 0.539214443099	 -1.04773618107	 
72.0	 0.366738648008	 -1.09669628872	 
72.0	 0.194262852917	 -1.14565639637	 
72.0	 0.021787057826	 -1.19461650402	 
72.0	 -0.150688737265	 -1.24357661167	 
72.0	 -0.323679807049	 -1.19867588082	 
72.0	 -0.496682749987	 -1.151612373	 
72.0	 -0.660294804213	 -1.0920241642	 
72.0	 -0.753957804237	 -0.93914436024	 
72.0	 -0.847620804261	 -0.786264556277	 
72.0	 -0.932297805072	 -0.628589445732	 
72.0	 -1.0071560692	 -0.465674644916	 
72.5	 -1.10415215814	 0.236500194262	 
72.5	 -1.08775713069	 0.419866747907	 
72.5	 -1.07136210323	 0.603233301551	 
72.5	 -1.05496707577	 0.786599855196	 
72.5	 -0.961862257832	 0.942045185091	 
72.5	 -0.856551854021	 1.09304786311	 
72.5	 -0.75124145021	 1.24405054114	 
72.5	 -0.645931046399	 1.39505321916	 
72.5	 -0.540620642587	 1.54605589718	 
72.5	 -0.435310238776	 1.6970585752	 
72.5	 -0.292025339638	 1.7919984697	 
72.5	 -0.112730091177	 1.83377530299	 
72.5	 0.0542144824404	 1.8364800846	 
72.5	 0.176922494572	 1.69924002602	 
72.5	 0.299630506703	 1.56199996743	 
72.5	 0.422338518834	 1.42475990885	 
72.5	 0.545046530966	 1.28751985027	 
72.5	 0.667754543097	 1.15027979169	 
72.5	 0.790462555228	 1.0130397331	 
72.5	 0.879965289106	 0.852543736773	 
72.5	 0.966995235154	 0.690315877231	 
72.5	 1.07194796141	 0.540255450435	 
72.5	 1.19060741498	 0.399500258702	 
72.5	 1.30926686854	 0.258745066969	 
72.5	 1.42792632211	 0.117989875235	 
72.5	 1.54658577568	 -0.0227653164978	 
72.5	 1.58173441882	 -0.197697627495	 
72.5	 1.59580210744	 -0.381257399934	 
72.5	 1.60986979606	 -0.564817172374	 
72.5	 1.60095849347	 -0.737926935733	 
72.5	 1.45337024857	 -0.847971471668	 
72.5	 1.29243811814	 -0.927522332613	 
72.5	 1.11145746469	 -0.961257966565	 
72.5	 0.930476811241	 -0.994993600517	 
72.5	 0.749496157792	 -1.02872923447	 
72.5	 0.568515504343	 -1.06246486842	 
72.5	 0.387534850894	 -1.09620050237	 
72.5	 0.204323696459	 -1.1057982056	 
72.5	 0.0202256521435	 -1.1057982056	 
72.5	 -0.163872392172	 -1.1057982056	 
72.5	 -0.347970436488	 -1.1057982056	 
72.5	 -0.532068480804	 -1.1057982056	 
72.5	 -0.71616652512	 -1.1057982056	 
72.5	 -0.845046223852	 -1.01351295255	 
72.5	 -0.9320761699	 -0.851285093012	 
72.5	 -0.957890387895	 -0.672295570796	 
72.5	 -0.987142741945	 -0.490536417784	 
72.5	 -1.01639509599	 -0.308777264773	 
72.5	 -1.04564745004	 -0.127018111761	 
72.5	 -1.07489980409	 0.0547410412504	 
73.0	 -0.965112018884	 0.160333841949	 
73.0	 -0.965112018884	 0.347832488317	 
73.0	 -0.965112018884	 0.535331134686	 
73.0	 -0.951850457943	 0.721017502179	 
73.0	 -0.901544101416	 0.901641456524	 
73.0	 -0.85123774489	 1.08226541087	 
73.0	 -0.800931388363	 1.26288936521	 
73.0	 -0.750625031836	 1.44351331956	 
73.0	 -0.659766115408	 1.60409896527	 
73.0	 -0.546854490996	 1.75378766713	 
73.0	 -0.429380598709	 1.88620499684	 
73.0	 -0.257275254611	 1.81180410354	 
73.0	 -0.0851699105133	 1.73740321025	 
73.0	 0.0869354335845	 1.66300231695	 
73.0	 0.259040777682	 1.58860142366	 
73.0	 0.43114612178	 1.51420053037	 
73.0	 0.603251465878	 1.43979963707	 
73.0	 0.775356809976	 1.36539874378	 
73.0	 0.944915478758	 1.28581023862	 
73.0	 1.10903945454	 1.19515119072	 
73.0	 1.27316343031	 1.10449214283	 
73.0	 1.39074934394	 0.972884511786	 
73.0	 1.45978493795	 0.798557723398	 
73.0	 1.52882053196	 0.62423093501	 
73.0	 1.59785612597	 0.449904146622	 
73.0	 1.66689171998	 0.275577358234	 
73.0	 1.73592731399	 0.101250569845	 
73.0	 1.75200833405	 -0.080453006176	 
73.0	 1.73324538747	 -0.267010488539	 
73.0	 1.71448244088	 -0.453567970901	 
73.0	 1.6366316107	 -0.611488583578	 
73.0	 1.50182232797	 -0.741804352696	 
73.0	 1.36701304525	 -0.872120121814	 
73.0	 1.22935085163	 -0.997601212922	 
73.0	 1.05010263409	 -1.05260865695	 
73.0	 0.870854416543	 -1.10761610097	 
73.0	 0.691606199002	 -1.162623545	 
73.0	 0.51235798146	 -1.21763098902	 
73.0	 0.333109763918	 -1.27263843305	 
73.0	 0.15192545181	 -1.31473750398	 
73.0	 -0.0355731945584	 -1.31473750398	 
73.0	 -0.20787576162	 -1.2709497069	 
73.0	 -0.355065788526	 -1.15479963859	 
73.0	 -0.502255815433	 -1.03864957027	 
73.0	 -0.618441638704	 -0.895150597532	 
73.0	 -0.71531555043	 -0.734616527575	 
73.0	 -0.802827605853	 -0.569924213187	 
73.0	 -0.856988767093	 -0.390418472323	 
73.0	 -0.909172202201	 -0.210467596115	 
73.0	 -0.937142110542	 -0.0250668770829	 
73.5	 -0.850708041536	 -0.788006347314	 
73.5	 -0.789970173028	 -0.614592302252	 
73.5	 -0.729232304521	 -0.441178257189	 
73.5	 -0.668494436013	 -0.267764212127	 
73.5	 -0.607756567505	 -0.0943501670644	 
73.5	 -0.588340140875	 0.0860909709005	 
73.5	 -0.588340140875	 0.269834051575	 
73.5	 -0.588340140875	 0.45357713225	 
73.5	 -0.588340140875	 0.637320212924	 
73.5	 -0.586635638451	 0.820667883975	 
73.5	 -0.505739752576	 0.98564477734	 
73.5	 -0.424843866701	 1.1506216707	 
73.5	 -0.343947980827	 1.31559856407	 
73.5	 -0.187154863283	 1.38622985676	 
73.5	 -0.00867856392286	 1.42990742838	 
73.5	 0.169797735437	 1.473585	 
73.5	 0.348274034797	 1.51726257162	 
73.5	 0.526750334158	 1.56094014324	 
73.5	 0.700814171717	 1.51306471414	 
73.5	 0.874262867331	 1.4524258678	 
73.5	 1.04771156294	 1.39178702146	 
73.5	 1.22116025856	 1.33114817511	 
73.5	 1.39460895417	 1.27050932877	 
73.5	 1.56805764979	 1.20987048243	 
73.5	 1.7415063454	 1.14923163609	 
73.5	 1.81581807008	 0.994052355665	 
73.5	 1.86816037978	 0.817922283527	 
73.5	 1.92050268948	 0.641792211388	 
73.5	 1.97284499917	 0.46566213925	 
73.5	 2.02518730887	 0.289532067112	 
73.5	 2.07752961857	 0.113401994974	 
73.5	 2.09979119329	 -0.0482964943333	 
73.5	 1.92965591826	 -0.117690354907	 
73.5	 1.75952064322	 -0.18708421548	 
73.5	 1.58938536819	 -0.256478076053	 
73.5	 1.41925009316	 -0.325871936627	 
73.5	 1.24911481813	 -0.3952657972	 
73.5	 1.07897954309	 -0.464659657773	 
73.5	 0.90884426806	 -0.534053518347	 
73.5	 0.738708993028	 -0.60344737892	 
73.5	 0.568573717995	 -0.672841239493	 
73.5	 0.398438442962	 -0.742235100067	 
73.5	 0.228303167929	 -0.81162896064	 
73.5	 0.0581678928963	 -0.881022821213	 
73.5	 -0.114612486164	 -0.943427552927	 
73.5	 -0.288061181778	 -1.00406639927	 
73.5	 -0.461509877392	 -1.06470524561	 
73.5	 -0.619591300903	 -1.14728563531	 
73.5	 -0.711702279011	 -1.12818788233	 
73.5	 -0.781205160273	 -0.958097114823	 
74.0	 -1.34432926184	 -0.973193031757	 
74.0	 -1.21051139837	 -0.837364345522	 
74.0	 -1.07669353489	 -0.701535659287	 
74.0	 -0.94287567142	 -0.565706973052	 
74.0	 -0.809057807946	 -0.429878286817	 
74.0	 -0.675239944473	 -0.294049600581	 
74.0	 -0.627931742362	 -0.12683712454	 
74.0	 -0.64353353682	 0.0631977054223	 
74.0	 -0.659135331279	 0.253232535384	 
74.0	 -0.674737125738	 0.443267365346	 
74.0	 -0.669967091204	 0.631857077341	 
74.0	 -0.627695489575	 0.817786537849	 
74.0	 -0.585423887946	 1.00371599836	 
74.0	 -0.543152286317	 1.18964545886	 
74.0	 -0.500880684689	 1.37557491937	 
74.0	 -0.385097737817	 1.51419516218	 
74.0	 -0.233383009052	 1.62969102212	 
74.0	 -0.0454943063318	 1.62959304567	 
74.0	 0.144994491531	 1.62118647219	 
74.0	 0.335483289394	 1.61277989871	 
74.0	 0.525972087257	 1.60437332523	 
74.0	 0.71646088512	 1.59596675175	 
74.0	 0.906949682983	 1.58756017826	 
74.0	 1.09743848085	 1.57915360478	 
74.0	 1.28792727871	 1.5707470313	 
74.0	 1.35131958641	 1.39473551166	 
74.0	 1.41081091276	 1.21357968184	 
74.0	 1.47030223911	 1.03242385202	 
74.0	 1.52979356546	 0.851268022203	 
74.0	 1.58928489181	 0.670112192383	 
74.0	 1.6059061746	 0.486773014516	 
74.0	 1.56512726629	 0.300510476077	 
74.0	 1.52434835798	 0.114247937638	 
74.0	 1.46956211789	 -0.0656591720642	 
74.0	 1.35625023455	 -0.219011934291	 
74.0	 1.24293835121	 -0.372364696517	 
74.0	 1.12962646787	 -0.525717458743	 
74.0	 1.01631458453	 -0.67907022097	 
74.0	 0.903002701185	 -0.832422983196	 
74.0	 0.71580514291	 -0.839314625272	 
74.0	 0.525130937552	 -0.839314625272	 
74.0	 0.334456732194	 -0.839314625272	 
74.0	 0.143782526836	 -0.839314625272	 
74.0	 -0.0468916785221	 -0.839314625272	 
74.0	 -0.236808582911	 -0.843915807017	 
74.0	 -0.417424780349	 -0.905025886479	 
74.0	 -0.598040977787	 -0.966135965941	 
74.0	 -0.778657175226	 -1.0272460454	 
74.0	 -0.966013775591	 -1.0211930653	 
74.0	 -1.15517151872	 -0.997193048527	 
74.5	 -1.28702825058	 -0.849004753465	 
74.5	 -1.16573340884	 -0.702040807738	 
74.5	 -1.04443856711	 -0.555076862011	 
74.5	 -0.923143725372	 -0.408112916283	 
74.5	 -0.801848883636	 -0.261148970556	 
74.5	 -0.786517264243	 -0.0761047060134	 
74.5	 -0.786517264243	 0.114449328254	 
74.5	 -0.786517264243	 0.305003362521	 
74.5	 -0.786517264243	 0.495557396788	 
74.5	 -0.786517264243	 0.686111431056	 
74.5	 -0.786517264243	 0.876665465323	 
74.5	 -0.786517264243	 1.06721949959	 
74.5	 -0.786517264243	 1.25777353386	 
74.5	 -0.786517264243	 1.44832756812	 
74.5	 -0.660319139685	 1.5566656919	 
74.5	 -0.486014060945	 1.63366296134	 
74.5	 -0.311708982205	 1.71066023077	 
74.5	 -0.137403903465	 1.78765750021	 
74.5	 0.0369011752756	 1.86465476965	 
74.5	 0.21767115572	 1.83566339069	 
74.5	 0.400042286106	 1.78042200423	 
74.5	 0.582413416493	 1.72518061778	 
74.5	 0.764784546879	 1.66993923133	 
74.5	 0.947155677265	 1.61469784488	 
74.5	 1.10621633011	 1.5276078848	 
74.5	 1.21401001125	 1.370473031	 
74.5	 1.3218036924	 1.21333817719	 
74.5	 1.42959737354	 1.05620332338	 
74.5	 1.53739105468	 0.899068469575	 
74.5	 1.6443829733	 0.741742789424	 
74.5	 1.61893599923	 0.55289551916	 
74.5	 1.59348902517	 0.364048248895	 
74.5	 1.56722863612	 0.175319704701	 
74.5	 1.53763563428	 -0.0129224112493	 
74.5	 1.50804263244	 -0.2011645272	 
74.5	 1.3738723214	 -0.318702827123	 
74.5	 1.21021041719	 -0.416302115479	 
74.5	 1.04654851299	 -0.513901403836	 
74.5	 0.882886608785	 -0.611500692193	 
74.5	 0.719224704581	 -0.709099980549	 
74.5	 0.555562800376	 -0.806699268906	 
74.5	 0.391900896172	 -0.904298557262	 
74.5	 0.206998160817	 -0.92480874931	 
74.5	 0.0164441265501	 -0.92480874931	 
