13.0	 -0.0576704745712	 -0.980742229065	 
13.0	 0.128053629376	 -0.974969568618	 
13.0	 0.31320342672	 -0.957200867928	 
13.0	 0.498353224063	 -0.939432167237	 
13.5	 0.91201317641	 -0.918672447805	 
13.5	 0.964930216102	 -0.745370670387	 
13.5	 1.01784725579	 -0.572068892969	 
13.5	 1.07076429549	 -0.398767115551	 
13.5	 1.12368133518	 -0.225465338133	 
13.5	 1.17659837487	 -0.0521635607153	 
13.5	 1.19776141769	 0.126667234062	 
13.5	 1.20653349617	 0.307655548009	 
13.5	 1.21530557465	 0.488643861955	 
13.5	 1.22407765313	 0.669632175901	 
13.5	 1.22228688123	 0.849273816799	 
13.5	 1.16838459322	 1.02227168526	 
13.5	 1.11448230522	 1.19526955373	 
13.5	 1.06058001721	 1.3682674222	 
13.5	 0.948818398138	 1.47606072583	 
13.5	 0.770637130306	 1.50900241582	 
13.5	 0.592455862475	 1.54194410582	 
13.5	 0.414274594643	 1.57488579582	 
13.5	 0.236093326812	 1.60782748582	 
13.5	 0.0579120589801	 1.64076917582	 
13.5	 -0.120269208851	 1.67371086581	 
13.5	 -0.293811908734	 1.65586216811	 
13.5	 -0.463078229367	 1.59118889817	 
13.5	 -0.63234455	 1.52651562822	 
13.5	 -0.801610870633	 1.46184235828	 
13.5	 -0.970877191266	 1.39716908833	 
13.5	 -1.08334125488	 1.27414386601	 
13.5	 -1.15254610402	 1.10667921899	 
13.5	 -1.22175095316	 0.939214571968	 
13.5	 -1.29095580231	 0.771749924949	 
13.5	 -1.36016065145	 0.60428527793	 
13.5	 -1.40663311097	 0.43173356867	 
13.5	 -1.41540518945	 0.250745254724	 
13.5	 -1.42417726793	 0.0697569407777	 
13.5	 -1.43294934641	 -0.111231373168	 
13.5	 -1.44172142489	 -0.292219687115	 
13.5	 -1.38918470922	 -0.46326796116	 
13.5	 -1.32367762375	 -0.632213339609	 
13.5	 -1.21679467494	 -0.757511990782	 
13.5	 -1.0445934089	 -0.813907408313	 
13.5	 -0.872392142851	 -0.870302825844	 
13.5	 -0.700190876806	 -0.926698243375	 
13.5	 -0.527989610761	 -0.983093660906	 
13.5	 -0.351619486819	 -1.00043013826	 
13.5	 -0.171394551548	 -0.981650046341	 
13.5	 0.00891144959145	 -0.964430079305	 
13.5	 0.19011221986	 -0.964430079305	 
13.5	 0.371312990129	 -0.964430079305	 
13.5	 0.552513760398	 -0.964430079305	 
13.5	 0.732264355828	 -0.941565255526	 
14.0	 1.12715009003	 -1.04969131265	 
14.0	 1.14323414451	 -0.870103728475	 
14.0	 1.159318199	 -0.6905161443	 
14.0	 1.17540225348	 -0.510928560126	 
14.0	 1.19148630797	 -0.331340975951	 
14.0	 1.18175362931	 -0.152948050102	 
14.0	 1.14915314692	 0.0243866778732	 
14.0	 1.11655266452	 0.201721405848	 
14.0	 1.08395218213	 0.379056133824	 
14.0	 1.05135169974	 0.556390861799	 
14.0	 1.01875121734	 0.733725589774	 
14.0	 0.986150734949	 0.911060317749	 
14.0	 0.906832150788	 1.07227760455	 
14.0	 0.823153346237	 1.23199064367	 
14.0	 0.739474541686	 1.3917036828	 
14.0	 0.651131656982	 1.54434503987	 
14.0	 0.471372388641	 1.55838080289	 
14.0	 0.291613120299	 1.57241656591	 
14.0	 0.111853851957	 1.58645232893	 
14.0	 -0.0679054163845	 1.60048809195	 
14.0	 -0.241041731803	 1.56559493902	 
14.0	 -0.410601070988	 1.50427587434	 
14.0	 -0.580160410174	 1.44295680966	 
14.0	 -0.749719749359	 1.38163774498	 
14.0	 -0.900638253545	 1.28748135179	 
14.0	 -1.04020080944	 1.17332054332	 
14.0	 -1.17976336534	 1.05915973486	 
14.0	 -1.31932592124	 0.944998926392	 
14.0	 -1.45888847714	 0.830838117927	 
14.0	 -1.57155028924	 0.702709705838	 
14.0	 -1.58463628944	 0.522878802496	 
14.0	 -1.59772228965	 0.343047899154	 
14.0	 -1.57110499092	 0.170012372999	 
14.0	 -1.4989582265	 0.00476939559111	 
14.0	 -1.42681146208	 -0.160473581816	 
14.0	 -1.35466469766	 -0.325716559224	 
14.0	 -1.28251793325	 -0.490959536631	 
14.0	 -1.12758417021	 -0.58193318508	 
14.0	 -0.971112934098	 -0.671527545767	 
14.0	 -0.814641697982	 -0.761121906454	 
14.0	 -0.647111104267	 -0.820819674204	 
14.0	 -0.47000182548	 -0.854623528507	 
14.0	 -0.292892546692	 -0.88842738281	 
14.0	 -0.115783267905	 -0.922231237113	 
14.0	 0.0641479390165	 -0.926198217044	 
14.0	 0.244454337124	 -0.926198217044	 
14.0	 0.424760735231	 -0.926198217044	 
14.0	 0.605067133338	 -0.926198217044	 
14.0	 0.782935108662	 -0.942184869142	 
14.0	 0.955042599346	 -0.995938090896	 
14.5	 1.02876813602	 -0.762110702974	 
14.5	 0.989190717549	 -0.573298116368	 
14.5	 0.949613299081	 -0.384485529763	 
14.5	 0.910035880614	 -0.195672943157	 
14.5	 0.870458462147	 -0.0068603565518	 
14.5	 0.841109974398	 0.183741625524	 
14.5	 0.814238788145	 0.374776973726	 
14.5	 0.787367601891	 0.565812321928	 
14.5	 0.760496415638	 0.75684767013	 
14.5	 0.744632439301	 0.94757640994	 
14.5	 0.782096375091	 1.13681968836	 
14.5	 0.819560310882	 1.32606296679	 
14.5	 0.857024246672	 1.51530624521	 
14.5	 0.894488182463	 1.70454952363	 
14.5	 0.762976953166	 1.73403045597	 
14.5	 0.571932507471	 1.7072240261	 
14.5	 0.380888061776	 1.68041759623	 
14.5	 0.203050497926	 1.6259699619	 
14.5	 0.0621660100565	 1.49418177581	 
14.5	 -0.078718477813	 1.36239358973	 
14.5	 -0.219602965682	 1.23060540365	 
14.5	 -0.360487453552	 1.09881721757	 
14.5	 -0.501371941421	 0.967029031484	 
14.5	 -0.690894177901	 0.939670042622	 
14.5	 -0.882429832041	 0.916634025031	 
14.5	 -1.07396548618	 0.89359800744	 
14.5	 -1.26550114032	 0.870561989848	 
14.5	 -1.45703679446	 0.847525972257	 
14.5	 -1.6485724486	 0.824489954666	 
14.5	 -1.69935686491	 0.652498186535	 
14.5	 -1.73319586108	 0.462573234906	 
14.5	 -1.76703485725	 0.272648283276	 
14.5	 -1.77624737592	 0.0859694133005	 
14.5	 -1.69435021825	 -0.0887000473359	 
14.5	 -1.61245306059	 -0.263369507972	 
14.5	 -1.53055590292	 -0.438038968609	 
14.5	 -1.44865874525	 -0.612708429245	 
14.5	 -1.35187399383	 -0.770113412018	 
14.5	 -1.16706043393	 -0.82543531538	 
14.5	 -0.982246874035	 -0.880757218742	 
14.5	 -0.797433314138	 -0.936079122104	 
14.5	 -0.607621722512	 -0.968074891126	 
14.5	 -0.416366326081	 -0.993332330613	 
14.5	 -0.225110929651	 -1.0185897701	 
14.5	 -0.0337118810183	 -1.04166222721	 
14.5	 0.159204071959	 -1.04166222721	 
14.5	 0.352120024937	 -1.04166222721	 
14.5	 0.543375384957	 -1.0281441562	 
14.5	 0.730555585324	 -0.981452213606	 
14.5	 0.900443881114	 -0.906157398587	 
15.0	 1.12544265547	 -0.763311685631	 
15.0	 1.04680552548	 -0.591600564026	 
15.0	 0.968168395484	 -0.419889442421	 
15.0	 0.889531265488	 -0.248178320816	 
15.0	 0.810894135493	 -0.0764671992114	 
15.0	 0.797245120307	 0.0999548596876	 
15.0	 0.850295863756	 0.281211931595	 
15.0	 0.903346607204	 0.462469003502	 
15.0	 0.956397350653	 0.643726075409	 
15.0	 1.0094480941	 0.824983147316	 
15.0	 0.98966646312	 1.00728824794	 
15.0	 0.941853038106	 1.18999671486	 
15.0	 0.894039613092	 1.37270518179	 
15.0	 0.846226188078	 1.55541364871	 
15.0	 0.730321219594	 1.65944239874	 
15.0	 0.542641769731	 1.68053580045	 
15.0	 0.366467717678	 1.65813970302	 
15.0	 0.213771816996	 1.54699803931	 
15.0	 0.0610759163145	 1.43585637561	 
15.0	 -0.0916199843674	 1.3247147119	 
15.0	 -0.244315885049	 1.21357304819	 
15.0	 -0.397011785731	 1.10243138448	 
15.0	 -0.549707686413	 0.991289720776	 
15.0	 -0.713796760742	 0.904940524044	 
15.0	 -0.897583245038	 0.861454483906	 
15.0	 -1.08136972933	 0.817968443768	 
15.0	 -1.26515621363	 0.77448240363	 
15.0	 -1.44894269793	 0.730996363492	 
15.0	 -1.61085360605	 0.668338978674	 
15.0	 -1.62985219237	 0.480435915328	 
15.0	 -1.64885077868	 0.292532851982	 
15.0	 -1.667849365	 0.104629788636	 
15.0	 -1.68684795132	 -0.0832732747098	 
15.0	 -1.70584653763	 -0.271176338056	 
15.0	 -1.61239583112	 -0.424636317321	 
15.0	 -1.49142048555	 -0.569665532519	 
15.0	 -1.37044513998	 -0.714694747717	 
15.0	 -1.24728897343	 -0.856488915452	 
15.0	 -1.06747146067	 -0.914231184206	 
15.0	 -0.88765394791	 -0.971973452959	 
15.0	 -0.707836435148	 -1.02971572171	 
15.0	 -0.527154978109	 -1.08194179294	 
15.0	 -0.33829389822	 -1.08194179294	 
15.0	 -0.149432818331	 -1.08194179294	 
15.0	 0.0394282615576	 -1.08194179294	 
15.0	 0.223069457304	 -1.04064340304	 
15.0	 0.405991108121	 -0.993652157486	 
15.0	 0.585990117188	 -0.936538491892	 
15.0	 0.76580762995	 -0.878796223139	 
15.0	 0.945625142712	 -0.821053954385	 
15.5	 0.977454845284	 -0.816915619488	 
15.5	 0.92347580081	 -0.638544123264	 
15.5	 0.869496756336	 -0.460172627041	 
15.5	 0.815517711862	 -0.281801130817	 
15.5	 0.761538667388	 -0.103429634594	 
15.5	 0.762949638356	 0.0804598130862	 
15.5	 0.780678320692	 0.265974830618	 
15.5	 0.798407003028	 0.451489848151	 
15.5	 0.816135685364	 0.637004865683	 
15.5	 0.833864367699	 0.822519883215	 
15.5	 0.808809344858	 1.00414874384	 
15.5	 0.757944956633	 1.18343327167	 
15.5	 0.707080568407	 1.3627177995	 
15.5	 0.656216180182	 1.54200232732	 
15.5	 0.587409482868	 1.690890757	 
15.5	 0.405866489774	 1.64879242489	 
15.5	 0.22432349668	 1.60669409279	 
15.5	 0.0427805035855	 1.56459576069	 
15.5	 -0.138762489509	 1.52249742859	 
15.5	 -0.320362673906	 1.48064787129	 
15.5	 -0.502064223268	 1.43923923853	 
15.5	 -0.683765772629	 1.39783060577	 
15.5	 -0.86546732199	 1.35642197301	 
15.5	 -1.04716887135	 1.31501334025	 
15.5	 -1.22887042071	 1.27360470749	 
15.5	 -1.41057197007	 1.23219607473	 
15.5	 -1.58166428086	 1.18008782684	 
15.5	 -1.62461268617	 0.998744058295	 
15.5	 -1.66756109148	 0.817400289753	 
15.5	 -1.71050949679	 0.636056521212	 
15.5	 -1.7534579021	 0.45471275267	 
15.5	 -1.7964063074	 0.273368984129	 
15.5	 -1.83935471271	 0.0920252155872	 
15.5	 -1.7798791438	 -0.0709539046195	 
15.5	 -1.67660171279	 -0.226079338225	 
15.5	 -1.57332428179	 -0.381204771831	 
15.5	 -1.47004685078	 -0.536330205437	 
15.5	 -1.36676941977	 -0.691455639043	 
15.5	 -1.19714965699	 -0.748787868446	 
15.5	 -1.01483475716	 -0.787406584216	 
15.5	 -0.83251985733	 -0.826025299985	 
15.5	 -0.650204957501	 -0.864644015754	 
15.5	 -0.467890057672	 -0.903262731524	 
15.5	 -0.285575157843	 -0.941881447293	 
15.5	 -0.101922668431	 -0.967730810778	 
15.5	 0.0844375416656	 -0.967730810778	 
15.5	 0.270797751762	 -0.967730810778	 
15.5	 0.457157961859	 -0.967730810778	 
15.5	 0.643518171956	 -0.967730810778	 
15.5	 0.814214308865	 -0.90681920772	 
16.0	 1.18005589444	 -0.94886700358	 
16.0	 1.11235836258	 -0.777510155534	 
16.0	 1.04466083073	 -0.606153307488	 
16.0	 0.976963298868	 -0.434796459442	 
16.0	 0.90926576701	 -0.263439611396	 
16.0	 0.843831213134	 -0.0915269640637	 
16.0	 0.824442385172	 0.0916947555609	 
16.0	 0.805053557211	 0.274916475186	 
16.0	 0.785664729249	 0.45813819481	 
16.0	 0.766275901287	 0.641359914435	 
16.0	 0.738456579236	 0.823416216268	 
16.0	 0.707411609263	 1.00502660978	 
16.0	 0.676366639291	 1.18663700329	 
16.0	 0.645321669318	 1.3682473968	 
16.0	 0.512422485417	 1.44509544736	 
16.0	 0.330010290675	 1.47101679766	 
16.0	 0.147598095933	 1.49693814796	 
16.0	 -0.0348140988084	 1.52285949826	 
16.0	 -0.217723399618	 1.53809600901	 
16.0	 -0.401754371939	 1.5292232181	 
16.0	 -0.58578534426	 1.5203504272	 
16.0	 -0.769816316581	 1.51147763629	 
16.0	 -0.953847288902	 1.50260484539	 
16.0	 -1.13787826122	 1.49373205448	 
16.0	 -1.32190923354	 1.48485926358	 
16.0	 -1.43105843603	 1.34250209906	 
16.0	 -1.53455917943	 1.19007598153	 
16.0	 -1.63805992284	 1.03764986399	 
16.0	 -1.74156066624	 0.885223746458	 
16.0	 -1.76819007402	 0.722170381531	 
16.0	 -1.70992599661	 0.547380729447	 
16.0	 -1.6516619192	 0.372591077364	 
16.0	 -1.59339784179	 0.19780142528	 
16.0	 -1.53513376438	 0.0230117731958	 
16.0	 -1.47686968697	 -0.151777878888	 
16.0	 -1.4185420166	 -0.326520969774	 
16.0	 -1.26951110151	 -0.434853381993	 
16.0	 -1.12048018641	 -0.543185794212	 
16.0	 -0.97144927131	 -0.651518206431	 
16.0	 -0.811835722364	 -0.736463889325	 
16.0	 -0.632084626079	 -0.776907288988	 
16.0	 -0.452333529794	 -0.81735068865	 
16.0	 -0.272582433509	 -0.857794088312	 
16.0	 -0.0929517024681	 -0.898749243899	 
16.0	 0.0859818363368	 -0.94266864602	 
16.0	 0.264915375142	 -0.986588048141	 
16.0	 0.446879030186	 -1.00545081572	 
16.0	 0.63112377283	 -1.00545081572	 
16.0	 0.814878961488	 -0.998165161818	 
16.0	 0.997467427965	 -0.973516082699	 
16.5	 1.12828168483	 -0.766155601174	 
16.5	 1.06007728873	 -0.591030982574	 
16.5	 0.991872892635	 -0.415906363975	 
16.5	 0.923668496539	 -0.240781745376	 
16.5	 0.860154273582	 -0.064566713403	 
16.5	 0.844110269503	 0.122684619354	 
16.5	 0.828066265425	 0.309935952112	 
16.5	 0.812022261346	 0.497187284869	 
16.5	 0.782279854286	 0.682598561601	 
16.5	 0.748341178055	 0.867446168948	 
16.5	 0.714402501824	 1.0522937763	 
16.5	 0.680463825593	 1.23714138364	 
16.5	 0.640003800155	 1.4174109875	 
16.5	 0.477683123912	 1.51213410902	 
16.5	 0.315362447669	 1.60685723054	 
16.5	 0.153041771426	 1.70158035206	 
16.5	 -0.0119347904983	 1.78405623045	 
16.5	 -0.198911759216	 1.76508032848	 
16.5	 -0.385888727933	 1.74610442651	 
16.5	 -0.572865696651	 1.72712852455	 
16.5	 -0.759842665368	 1.70815262258	 
16.5	 -0.946819634086	 1.68917672061	 
16.5	 -1.1337966028	 1.67020081864	 
16.5	 -1.26205016441	 1.56851013953	 
16.5	 -1.34162231788	 1.3982493276	 
16.5	 -1.42119447135	 1.22798851567	 
16.5	 -1.50076662482	 1.05772770374	 
16.5	 -1.58033877829	 0.887466891814	 
16.5	 -1.65991093176	 0.717206079886	 
16.5	 -1.73948308523	 0.546945267958	 
16.5	 -1.8190552387	 0.376684456029	 
16.5	 -1.82679178399	 0.203034498111	 
16.5	 -1.7636029341	 0.026038337317	 
16.5	 -1.70041408421	 -0.150957823477	 
16.5	 -1.63722523433	 -0.327953984272	 
16.5	 -1.54523676732	 -0.480321673356	 
16.5	 -1.3801916781	 -0.570213776512	 
16.5	 -1.21514658888	 -0.660105879667	 
16.5	 -1.05010149965	 -0.749997982823	 
16.5	 -0.885056410432	 -0.839890085978	 
16.5	 -0.710047241942	 -0.890655886364	 
16.5	 -0.522109827662	 -0.890655886364	 
16.5	 -0.334172413382	 -0.890655886364	 
16.5	 -0.146234999102	 -0.890655886364	 
16.5	 0.0417024151785	 -0.890655886364	 
16.5	 0.229639829459	 -0.890655886364	 
16.5	 0.415933364576	 -0.90771631885	 
16.5	 0.600413062717	 -0.943601032306	 
16.5	 0.777982116933	 -0.902435091483	 
16.5	 0.953131900879	 -0.834295346328	 
17.0	 1.00165954326	 -0.615631311973	 
17.0	 0.951156464195	 -0.426967740389	 
17.0	 0.900653385131	 -0.238304168806	 
17.0	 0.850150306066	 -0.0496405972219	 
17.0	 0.84160060149	 0.141470974559	 
17.0	 0.869818427327	 0.334727949964	 
17.0	 0.898036253164	 0.527984925369	 
17.0	 0.909297684992	 0.721985816515	 
17.0	 0.898112950282	 0.916971472262	 
17.0	 0.886928215572	 1.11195712801	 
17.0	 0.875743480862	 1.30694278376	 
17.0	 0.829855798589	 1.49361681174	 
17.0	 0.751492954782	 1.67251278416	 
17.0	 0.673130110976	 1.85140875658	 
17.0	 0.576111951122	 1.99445940074	 
17.0	 0.384629598988	 1.95600146192	 
17.0	 0.193147246853	 1.91754352309	 
17.0	 0.00166489471838	 1.87908558427	 
17.0	 -0.189817457416	 1.84062764544	 
17.0	 -0.381299809551	 1.80216970661	 
17.0	 -0.572782161686	 1.76371176779	 
17.0	 -0.76303847579	 1.72161022777	 
17.0	 -0.938818637873	 1.63648773453	 
17.0	 -1.11459879996	 1.55136524129	 
17.0	 -1.29037896204	 1.46624274804	 
17.0	 -1.46615912412	 1.3811202548	 
17.0	 -1.57450956196	 1.23650521672	 
17.0	 -1.637069422	 1.05148962778	 
17.0	 -1.69962928203	 0.86647403884	 
17.0	 -1.76218914206	 0.681458449901	 
17.0	 -1.82474900209	 0.496442860961	 
17.0	 -1.88730886212	 0.311427272022	 
17.0	 -1.84908627446	 0.119956249016	 
17.0	 -1.81064247852	 -0.0715289430791	 
17.0	 -1.77219868258	 -0.263014135174	 
17.0	 -1.73375488664	 -0.454499327269	 
17.0	 -1.62915955042	 -0.585027517141	 
17.0	 -1.4414498157	 -0.638967852035	 
17.0	 -1.25374008097	 -0.69290818693	 
17.0	 -1.06458107026	 -0.740982866981	 
17.0	 -0.873349832251	 -0.78067062137	 
17.0	 -0.682118594245	 -0.820358375758	 
17.0	 -0.490887356238	 -0.860046130147	 
17.0	 -0.298469455231	 -0.888176424045	 
17.0	 -0.103163274485	 -0.888176424045	 
17.0	 0.0921429062616	 -0.888176424045	 
17.0	 0.287449087008	 -0.888176424045	 
17.0	 0.475578315353	 -0.852164709313	 
17.0	 0.655962643256	 -0.777291493242	 
17.0	 0.819098188609	 -0.679434787998	 
17.5	 1.07846236589	 -0.62104319076	 
17.5	 1.06584888278	 -0.419429249557	 
17.5	 1.05323539967	 -0.217815308355	 
17.5	 1.04062191656	 -0.0162013671519	 
17.5	 1.02166184816	 0.18469963221	 
17.5	 0.989228945612	 0.384087164608	 
17.5	 0.956796043065	 0.583474697006	 
17.5	 0.924363140518	 0.782862229404	 
17.5	 0.89193023797	 0.982249761802	 
17.5	 0.859497335423	 1.1816372942	 
17.5	 0.853903388444	 1.38235133673	 
17.5	 0.866516871552	 1.58396527793	 
17.5	 0.879130354661	 1.78557921914	 
17.5	 0.89174383777	 1.98719316034	 
17.5	 0.708000358546	 1.99465557766	 
17.5	 0.506256810628	 1.98432009912	 
17.5	 0.304513262709	 1.97398462057	 
17.5	 0.102769714791	 1.96364914203	 
17.5	 -0.0989738331274	 1.95331366349	 
17.5	 -0.298119730173	 1.92648182431	 
17.5	 -0.493276667679	 1.87431813017	 
17.5	 -0.688433605185	 1.82215443602	 
17.5	 -0.883590542691	 1.76999074188	 
17.5	 -1.0787474802	 1.71782704774	 
17.5	 -1.2739044177	 1.66566335359	 
17.5	 -1.36607899846	 1.49180388644	 
17.5	 -1.44980916789	 1.30796553361	 
17.5	 -1.53353933732	 1.12412718078	 
17.5	 -1.61726950674	 0.940288827952	 
17.5	 -1.70099967617	 0.756450475122	 
17.5	 -1.78472984559	 0.572612122291	 
17.5	 -1.86846001502	 0.388773769461	 
17.5	 -1.93102710889	 0.202822091047	 
17.5	 -1.88530369307	 0.00605662027402	 
17.5	 -1.83958027724	 -0.190708850499	 
17.5	 -1.79385686141	 -0.387474321272	 
17.5	 -1.73239976265	 -0.567841325509	 
17.5	 -1.53391152704	 -0.605387318241	 
17.5	 -1.33542329144	 -0.642933310972	 
17.5	 -1.13671312661	 -0.678112024505	 
17.5	 -0.934705004882	 -0.678112024505	 
17.5	 -0.732696883155	 -0.678112024505	 
17.5	 -0.530688761429	 -0.678112024505	 
17.5	 -0.328680639703	 -0.678112024505	 
17.5	 -0.126672517977	 -0.678112024505	 
17.5	 0.0753356037498	 -0.678112024505	 
17.5	 0.277343725476	 -0.678112024505	 
17.5	 0.479351847202	 -0.678112024505	 
17.5	 0.681359968929	 -0.678112024505	 
17.5	 0.882298273942	 -0.66928145643	 
18.0	 1.12099106897	 -0.795797519097	 
18.0	 1.07423895612	 -0.60689611506	 
18.0	 1.02748684326	 -0.417994711023	 
18.0	 0.98073473041	 -0.229093306985	 
18.0	 0.955327364199	 -0.0375898010602	 
18.0	 0.955327364199	 0.157011073819	 
18.0	 0.955327364199	 0.351611948698	 
18.0	 0.955327364199	 0.546212823577	 
18.0	 0.951770702023	 0.740605928382	 
18.0	 0.929111968757	 0.933883144604	 
18.0	 0.906453235491	 1.12716036083	 
18.0	 0.883794502226	 1.32043757705	 
18.0	 0.86113576896	 1.51371479327	 
18.0	 0.838477035694	 1.70699200949	 
18.0	 0.706134341632	 1.80968696433	 
18.0	 0.520625631714	 1.86847488017	 
18.0	 0.335116921797	 1.927262796	 
18.0	 0.149608211879	 1.98605071184	 
18.0	 -0.0328037460226	 1.93267613222	 
18.0	 -0.214786111305	 1.86374196631	 
18.0	 -0.396768476587	 1.7948078004	 
18.0	 -0.578750841869	 1.72587363449	 
18.0	 -0.760733207151	 1.65693946858	 
18.0	 -0.942715572434	 1.58800530267	 
18.0	 -1.12469793772	 1.51907113676	 
18.0	 -1.26101499383	 1.39373066777	 
18.0	 -1.36631975328	 1.23008346144	 
18.0	 -1.47162451274	 1.06643625511	 
18.0	 -1.57692927219	 0.902789048778	 
18.0	 -1.68223403164	 0.739141842446	 
18.0	 -1.72414094457	 0.561397616423	 
18.0	 -1.6981065372	 0.368546092871	 
18.0	 -1.67207212983	 0.175694569318	 
18.0	 -1.64603772246	 -0.0171569542344	 
18.0	 -1.62000331509	 -0.210008477787	 
18.0	 -1.59396890772	 -0.40286000134	 
18.0	 -1.55029646078	 -0.583155562681	 
18.0	 -1.37659322253	 -0.670886318544	 
18.0	 -1.19845948641	 -0.740017319161	 
18.0	 -1.00385861153	 -0.740017319161	 
18.0	 -0.809257736656	 -0.740017319161	 
18.0	 -0.614656861777	 -0.740017319161	 
18.0	 -0.420055986898	 -0.740017319161	 
18.0	 -0.225455112019	 -0.740017319161	 
18.0	 -0.0317777434015	 -0.72214169526	 
18.0	 0.161787096436	 -0.702087935457	 
18.0	 0.355465746689	 -0.684237119224	 
18.0	 0.549601403634	 -0.687076674437	 
18.0	 0.735271973087	 -0.743847725225	 
18.0	 0.92813152103	 -0.769822622161	 
18.5	 0.655069424564	 -0.72126879313	 
18.5	 0.822763124784	 -0.621489017184	 
18.5	 0.990456825003	 -0.521709241237	 
18.5	 1.15815052522	 -0.42192946529	 
18.5	 1.32584422544	 -0.322149689344	 
18.5	 1.39536605677	 -0.169919452004	 
18.5	 1.38509172498	 0.0249436252773	 
18.5	 1.37481739318	 0.219806702558	 
18.5	 1.36454306139	 0.41466977984	 
18.5	 1.34450548374	 0.608128931869	 
18.5	 1.29945740872	 0.797991649953	 
18.5	 1.2544093337	 0.987854368037	 
18.5	 1.20936125868	 1.17771708612	 
18.5	 1.16431318366	 1.36757980421	 
18.5	 1.11926510864	 1.55744252229	 
18.5	 1.0160163566	 1.69892066002	 
18.5	 0.837574999182	 1.77788813905	 
18.5	 0.659133641764	 1.85685561807	 
18.5	 0.480692284347	 1.9358230971	 
18.5	 0.302250926929	 2.01479057613	 
18.5	 0.123540426346	 2.01253950916	 
18.5	 -0.0554203734054	 1.93475639445	 
18.5	 -0.234381173156	 1.85697327975	 
18.5	 -0.413341972907	 1.77919016504	 
18.5	 -0.592302772658	 1.70140705033	 
18.5	 -0.771263572409	 1.62362393562	 
18.5	 -0.95022437216	 1.54584082091	 
18.5	 -1.12918517191	 1.4680577062	 
18.5	 -1.24905145628	 1.32655959747	 
18.5	 -1.34006177619	 1.15394933575	 
18.5	 -1.43107209609	 0.981339074024	 
18.5	 -1.52208241599	 0.808728812299	 
18.5	 -1.61309273589	 0.636118550573	 
18.5	 -1.70410305579	 0.463508288848	 
18.5	 -1.67922964929	 0.274566459569	 
18.5	 -1.63946878289	 0.083526531061	 
18.5	 -1.59970791649	 -0.107513397447	 
18.5	 -1.55994705009	 -0.298553325956	 
18.5	 -1.5201861837	 -0.489593254464	 
18.5	 -1.42886605296	 -0.638204080596	 
18.5	 -1.24905053706	 -0.713990365777	 
18.5	 -1.06923502115	 -0.789776650957	 
18.5	 -0.883360631778	 -0.821468224498	 
18.5	 -0.68976823431	 -0.796990389141	 
18.5	 -0.496323212293	 -0.771476232934	 
18.5	 -0.303581934561	 -0.741013458282	 
18.5	 -0.10999888221	 -0.72126879313	 
18.5	 0.0851348687949	 -0.72126879313	 
18.5	 0.279332924118	 -0.727333407525	 
18.5	 0.465890776226	 -0.769108314389	 
19.0	 0.932080129985	 -0.501720643738	 
19.0	 0.952136087111	 -0.318103970887	 
19.0	 0.972192044238	 -0.134487298035	 
19.0	 0.992248001364	 0.0491293748167	 
19.0	 1.00421856441	 0.232765893041	 
19.0	 0.985064207414	 0.416478806505	 
19.0	 0.965909850421	 0.600191719969	 
19.0	 0.946755493428	 0.783904633434	 
19.0	 0.927601136436	 0.967617546898	 
19.0	 0.908446779443	 1.15133046036	 
19.0	 0.857780630339	 1.31743940853	 
19.0	 0.711384200914	 1.43006893138	 
19.0	 0.564987771488	 1.54269845422	 
19.0	 0.418591342063	 1.65532797707	 
19.0	 0.272194912637	 1.76795749992	 
19.0	 0.0949589350046	 1.77004399404	 
19.0	 -0.0885999853624	 1.74946617299	 
19.0	 -0.272158905729	 1.72888835194	 
19.0	 -0.455717826096	 1.7083105309	 
19.0	 -0.639276746463	 1.68773270985	 
19.0	 -0.82283566683	 1.6671548888	 
19.0	 -1.0063945872	 1.64657706775	 
19.0	 -1.12474750402	 1.53949828879	 
19.0	 -1.19506631127	 1.36869843718	 
19.0	 -1.26538511853	 1.19789858556	 
19.0	 -1.33570392579	 1.02709873395	 
19.0	 -1.40602273304	 0.856298882335	 
19.0	 -1.4763415403	 0.685499030721	 
19.0	 -1.54666034756	 0.514699179107	 
19.0	 -1.61688377407	 0.343878651179	 
19.0	 -1.62360440179	 0.15929220225	 
19.0	 -1.63032502951	 -0.0252942466797	 
19.0	 -1.63704565724	 -0.209880695609	 
19.0	 -1.64376628496	 -0.394467144539	 
19.0	 -1.65048691268	 -0.579053593468	 
19.0	 -1.59723020982	 -0.725899955607	 
19.0	 -1.42791249375	 -0.799716180037	 
19.0	 -1.25859477768	 -0.873532404467	 
19.0	 -1.0892770616	 -0.947348628897	 
19.0	 -0.91995934553	 -1.02116485333	 
19.0	 -0.741447300768	 -1.05841548157	 
19.0	 -0.557352575606	 -1.07346394105	 
19.0	 -0.373257850444	 -1.08851240054	 
19.0	 -0.192093349936	 -1.07997839655	 
19.0	 -0.0172795431817	 -1.02033397574	 
19.0	 0.157534263573	 -0.960689554933	 
19.0	 0.332348070328	 -0.901045134127	 
19.0	 0.507161877082	 -0.841400713321	 
19.0	 0.667330582584	 -0.758827961264	 
19.0	 0.794950868244	 -0.625297490385	 
19.5	 1.06825876038	 -0.615086721635	 
19.5	 1.06114696933	 -0.430336350451	 
19.5	 1.05403517828	 -0.245585979267	 
19.5	 1.04692338723	 -0.0608356080832	 
19.5	 1.03981159617	 0.123914763101	 
19.5	 1.03269980512	 0.308665134285	 
19.5	 1.02558801407	 0.493415505469	 
19.5	 0.979574662775	 0.671947860746	 
19.5	 0.928742544836	 0.849709985538	 
19.5	 0.877910426896	 1.02747211033	 
19.5	 0.827078308957	 1.20523423512	 
19.5	 0.776246191018	 1.38299635991	 
19.5	 0.725414073078	 1.5607584847	 
19.5	 0.667836038573	 1.73064457202	 
19.5	 0.48437417573	 1.7535579329	 
19.5	 0.300912312888	 1.77647129378	 
19.5	 0.117450450045	 1.79938465466	 
19.5	 -0.0660114127975	 1.82229801555	 
19.5	 -0.24947327564	 1.84521137643	 
19.5	 -0.432935138483	 1.86812473731	 
19.5	 -0.616397001326	 1.89103809819	 
19.5	 -0.77503078459	 1.8415515529	 
19.5	 -0.90582100798	 1.71087181197	 
19.5	 -1.03661123137	 1.58019207103	 
19.5	 -1.16740145476	 1.4495123301	 
19.5	 -1.29819167815	 1.31883258917	 
19.5	 -1.42898190154	 1.18815284824	 
19.5	 -1.54135854731	 1.04896445351	 
19.5	 -1.55611480403	 0.864667057676	 
19.5	 -1.57087106076	 0.680369661839	 
19.5	 -1.58562731748	 0.496072266003	 
19.5	 -1.6003835742	 0.311774870166	 
19.5	 -1.61513983093	 0.12747747433	 
19.5	 -1.59880097154	 -0.0489319459914	 
19.5	 -1.49797973697	 -0.203910511877	 
19.5	 -1.3971585024	 -0.358889077763	 
19.5	 -1.29633726782	 -0.513867643649	 
19.5	 -1.19551603325	 -0.668846209534	 
19.5	 -1.09469479868	 -0.82382477542	 
19.5	 -0.937889114086	 -0.875594039034	 
19.5	 -0.753001912732	 -0.875594039034	 
19.5	 -0.568403834073	 -0.869792288331	 
19.5	 -0.384432654702	 -0.851410710996	 
19.5	 -0.20046147533	 -0.83302913366	 
19.5	 -0.0164902959588	 -0.814647556325	 
19.5	 0.167480883413	 -0.79626597899	 
19.5	 0.351452062784	 -0.777884401655	 
19.5	 0.535423242155	 -0.75950282432	 
19.5	 0.717430336215	 -0.731930744564	 
19.5	 0.892844548299	 -0.6735087331	 
20.0	 0.591633376616	 -0.804411988784	 
20.0	 0.763760383662	 -0.739389539161	 
20.0	 0.935887390708	 -0.674367089538	 
20.0	 1.10801439775	 -0.609344639915	 
20.0	 1.22088353907	 -0.480208682715	 
20.0	 1.29923302418	 -0.313724498206	 
20.0	 1.32597229131	 -0.135703000672	 
20.0	 1.32597229131	 0.0482959816876	 
20.0	 1.32597229131	 0.232294964048	 
20.0	 1.32597229131	 0.416293946407	 
20.0	 1.30429149942	 0.593017232711	 
20.0	 1.19329746109	 0.73976854945	 
20.0	 1.08230342275	 0.886519866189	 
20.0	 0.971309384425	 1.03327118293	 
20.0	 0.860315346094	 1.18002249967	 
20.0	 0.749321307764	 1.32677381641	 
20.0	 0.578896347694	 1.39407173823	 
20.0	 0.406769340648	 1.45909418786	 
20.0	 0.234642333602	 1.52411663748	 
20.0	 0.0625153265566	 1.5891390871	 
20.0	 -0.109611680489	 1.65416153673	 
20.0	 -0.281738687535	 1.71918398635	 
20.0	 -0.456138938176	 1.7621135949	 
20.0	 -0.637900167382	 1.73350448679	 
20.0	 -0.819661396588	 1.70489537868	 
20.0	 -1.00142262579	 1.67628627056	 
20.0	 -1.13288828086	 1.58812327271	 
20.0	 -1.19151605182	 1.41371452872	 
20.0	 -1.25014382277	 1.23930578472	 
20.0	 -1.30877159373	 1.06489704072	 
20.0	 -1.36739936468	 0.890488296727	 
20.0	 -1.42602713564	 0.71607955273	 
20.0	 -1.48465490659	 0.541670808734	 
20.0	 -1.48369285149	 0.359895034692	 
20.0	 -1.46930501432	 0.176459444767	 
20.0	 -1.45491717716	 -0.00697614515808	 
20.0	 -1.44052934	 -0.190411735083	 
20.0	 -1.42614150283	 -0.373847325009	 
20.0	 -1.36481510097	 -0.537709618117	 
20.0	 -1.24461734045	 -0.677022660846	 
20.0	 -1.12441957992	 -0.816335703575	 
20.0	 -1.0042218194	 -0.955648746304	 
20.0	 -0.829497563287	 -1.00175026982	 
20.0	 -0.649154402736	 -1.03824643334	 
20.0	 -0.468811242184	 -1.07474259686	 
20.0	 -0.295913824947	 -1.01923931873	 
20.0	 -0.123786817901	 -0.954216869106	 
20.0	 0.0483401891448	 -0.889194419483	 
20.0	 0.226173073301	 -0.847554412672	 
20.0	 0.408903224959	 -0.825983200728	 
20.5	 1.11375782779	 -0.707049740857	 
20.5	 1.05673186755	 -0.533085344309	 
20.5	 0.999705907309	 -0.35912094776	 
20.5	 0.942679947067	 -0.185156551212	 
20.5	 0.885653986825	 -0.0111921546631	 
20.5	 0.847715947675	 0.167245453579	 
20.5	 0.82151281686	 0.348433111391	 
20.5	 0.795309686044	 0.529620769204	 
20.5	 0.769106555228	 0.710808427016	 
20.5	 0.742903424413	 0.891996084828	 
20.5	 0.701779997007	 1.07027794612	 
20.5	 0.65807278378	 1.24805660322	 
20.5	 0.614365570554	 1.42583526032	 
20.5	 0.435271958412	 1.46090233878	 
20.5	 0.25543889528	 1.49518995772	 
20.5	 0.0756058321468	 1.52947757665	 
20.5	 -0.104227230986	 1.56376519559	 
20.5	 -0.284060294119	 1.59805281452	 
20.5	 -0.463893357252	 1.63234043346	 
20.5	 -0.643726420384	 1.6666280524	 
20.5	 -0.813603693721	 1.63182260269	 
20.5	 -0.976440845884	 1.54815879161	 
20.5	 -1.13927799805	 1.46449498054	 
20.5	 -1.30211515021	 1.38083116946	 
20.5	 -1.46495230237	 1.29716735839	 
20.5	 -1.51708262685	 1.14139456196	 
20.5	 -1.52778067972	 0.958634820574	 
20.5	 -1.53847873259	 0.775875079184	 
20.5	 -1.54917678546	 0.593115337795	 
20.5	 -1.55987483833	 0.410355596405	 
20.5	 -1.5705728912	 0.227595855016	 
20.5	 -1.58127094407	 0.0448361136261	 
20.5	 -1.59196899694	 -0.137923627763	 
20.5	 -1.52336743874	 -0.306516084125	 
20.5	 -1.45004905151	 -0.474265854622	 
20.5	 -1.37673066428	 -0.642015625119	 
20.5	 -1.30341227705	 -0.809765395616	 
20.5	 -1.18840737982	 -0.928532565575	 
20.5	 -1.01109224164	 -0.974083780469	 
20.5	 -0.833777103451	 -1.01963499536	 
20.5	 -0.656461965266	 -1.06518621026	 
20.5	 -0.479146827081	 -1.11073742515	 
20.5	 -0.299529002711	 -1.08096047821	 
20.5	 -0.119762652815	 -1.04632479065	 
20.5	 0.0600036970818	 -1.01168910309	 
20.5	 0.239770046978	 -0.977053415528	 
20.5	 0.416271029828	 -0.929932162883	 
20.5	 0.589976985241	 -0.872123751195	 
20.5	 0.763682940655	 -0.814315339506	 
20.5	 0.938651926925	 -0.760467854725	 
21.0	 1.02430705633	 -0.668894565103	 
21.0	 1.03084416777	 -0.487894284776	 
21.0	 1.0373812792	 -0.306894004449	 
21.0	 1.04391839063	 -0.125893724123	 
21.0	 1.05045550207	 0.0551065562039	 
21.0	 1.0569926135	 0.236106836531	 
21.0	 1.04380105071	 0.415698504101	 
21.0	 1.01161477303	 0.593933963067	 
21.0	 0.979428495342	 0.772169422033	 
21.0	 0.947242217655	 0.950404880999	 
21.0	 0.909716536948	 1.1254622011	 
21.0	 0.768390243888	 1.2387349436	 
21.0	 0.627063950827	 1.35200768611	 
21.0	 0.485737657767	 1.46528042861	 
21.0	 0.344411364707	 1.57855317111	 
21.0	 0.194189303101	 1.66650303077	 
21.0	 0.013071012185	 1.66650303077	 
21.0	 -0.168047278731	 1.66650303077	 
21.0	 -0.349165569646	 1.66650303077	 
21.0	 -0.530283860562	 1.66650303077	 
21.0	 -0.711402151478	 1.66650303077	 
21.0	 -0.892520442394	 1.66650303077	 
21.0	 -1.04858096586	 1.60500902883	 
21.0	 -1.1781173769	 1.47842248326	 
21.0	 -1.30765378793	 1.35183593768	 
21.0	 -1.43719019897	 1.22524939211	 
21.0	 -1.56672661001	 1.09866284654	 
21.0	 -1.59582069693	 0.929792473613	 
21.0	 -1.59582069693	 0.748674182697	 
21.0	 -1.59582069693	 0.567555891782	 
21.0	 -1.59582069693	 0.386437600866	 
21.0	 -1.59582069693	 0.20531930995	 
21.0	 -1.59582069693	 0.0242010190345	 
21.0	 -1.52800338389	 -0.138486354357	 
21.0	 -1.43632841295	 -0.294689859465	 
21.0	 -1.34465344202	 -0.450893364572	 
21.0	 -1.25297847108	 -0.607096869679	 
21.0	 -1.16130350014	 -0.763300374786	 
21.0	 -1.01205661585	 -0.829548586471	 
21.0	 -0.831817412439	 -0.847371741606	 
21.0	 -0.651578209031	 -0.86519489674	 
21.0	 -0.471530062445	 -0.884840841212	 
21.0	 -0.291512463956	 -0.904778231674	 
21.0	 -0.111494865467	 -0.924715622137	 
21.0	 0.0685227330225	 -0.944653012599	 
21.0	 0.248540331512	 -0.964590403062	 
21.0	 0.429523914858	 -0.967030428406	 
21.0	 0.607449268734	 -0.938990531557	 
21.0	 0.783930688317	 -0.898270219104	 
21.0	 0.938033362919	 -0.828144950124	 
21.5	 0.685248288864	 -0.92527103176	 
21.5	 0.799183307155	 -0.779524866654	 
21.5	 0.913118325445	 -0.633778701549	 
21.5	 1.02705334374	 -0.488032536444	 
21.5	 1.14098836203	 -0.342286371338	 
21.5	 1.25492338032	 -0.196540206233	 
21.5	 1.31958095449	 -0.0277887151024	 
21.5	 1.35815506895	 0.153139919254	 
21.5	 1.3967291834	 0.334068553609	 
21.5	 1.43530329785	 0.514997187965	 
21.5	 1.36185920944	 0.667557629393	 
21.5	 1.24181863202	 0.808317683422	 
21.5	 1.12177805461	 0.94907773745	 
21.5	 1.0017374772	 1.08983779148	 
21.5	 0.881696899785	 1.23059784551	 
21.5	 0.726864477634	 1.32014206274	 
21.5	 0.551776211528	 1.37986837275	 
21.5	 0.376687945423	 1.43959468277	 
21.5	 0.201599679317	 1.49932099278	 
21.5	 0.0265114132115	 1.55904730279	 
21.5	 -0.148576852894	 1.61877361281	 
21.5	 -0.324574829495	 1.66935434987	 
21.5	 -0.507997838319	 1.64528917025	 
21.5	 -0.691420847142	 1.62122399064	 
21.5	 -0.874843855965	 1.59715881102	 
21.5	 -1.05826686479	 1.5730936314	 
21.5	 -1.24168987361	 1.54902845179	 
21.5	 -1.31139585572	 1.41134806769	 
21.5	 -1.33529671517	 1.22790357485	 
21.5	 -1.35919757462	 1.04445908201	 
21.5	 -1.38309843408	 0.861014589172	 
21.5	 -1.40699929353	 0.677570096332	 
21.5	 -1.43090015298	 0.494125603492	 
21.5	 -1.44228603588	 0.310301215241	 
21.5	 -1.42955594159	 0.125744780145	 
21.5	 -1.4168258473	 -0.0588116549503	 
21.5	 -1.40409575301	 -0.243368090046	 
21.5	 -1.39136565872	 -0.427924525141	 
21.5	 -1.37863556443	 -0.612480960237	 
21.5	 -1.30783237626	 -0.753380077726	 
21.5	 -1.13407883678	 -0.816884727588	 
21.5	 -0.960325297298	 -0.88038937745	 
21.5	 -0.783275167496	 -0.92527103176	 
21.5	 -0.598280213414	 -0.92527103176	 
21.5	 -0.413285259332	 -0.92527103176	 
21.5	 -0.22829030525	 -0.92527103176	 
21.5	 -0.0436221587763	 -0.920649332014	 
21.5	 0.139532003702	 -0.894616932918	 
21.5	 0.32268616618	 -0.868584533822	 
21.5	 0.504319654508	 -0.886696917306	 
22.0	 -0.188821742007	 -0.911407491499	 
22.0	 -0.00302952804135	 -0.911407491499	 
22.0	 0.182762685925	 -0.911407491499	 
22.0	 0.368554899891	 -0.911407491499	 
22.0	 0.554347113856	 -0.911407491499	 
22.0	 0.740139327822	 -0.911407491499	 
22.0	 0.902574801114	 -0.825234033992	 
22.0	 1.06293696204	 -0.731411200353	 
22.0	 1.22329912297	 -0.637588366713	 
22.0	 1.3836612839	 -0.543765533074	 
22.0	 1.54402344484	 -0.449942699435	 
22.0	 1.69873573266	 -0.353295880913	 
22.0	 1.6775269542	 -0.168718161546	 
22.0	 1.65631817574	 0.0158595578204	 
22.0	 1.63510939728	 0.200437277187	 
22.0	 1.61390061882	 0.385014996553	 
22.0	 1.59269184036	 0.56959271592	 
22.0	 1.57148306189	 0.754170435287	 
22.0	 1.45917537444	 0.881692042059	 
22.0	 1.30236870797	 0.98134351531	 
22.0	 1.1455620415	 1.08099498856	 
22.0	 0.988755375035	 1.18064646181	 
22.0	 0.831948708566	 1.28029793506	 
22.0	 0.675142042097	 1.37994940832	 
22.0	 0.518335375627	 1.47960088157	 
22.0	 0.361528709158	 1.57925235482	 
22.0	 0.194464267446	 1.64693131912	 
22.0	 0.00895090612177	 1.65710675721	 
22.0	 -0.176562455203	 1.6672821953	 
22.0	 -0.362075816528	 1.6774576334	 
22.0	 -0.547589177852	 1.68763307149	 
22.0	 -0.733102539177	 1.69780850958	 
22.0	 -0.918615900502	 1.70798394768	 
22.0	 -1.0143323102	 1.60736445193	 
22.0	 -1.04279559627	 1.42376546469	 
22.0	 -1.07125888233	 1.24016647744	 
22.0	 -1.09972216839	 1.0565674902	 
22.0	 -1.12818545446	 0.872968502957	 
22.0	 -1.15664874052	 0.689369515714	 
22.0	 -1.18511202659	 0.50577052847	 
22.0	 -1.21357531265	 0.322171541227	 
22.0	 -1.18406230441	 0.143247859809	 
22.0	 -1.12654668422	 -0.0334176439113	 
22.0	 -1.06903106403	 -0.210083147632	 
22.0	 -1.01151544384	 -0.386748651353	 
22.0	 -0.920400759895	 -0.547351341395	 
22.0	 -0.819023118263	 -0.703047585882	 
22.0	 -0.717645476631	 -0.85874383037	 
22.0	 -0.560406169939	 -0.911407491499	 
22.0	 -0.374613955973	 -0.911407491499	 
22.5	 -1.04929925123	 -0.925511546072	 
22.5	 -0.870777304645	 -0.937400002628	 
22.5	 -0.69225535806	 -0.949288459183	 
22.5	 -0.513733411475	 -0.961176915739	 
22.5	 -0.33521146489	 -0.973065372294	 
22.5	 -0.160285710692	 -1.00767709171	 
22.5	 0.0131830956827	 -1.05149482815	 
22.5	 0.186651902058	 -1.09531256458	 
22.5	 0.360120708433	 -1.13913030102	 
22.5	 0.533589514807	 -1.18294803746	 
22.5	 0.707058321182	 -1.2267657739	 
22.5	 0.850393602257	 -1.13152207466	 
22.5	 0.990164175568	 -1.01982781497	 
22.5	 1.11600402564	 -0.898794293129	 
22.5	 1.16623710082	 -0.727073417957	 
22.5	 1.216470176	 -0.555352542785	 
22.5	 1.26670325118	 -0.383631667612	 
22.5	 1.31693632636	 -0.21191079244	 
22.5	 1.30980563666	 -0.0331432752178	 
22.5	 1.30262773948	 0.145630041035	 
22.5	 1.2954498423	 0.324403357287	 
22.5	 1.28827194512	 0.50317667354	 
22.5	 1.27796982847	 0.681642263849	 
22.5	 1.25013093526	 0.858380535982	 
22.5	 1.22229204205	 1.03511880812	 
22.5	 1.19445314884	 1.21185708025	 
22.5	 1.11762244301	 1.35685158896	 
22.5	 0.967688441493	 1.45447953578	 
22.5	 0.817754439974	 1.5521074826	 
22.5	 0.667820438456	 1.64973542942	 
22.5	 0.513693992735	 1.71218962026	 
22.5	 0.345013475025	 1.65253810095	 
22.5	 0.176332957315	 1.59288658163	 
22.5	 0.00765243960495	 1.53323506231	 
22.5	 -0.161028078105	 1.473583543	 
22.5	 -0.329708595815	 1.41393202368	 
22.5	 -0.487708758654	 1.3376561414	 
22.5	 -0.612080166187	 1.20903587161	 
22.5	 -0.736451573719	 1.08041560183	 
22.5	 -0.860822981252	 0.95179533204	 
22.5	 -0.985194388785	 0.823175062253	 
22.5	 -1.06030513933	 0.670883786882	 
22.5	 -1.08301786977	 0.493413922715	 
22.5	 -1.10573060022	 0.315944058548	 
22.5	 -1.12844333067	 0.138474194381	 
22.5	 -1.15115606112	 -0.0389956697857	 
22.5	 -1.14287125466	 -0.217382369172	 
22.5	 -1.13068734677	 -0.395884394932	 
22.5	 -1.1177932439	 -0.574293300226	 
22.5	 -1.08354624756	 -0.749902423149	 
23.0	 1.06767130772	 -0.818933745629	 
23.0	 1.06767130772	 -0.635366798262	 
23.0	 1.06767130772	 -0.451799850895	 
23.0	 1.06767130772	 -0.268232903527	 
23.0	 1.06767130772	 -0.0846659561602	 
23.0	 1.06711649281	 0.0988749427251	 
23.0	 1.0499175197	 0.281634400729	 
23.0	 1.0327185466	 0.464393858732	 
23.0	 1.01551957349	 0.647153316736	 
23.0	 0.998320600381	 0.829912774739	 
23.0	 0.944196953467	 1.00285376269	 
23.0	 0.868349270913	 1.17001821231	 
23.0	 0.792501588359	 1.33718266193	 
23.0	 0.716653905805	 1.50434711155	 
23.0	 0.626039565432	 1.64859588094	 
23.0	 0.442472618065	 1.64859588094	 
23.0	 0.258905670698	 1.64859588094	 
23.0	 0.0753387233308	 1.64859588094	 
23.0	 -0.108228224036	 1.64859588094	 
23.0	 -0.291795171404	 1.64859588094	 
23.0	 -0.474295130262	 1.63120945923	 
23.0	 -0.656484579567	 1.60876332978	 
23.0	 -0.838674028872	 1.58631720032	 
23.0	 -1.02086347818	 1.56387107086	 
23.0	 -1.20305292748	 1.5414249414	 
23.0	 -1.29111586814	 1.3808000355	 
23.0	 -1.37870273341	 1.21947624557	 
23.0	 -1.46628959869	 1.05815245564	 
23.0	 -1.55387646397	 0.896828665717	 
23.0	 -1.58257661925	 0.720550277774	 
23.0	 -1.58257661925	 0.536983330407	 
23.0	 -1.58257661925	 0.35341638304	 
23.0	 -1.58257661925	 0.169849435672	 
23.0	 -1.56065494792	 -0.00897682414242	 
23.0	 -1.48480726536	 -0.176141273763	 
23.0	 -1.40895958281	 -0.343305723383	 
23.0	 -1.33311190026	 -0.510470173004	 
23.0	 -1.2572642177	 -0.677634622624	 
23.0	 -1.10285615193	 -0.757088820537	 
23.0	 -0.928378504561	 -0.814135947835	 
23.0	 -0.753900857188	 -0.871183075132	 
23.0	 -0.570555795331	 -0.872575694033	 
23.0	 -0.386988847964	 -0.872575694033	 
23.0	 -0.203421900597	 -0.872575694033	 
23.0	 -0.0205949766868	 -0.880997698791	 
23.0	 0.16015913551	 -0.913009807277	 
23.0	 0.341930786617	 -0.914534883918	 
23.0	 0.524417141555	 -0.894646333766	 
23.0	 0.706903496493	 -0.874757783615	 
23.0	 0.885977584881	 -0.835017459983	 
23.5	 1.14124691646	 -0.679136683325	 
23.5	 1.14124691646	 -0.494849952184	 
23.5	 1.14124691646	 -0.310563221043	 
23.5	 1.14124691646	 -0.126276489902	 
23.5	 1.14124691646	 0.058010241239	 
23.5	 1.11217492716	 0.239915337974	 
23.5	 1.08218195502	 0.421744985989	 
23.5	 1.05218898289	 0.603574634003	 
23.5	 1.02219601075	 0.785404282018	 
23.5	 0.992203038615	 0.967233930032	 
23.5	 0.950784795762	 1.14394678942	 
23.5	 0.835100502009	 1.28739972057	 
23.5	 0.719416208256	 1.43085265171	 
23.5	 0.603731914503	 1.57430558285	 
23.5	 0.433436747381	 1.61550503781	 
23.5	 0.249878059357	 1.63186985757	 
23.5	 0.0663193713331	 1.64823467732	 
23.5	 -0.117239316691	 1.66459949707	 
23.5	 -0.300798004715	 1.68096431683	 
23.5	 -0.484356692739	 1.69732913658	 
23.5	 -0.665833075971	 1.69208434484	 
23.5	 -0.842889521974	 1.64097060692	 
23.5	 -1.01994596798	 1.58985686901	 
23.5	 -1.19700241398	 1.5387431311	 
23.5	 -1.35054770149	 1.46587771637	 
23.5	 -1.38776269823	 1.28538770752	 
23.5	 -1.42497769497	 1.10489769868	 
23.5	 -1.4621926917	 0.924407689834	 
23.5	 -1.49940768844	 0.74391768099	 
23.5	 -1.51932871701	 0.561663319054	 
23.5	 -1.51932871701	 0.377376587913	 
23.5	 -1.51932871701	 0.193089856773	 
23.5	 -1.51932871701	 0.00880312563166	 
23.5	 -1.45647125248	 -0.159697619541	 
23.5	 -1.36939962834	 -0.322117235179	 
23.5	 -1.2823280042	 -0.484536850817	 
23.5	 -1.19525638006	 -0.646956466455	 
23.5	 -1.10818475592	 -0.809376082093	 
23.5	 -0.982777472602	 -0.93251689914	 
23.5	 -0.818290010338	 -1.01561608104	 
23.5	 -0.642629620949	 -1.04246651553	 
23.5	 -0.458869766392	 -1.02854117432	 
23.5	 -0.275109911835	 -1.01461583311	 
23.5	 -0.0913500572781	 -1.0006904919	 
23.5	 0.0795257487742	 -0.937540475086	 
23.5	 0.24654423602	 -0.859653222003	 
23.5	 0.414335558458	 -0.785251790094	 
23.5	 0.598130908727	 -0.778085368501	 
23.5	 0.780692918991	 -0.752931607694	 
23.5	 0.962572382738	 -0.724269933526	 
24.0	 1.12160418738	 -0.532837083594	 
24.0	 1.11262955288	 -0.346714604584	 
24.0	 1.10365491839	 -0.160592125574	 
24.0	 1.09468028389	 0.0255303534365	 
24.0	 1.07717144443	 0.210885292442	 
24.0	 1.05279212154	 0.395622321411	 
24.0	 1.02841279865	 0.58035935038	 
24.0	 1.00403347575	 0.76509637935	 
24.0	 0.979654152858	 0.949833408319	 
24.0	 0.928935273715	 1.12684385112	 
24.0	 0.849655378402	 1.29547605284	 
24.0	 0.770375483089	 1.46410825456	 
24.0	 0.691095587776	 1.63274045628	 
24.0	 0.510738319173	 1.66882755244	 
24.0	 0.327139358865	 1.70066374302	 
24.0	 0.143540398557	 1.73249993361	 
24.0	 -0.0400585617508	 1.76433612419	 
24.0	 -0.223657522059	 1.79617231478	 
24.0	 -0.407256482367	 1.82800850536	 
24.0	 -0.590855442675	 1.85984469595	 
24.0	 -0.770610768368	 1.86607661563	 
24.0	 -0.936769601526	 1.78173585786	 
24.0	 -1.10292843468	 1.6973951001	 
24.0	 -1.26908726784	 1.61305434233	 
24.0	 -1.41498696394	 1.51591019951	 
24.0	 -1.41985221318	 1.32963499824	 
24.0	 -1.42471746243	 1.14335979697	 
24.0	 -1.42958271167	 0.957084595706	 
24.0	 -1.43444796092	 0.770809394439	 
24.0	 -1.43931321016	 0.584534193172	 
24.0	 -1.44417845941	 0.398258991905	 
24.0	 -1.42311803186	 0.213662676297	 
24.0	 -1.3942686815	 0.0295707529522	 
24.0	 -1.36541933113	 -0.154521170392	 
24.0	 -1.33656998077	 -0.338613093737	 
24.0	 -1.29004622176	 -0.518048738592	 
24.0	 -1.22444893877	 -0.692459511545	 
24.0	 -1.15885165578	 -0.866870284497	 
24.0	 -1.02025761945	 -0.964471348006	 
24.0	 -0.842735603965	 -1.02111104501	 
24.0	 -0.658668722811	 -1.0038571804	 
24.0	 -0.473955086411	 -0.979301248632	 
24.0	 -0.28924145001	 -0.954745316867	 
24.0	 -0.104527813609	 -0.930189385103	 
24.0	 0.0768457307101	 -0.887924328664	 
24.0	 0.257813821912	 -0.843509565084	 
24.0	 0.441088055096	 -0.810936076149	 
24.0	 0.625497571887	 -0.784191892217	 
24.0	 0.790735950861	 -0.702349334987	 
24.0	 0.951917471867	 -0.608847257238	 
24.5	 1.12158084712	 -0.553607280526	 
24.5	 1.10553746044	 -0.364174174864	 
24.5	 1.08949407376	 -0.174741069203	 
24.5	 1.07345068708	 0.0146920364578	 
24.5	 1.05631775322	 0.204026085511	 
24.5	 1.03793570027	 0.393246570411	 
24.5	 1.01955364732	 0.582467055312	 
24.5	 1.00117159437	 0.771687540212	 
24.5	 0.982789541425	 0.960908025112	 
24.5	 0.92979832295	 1.14282673033	 
24.5	 0.870173374421	 1.32334586309	 
24.5	 0.810548425892	 1.50386499584	 
24.5	 0.750923477362	 1.68438412859	 
24.5	 0.619204981202	 1.77818945221	 
24.5	 0.430833915976	 1.80385330933	 
24.5	 0.24246285075	 1.82951716645	 
24.5	 0.0540917855242	 1.85518102357	 
24.5	 -0.134279279702	 1.88084488069	 
24.5	 -0.322650344927	 1.90650873781	 
24.5	 -0.502176289917	 1.87457162944	 
24.5	 -0.67416810813	 1.79357097361	 
24.5	 -0.846159926344	 1.71257031778	 
24.5	 -1.01815174456	 1.63156966196	 
24.5	 -1.18090474453	 1.54195110918	 
24.5	 -1.24976305759	 1.36474833127	 
24.5	 -1.31862137064	 1.18754555335	 
24.5	 -1.3874796837	 1.01034277544	 
24.5	 -1.45633799676	 0.833139997531	 
24.5	 -1.51641526297	 0.654051797889	 
24.5	 -1.52636876748	 0.464201278994	 
24.5	 -1.536322272	 0.2743507601	 
24.5	 -1.54627577651	 0.0845002412053	 
24.5	 -1.55622928102	 -0.105350277689	 
24.5	 -1.56618278554	 -0.295200796584	 
24.5	 -1.5464624746	 -0.481406757478	 
24.5	 -1.49086269874	 -0.663205978325	 
24.5	 -1.43526292287	 -0.845005199172	 
24.5	 -1.26046257706	 -0.890575525295	 
24.5	 -1.07289177159	 -0.92155107554	 
24.5	 -0.885320966121	 -0.952526625786	 
24.5	 -0.696281431411	 -0.96559409394	 
24.5	 -0.506170169838	 -0.96559409394	 
24.5	 -0.316473116382	 -0.958274029441	 
24.5	 -0.127575402608	 -0.936827689249	 
24.5	 0.0613223111659	 -0.915381349057	 
24.5	 0.228064863425	 -0.825868911735	 
24.5	 0.39339462848	 -0.732016045165	 
24.5	 0.562395992887	 -0.647221097146	 
24.5	 0.746574482201	 -0.600135569861	 
24.5	 0.931966407002	 -0.558038942975	 
25.0	 1.10038382055	 -0.620062542793	 
25.0	 1.10038382055	 -0.428678923117	 
25.0	 1.10038382055	 -0.237295303441	 
25.0	 1.10038382055	 -0.0459116837651	 
25.0	 1.08734978017	 0.144684120329	 
25.0	 1.06429842158	 0.334674448365	 
25.0	 1.04124706299	 0.524664776402	 
25.0	 1.0181957044	 0.714655104439	 
25.0	 0.992007102758	 0.904178631949	 
25.0	 0.958745951199	 1.09264981191	 
25.0	 0.925484799641	 1.28112099188	 
25.0	 0.863537108835	 1.45726969708	 
25.0	 0.749740653135	 1.61114645475	 
25.0	 0.631689270173	 1.75780863952	 
25.0	 0.441962885168	 1.78294006832	 
25.0	 0.252236500163	 1.80807149711	 
25.0	 0.0625101151584	 1.83320292591	 
25.0	 -0.127216269847	 1.8583343547	 
25.0	 -0.316942654852	 1.88346578349	 
25.0	 -0.506343850221	 1.90646307053	 
25.0	 -0.679974963036	 1.8259650796	 
25.0	 -0.85360607585	 1.74546708868	 
25.0	 -1.02723718866	 1.66496909775	 
25.0	 -1.18447380983	 1.56505826975	 
25.0	 -1.29290153687	 1.40735247439	 
25.0	 -1.40132926391	 1.24964667904	 
25.0	 -1.50975699096	 1.09194088368	 
25.0	 -1.618184718	 0.934235088325	 
25.0	 -1.7134302057	 0.772434868483	 
25.0	 -1.7134302057	 0.581051248807	 
25.0	 -1.7134302057	 0.389667629131	 
25.0	 -1.7134302057	 0.198284009455	 
25.0	 -1.7134302057	 0.00690038977865	 
25.0	 -1.6867572179	 -0.179206416412	 
25.0	 -1.61388507292	 -0.35617347653	 
25.0	 -1.54101292794	 -0.533140536647	 
25.0	 -1.4470162022	 -0.691257902071	 
25.0	 -1.27945904565	 -0.783736489694	 
25.0	 -1.1119018891	 -0.876215077317	 
25.0	 -0.932685643027	 -0.923440782615	 
25.0	 -0.741302023351	 -0.923440782615	 
25.0	 -0.550733014595	 -0.90968727193	 
25.0	 -0.360687490662	 -0.887095487731	 
25.0	 -0.170145978187	 -0.872877742644	 
25.0	 0.0212376414885	 -0.872877742644	 
25.0	 0.208516797384	 -0.850864822096	 
25.0	 0.387040148481	 -0.781893067055	 
25.0	 0.562623796537	 -0.705814967123	 
25.0	 0.737700687166	 -0.628511847858	 
25.0	 0.916635930501	 -0.569499502823	 
25.5	 0.995703715583	 -1.00092843347	 
25.5	 0.988687365463	 -0.817030584283	 
25.5	 0.981671015344	 -0.633132735096	 
25.5	 0.974654665225	 -0.44923488591	 
25.5	 0.967638315106	 -0.265337036724	 
25.5	 0.966677746497	 -0.0814331156706	 
25.5	 0.973325310231	 0.102478433724	 
25.5	 0.979972873965	 0.286389983119	 
25.5	 0.986620437699	 0.470301532513	 
25.5	 0.993268001433	 0.654213081908	 
25.5	 0.969684314878	 0.835260558844	 
25.5	 0.928617885261	 1.01465174163	 
25.5	 0.887551455643	 1.19404292442	 
25.5	 0.846485026026	 1.37343410721	 
25.5	 0.805418596408	 1.55282529	 
25.5	 0.627796242169	 1.57857751875	 
25.5	 0.444825827242	 1.59831264899	 
25.5	 0.261855412315	 1.61804777923	 
25.5	 0.0788849973872	 1.63778290948	 
25.5	 -0.104034568725	 1.64742337544	 
25.5	 -0.2867968843	 1.62584597731	 
25.5	 -0.469559199875	 1.60426857918	 
25.5	 -0.65232151545	 1.58269118105	 
25.5	 -0.835083831025	 1.56111378292	 
25.5	 -1.0178461466	 1.53953638479	 
25.5	 -1.20060846217	 1.51795898666	 
