32.5	 -1.60643354796	 0.4228450311	 
32.5	 -1.57286667214	 0.244747240223	 
32.5	 -1.53929979632	 0.0666494493455	 
32.5	 -1.5057329205	 -0.111448341532	 
32.5	 -1.47216604469	 -0.289546132409	 
32.5	 -1.41766707332	 -0.456798306455	 
32.5	 -1.29152900236	 -0.586931873694	 
32.5	 -1.16539093141	 -0.717065440934	 
32.5	 -0.998745534373	 -0.769892360629	 
32.5	 -0.819953054784	 -0.799537048347	 
32.5	 -0.641160575195	 -0.829181736065	 
32.5	 -0.462368095606	 -0.858826423782	 
32.5	 -0.283535314626	 -0.888220675105	 
32.5	 -0.104469088279	 -0.916164276329	 
32.5	 0.0745971380676	 -0.944107877553	 
32.5	 0.253663364414	 -0.972051478776	 
32.5	 0.43293191625	 -0.998661483836	 
32.5	 0.611761843022	 -1.0274938126	 
32.5	 0.78794401266	 -1.06998382753	 
33.0	 1.0934837228	 -0.740310961704	 
33.0	 1.0934837228	 -0.544666603898	 
33.0	 1.0934837228	 -0.349022246093	 
33.0	 1.0934837228	 -0.153377888288	 
33.0	 1.09958492899	 0.0419140923683	 
33.0	 1.1221088037	 0.23625757646	 
33.0	 1.14463267842	 0.430601060552	 
33.0	 1.16715655313	 0.624944544644	 
33.0	 1.13746295456	 0.818016371999	 
33.0	 1.1055056631	 1.01103307144	 
33.0	 1.07354837163	 1.20404977088	 
33.0	 1.04159108017	 1.39706647032	 
33.0	 0.967057637029	 1.5569773679	 
33.0	 0.787866966565	 1.63551028049	 
33.0	 0.608676296102	 1.71404319308	 
33.0	 0.429485625638	 1.79257610567	 
33.0	 0.250294955175	 1.87110901826	 
33.0	 0.0564727472783	 1.86472888131	 
33.0	 -0.13866782162	 1.85069773343	 
33.0	 -0.333808390519	 1.83666658554	 
33.0	 -0.528948959417	 1.82263543765	 
33.0	 -0.724089528315	 1.80860428977	 
33.0	 -0.919230097214	 1.79457314188	 
33.0	 -1.07749353646	 1.69037558177	 
33.0	 -1.22653850601	 1.56363840572	 
33.0	 -1.37558347557	 1.43690122967	 
33.0	 -1.52462844512	 1.31016405362	 
33.0	 -1.67367341467	 1.18342687757	 
33.0	 -1.81503915218	 1.05378938889	 
33.0	 -1.78698867912	 0.860166338344	 
33.0	 -1.75893820606	 0.666543287799	 
33.0	 -1.730887733	 0.472920237254	 
33.0	 -1.70283725994	 0.27929718671	 
33.0	 -1.67478678688	 0.0856741361652	 
33.0	 -1.59066746271	 -0.0870513435813	 
33.0	 -1.48514799472	 -0.251800718743	 
33.0	 -1.37962852673	 -0.416550093906	 
33.0	 -1.27410905874	 -0.581299469068	 
33.0	 -1.16858959075	 -0.74604884423	 
33.0	 -1.00157269866	 -0.83265218311	 
33.0	 -0.816633240287	 -0.896480949958	 
33.0	 -0.624783515959	 -0.893193046449	 
33.0	 -0.430882527671	 -0.867590412375	 
33.0	 -0.242860288501	 -0.813513131393	 
33.0	 -0.051484643406	 -0.783227539194	 
33.0	 0.138474284363	 -0.739655514739	 
33.0	 0.327568111955	 -0.689453531636	 
33.0	 0.518648714933	 -0.654477806723	 
33.0	 0.714293072738	 -0.654477806723	 
33.0	 0.905461483628	 -0.686233680722	 
33.5	 -1.14725861493	 -0.564290797759	 
33.5	 -0.976745353778	 -0.636626576317	 
33.5	 -0.806232092626	 -0.708962354876	 
33.5	 -0.635718831474	 -0.781298133434	 
33.5	 -0.475532612418	 -0.870869509648	 
33.5	 -0.33132324577	 -0.987105888031	 
33.5	 -0.187113879122	 -1.10334226641	 
33.5	 -0.0179454785144	 -1.16907282421	 
33.5	 0.161987178673	 -1.21302138467	 
33.5	 0.341919835861	 -1.25696994512	 
33.5	 0.521852493048	 -1.30091850557	 
33.5	 0.701785150236	 -1.34486706602	 
33.5	 0.881717807424	 -1.38881562648	 
33.5	 1.06289867162	 -1.37146006373	 
33.5	 1.24447112535	 -1.33487207204	 
33.5	 1.42604357908	 -1.29828408035	 
33.5	 1.49749488964	 -1.13585604055	 
33.5	 1.55784413448	 -0.9607412047	 
33.5	 1.59340848834	 -0.784847101122	 
33.5	 1.54417922294	 -0.606286980946	 
33.5	 1.49494995755	 -0.427726860771	 
33.5	 1.44572069216	 -0.249166740595	 
33.5	 1.39649142676	 -0.0706066204186	 
33.5	 1.34726216137	 0.107953499757	 
33.5	 1.32353840341	 0.291583718479	 
33.5	 1.3007335469	 0.47539660053	 
33.5	 1.27792869039	 0.659209482582	 
33.5	 1.25512383388	 0.843022364633	 
33.5	 1.23231897737	 1.02683524668	 
33.5	 1.17373764158	 1.19003920327	 
33.5	 1.026172165	 1.30198413263	 
33.5	 0.878606688414	 1.41392906199	 
33.5	 0.73104121183	 1.52587399135	 
33.5	 0.562494966445	 1.5754477186	 
33.5	 0.377272837399	 1.5754477186	 
33.5	 0.192050708352	 1.5754477186	 
33.5	 0.00682857930605	 1.5754477186	 
33.5	 -0.150494441932	 1.48387603576	 
33.5	 -0.304251330443	 1.38059943472	 
33.5	 -0.444512883596	 1.26259658753	 
33.5	 -0.560784329547	 1.11841549326	 
33.5	 -0.677055775499	 0.974234398992	 
33.5	 -0.79332722145	 0.830053304722	 
33.5	 -0.875922654666	 0.665896225058	 
33.5	 -0.946707434046	 0.494733284862	 
33.5	 -0.976054102079	 0.312344301855	 
33.5	 -1.00134790157	 0.128857351922	 
33.5	 -1.01776205169	 -0.0552387505472	 
33.5	 -1.01776205169	 -0.240460879594	 
33.5	 -1.02920781503	 -0.421562924758	 
34.0	 1.00154334089	 -0.83442552514	 
34.0	 1.00862150343	 -0.655256856506	 
34.0	 1.01569966598	 -0.476088187872	 
34.0	 1.02277782852	 -0.296919519238	 
34.0	 1.02985599107	 -0.117750850604	 
34.0	 1.03693415362	 0.0614178180295	 
34.0	 1.02994496423	 0.239760903367	 
34.0	 1.00195751249	 0.416871644854	 
34.0	 0.973970060749	 0.593982386341	 
34.0	 0.945982609007	 0.771093127828	 
34.0	 0.917995157264	 0.948203869314	 
34.0	 0.890007705521	 1.1253146108	 
34.0	 0.786771875069	 1.26285901542	 
34.0	 0.656723565599	 1.38630515513	 
34.0	 0.526675256128	 1.50975129484	 
34.0	 0.396626946658	 1.63319743455	 
34.0	 0.266578637187	 1.75664357425	 
34.0	 0.0996873112134	 1.73250058675	 
34.0	 -0.0731204242391	 1.68465710472	 
34.0	 -0.245928159692	 1.63681362269	 
34.0	 -0.418735895144	 1.58897014066	 
34.0	 -0.591543630597	 1.54112665863	 
34.0	 -0.764351366049	 1.4932831766	 
34.0	 -0.937159101502	 1.44543969457	 
34.0	 -1.07392198086	 1.34617481991	 
34.0	 -1.17783444773	 1.20004572824	 
34.0	 -1.2817469146	 1.05391663656	 
34.0	 -1.38565938146	 0.907787544883	 
34.0	 -1.48957184833	 0.761658453206	 
34.0	 -1.5934843152	 0.615529361529	 
34.0	 -1.69739678207	 0.469400269853	 
34.0	 -1.69376682587	 0.308092588046	 
34.0	 -1.63435729999	 0.138912150525	 
34.0	 -1.57494777411	 -0.0302682869965	 
34.0	 -1.51553824823	 -0.199448724518	 
34.0	 -1.45612872235	 -0.368629162039	 
34.0	 -1.36788100032	 -0.515470481743	 
34.0	 -1.21892016458	 -0.615281210717	 
34.0	 -1.06995932883	 -0.71509193969	 
34.0	 -0.92099849308	 -0.814902668664	 
34.0	 -0.772037657331	 -0.914713397637	 
34.0	 -0.599104173665	 -0.943791282261	 
34.0	 -0.420153703839	 -0.955115661019	 
34.0	 -0.241203234014	 -0.966440039777	 
34.0	 -0.0622527641883	 -0.977764418535	 
34.0	 0.116014653683	 -0.974521025652	 
34.0	 0.293120391124	 -0.94650192555	 
34.0	 0.470226128565	 -0.918482825447	 
34.0	 0.647331866006	 -0.890463725345	 
34.0	 0.824437603447	 -0.862444625242	 
34.5	 0.946309022129	 -0.790366157701	 
34.5	 1.02165157902	 -0.621629084367	 
34.5	 1.09699413591	 -0.452892011033	 
34.5	 1.13154639959	 -0.278568946543	 
34.5	 1.10434207843	 -0.0957886803595	 
34.5	 1.07713775728	 0.0869915858244	 
34.5	 1.01692195252	 0.258381105652	 
34.5	 0.92561976797	 0.419044144006	 
34.5	 0.834317583424	 0.57970718236	 
34.5	 0.767955946949	 0.750152766848	 
34.5	 0.725680290516	 0.930045706312	 
34.5	 0.683404634083	 1.10993864578	 
34.5	 0.641128977649	 1.28983158524	 
34.5	 0.598853321216	 1.46972452471	 
34.5	 0.449292450855	 1.56463638299	 
34.5	 0.283855289693	 1.64697256278	 
34.5	 0.118418128532	 1.72930874257	 
34.5	 -0.0470190326304	 1.81164492236	 
34.5	 -0.219288891093	 1.81154595556	 
34.5	 -0.396024300292	 1.75757099904	 
34.5	 -0.572759709491	 1.70359604252	 
34.5	 -0.74949511869	 1.649621086	 
34.5	 -0.926230527889	 1.59564612948	 
34.5	 -1.07619350594	 1.4932252471	 
34.5	 -1.21593458478	 1.37230737547	 
34.5	 -1.35567566363	 1.25138950384	 
34.5	 -1.49541674248	 1.13047163222	 
34.5	 -1.63515782132	 1.00955376059	 
34.5	 -1.77489890017	 0.888635888962	 
34.5	 -1.82867418182	 0.732961747735	 
34.5	 -1.81223719927	 0.548900544869	 
34.5	 -1.79580021673	 0.364839342002	 
34.5	 -1.77936323418	 0.180778139136	 
34.5	 -1.76292625163	 -0.0032830637308	 
34.5	 -1.65997456135	 -0.148180424169	 
34.5	 -1.53251866976	 -0.281985119514	 
34.5	 -1.40506277818	 -0.415789814859	 
34.5	 -1.27760688659	 -0.549594510204	 
34.5	 -1.15015099501	 -0.683399205549	 
34.5	 -0.988413942114	 -0.769501016555	 
34.5	 -0.820951665016	 -0.847636069797	 
34.5	 -0.652859305042	 -0.92388091691	 
34.5	 -0.472008963665	 -0.961852680365	 
34.5	 -0.291158622288	 -0.99982444382	 
34.5	 -0.110308280911	 -1.03779620728	 
34.5	 0.072821174882	 -1.0538215436	 
34.5	 0.257614845758	 -1.0538215436	 
34.5	 0.432136074991	 -0.996926056933	 
34.5	 0.605262253737	 -0.932303870117	 
34.5	 0.77766066035	 -0.865907079495	 
35.0	 0.682568693579	 -0.929989327707	 
35.0	 0.871089075113	 -0.894618479714	 
35.0	 1.05960945665	 -0.859247631721	 
35.0	 1.24812983818	 -0.823876783728	 
35.0	 1.41977613799	 -0.775383309603	 
35.0	 1.40763017186	 -0.583958372231	 
35.0	 1.39548420573	 -0.392533434859	 
35.0	 1.38333823959	 -0.201108497487	 
35.0	 1.26514294609	 -0.0725101575122	 
35.0	 1.10309067139	 0.0301060761251	 
35.0	 0.941038396692	 0.132722309762	 
35.0	 0.778986121992	 0.2353385434	 
35.0	 0.696215182506	 0.3936515221	 
35.0	 0.654631871326	 0.580899644581	 
35.0	 0.613048560146	 0.768147767061	 
35.0	 0.571465248965	 0.955395889542	 
35.0	 0.529881937785	 1.14264401202	 
35.0	 0.411023914683	 1.28255698059	 
35.0	 0.263106351265	 1.40466932875	 
35.0	 0.115188787846	 1.52678167691	 
35.0	 -0.0327287755726	 1.64889402507	 
35.0	 -0.204621606225	 1.71597934733	 
35.0	 -0.394771091361	 1.74116276338	 
35.0	 -0.584920576497	 1.76634617942	 
35.0	 -0.775070061634	 1.79152959546	 
35.0	 -0.930986750768	 1.68879244141	 
35.0	 -1.08314333139	 1.5720045734	 
35.0	 -1.23529991201	 1.45521670539	 
35.0	 -1.38745649263	 1.33842883737	 
35.0	 -1.53961307326	 1.22164096936	 
35.0	 -1.69176965388	 1.10485310135	 
35.0	 -1.69616855615	 0.915212132372	 
35.0	 -1.69616855615	 0.723402249568	 
35.0	 -1.69616855615	 0.531592366764	 
35.0	 -1.69616855615	 0.33978248396	 
35.0	 -1.69616855615	 0.147972601157	 
35.0	 -1.64842932807	 -0.0288248920011	 
35.0	 -1.5386497631	 -0.186112775378	 
35.0	 -1.42887019814	 -0.343400658755	 
35.0	 -1.31909063317	 -0.500688542132	 
35.0	 -1.18622696078	 -0.6277054066	 
35.0	 -1.00549753693	 -0.691954192568	 
35.0	 -0.824768113089	 -0.756202978536	 
35.0	 -0.644038689245	 -0.820451764505	 
35.0	 -0.463157342851	 -0.883819644772	 
35.0	 -0.271347460047	 -0.883819644772	 
35.0	 -0.0795375772432	 -0.883819644772	 
35.0	 0.112272305561	 -0.883819644772	 
35.0	 0.301306326504	 -0.908786362247	 
35.0	 0.490758810776	 -0.929989327707	 
35.5	 1.08703271591	 -0.658736619548	 
35.5	 1.01762423195	 -0.485955771432	 
35.5	 0.948215747996	 -0.313174923315	 
35.5	 0.878807264039	 -0.140394075199	 
35.5	 0.853541201753	 0.0409216328375	 
35.5	 0.853541201753	 0.227122489766	 
35.5	 0.853541201753	 0.413323346695	 
35.5	 0.853541201753	 0.599524203624	 
35.5	 0.827716536156	 0.78186146888	 
35.5	 0.773221784014	 0.959909443061	 
35.5	 0.718727031872	 1.13795741724	 
35.5	 0.66423227973	 1.31600539142	 
35.5	 0.609737527588	 1.49405336561	 
35.5	 0.555242775446	 1.67210133979	 
35.5	 0.41248431424	 1.7716444346	 
35.5	 0.242007539939	 1.84653387674	 
35.5	 0.0715307656374	 1.92142331889	 
35.5	 -0.0989460086638	 1.99631276103	 
35.5	 -0.26913288391	 1.93868531438	 
35.5	 -0.439280366003	 1.86305070948	 
35.5	 -0.609427848096	 1.78741610458	 
35.5	 -0.779575330189	 1.71178149968	 
35.5	 -0.949722812282	 1.63614689478	 
35.5	 -1.11987029438	 1.56051228988	 
35.5	 -1.25474530503	 1.44493525609	 
35.5	 -1.35084617961	 1.28545052006	 
35.5	 -1.44694705418	 1.12596578403	 
35.5	 -1.54304792875	 0.966481047994	 
35.5	 -1.63914880333	 0.806996311962	 
35.5	 -1.7352496779	 0.64751157593	 
35.5	 -1.77445791382	 0.479535369102	 
35.5	 -1.72911551356	 0.298939616496	 
35.5	 -1.68377311329	 0.11834386389	 
35.5	 -1.63843071303	 -0.0622518887159	 
35.5	 -1.5834785147	 -0.237386687029	 
35.5	 -1.45153344242	 -0.368768790157	 
35.5	 -1.31958837014	 -0.500150893285	 
35.5	 -1.18061438305	 -0.620382895402	 
35.5	 -1.00517671607	 -0.682771869785	 
35.5	 -0.829739049086	 -0.745160844168	 
35.5	 -0.653728437764	 -0.804857161835	 
35.5	 -0.468088437831	 -0.819298406444	 
35.5	 -0.282448437897	 -0.833739651053	 
35.5	 -0.0968084379641	 -0.848180895662	 
35.5	 0.0892253496979	 -0.852482684121	 
35.5	 0.275426206627	 -0.852482684121	 
35.5	 0.461627063556	 -0.852482684121	 
35.5	 0.644815151364	 -0.881838399929	 
35.5	 0.827134436852	 -0.882178878721	 
35.5	 0.990931841337	 -0.818221355581	 
36.0	 0.921347366087	 -1.02801579057	 
36.0	 0.976113581447	 -0.849673914473	 
36.0	 1.03087979681	 -0.671332038375	 
36.0	 1.08564601217	 -0.492990162276	 
36.0	 1.07352856478	 -0.313462818964	 
36.0	 1.02511673869	 -0.133292182593	 
36.0	 0.97670491261	 0.0468784537789	 
36.0	 0.928293086528	 0.22704909015	 
36.0	 0.910637268818	 0.41233429338	 
36.0	 0.898133192095	 0.598476204782	 
36.0	 0.885629115372	 0.784618116184	 
36.0	 0.851746746677	 0.96150621728	 
36.0	 0.724586823006	 1.09801818352	 
36.0	 0.597426899336	 1.23453014976	 
36.0	 0.470266975665	 1.371042116	 
36.0	 0.343107051994	 1.50755408225	 
36.0	 0.187355750913	 1.58867416824	 
36.0	 0.00242075145146	 1.61325483319	 
36.0	 -0.18251424801	 1.63783549814	 
36.0	 -0.367449247472	 1.66241616309	 
36.0	 -0.552384246933	 1.68699682803	 
36.0	 -0.733916878202	 1.68474559949	 
36.0	 -0.906863673102	 1.61478440133	 
36.0	 -1.079810468	 1.54482320316	 
36.0	 -1.2527572629	 1.47486200499	 
36.0	 -1.4257040578	 1.40490080682	 
36.0	 -1.5986508527	 1.33493960866	 
36.0	 -1.73782893094	 1.24398530327	 
36.0	 -1.72403806765	 1.05793430165	 
36.0	 -1.71024720435	 0.871883300027	 
36.0	 -1.69645634106	 0.685832298405	 
36.0	 -1.68266547776	 0.499781296783	 
36.0	 -1.66887461447	 0.31373029516	 
36.0	 -1.65508375117	 0.127679293538	 
36.0	 -1.60212540728	 -0.0469580919609	 
36.0	 -1.5138119722	 -0.211292812272	 
36.0	 -1.42549853712	 -0.375627532584	 
36.0	 -1.33718510204	 -0.539962252895	 
36.0	 -1.24887166697	 -0.704296973207	 
36.0	 -1.07951631618	 -0.756351395463	 
36.0	 -0.895730532432	 -0.788413036207	 
36.0	 -0.711944748683	 -0.820474676952	 
36.0	 -0.528158964935	 -0.852536317697	 
36.0	 -0.342003646263	 -0.857227224726	 
36.0	 -0.155442227114	 -0.857227224726	 
36.0	 0.0311191920361	 -0.857227224726	 
36.0	 0.217680611186	 -0.857227224726	 
36.0	 0.404242030335	 -0.857227224726	 
36.0	 0.590803449485	 -0.857227224726	 
36.0	 0.756620078488	 -0.940436775761	 
36.5	 1.03609787786	 -0.850654418615	 
36.5	 1.03609787786	 -0.666822117609	 
36.5	 1.03609787786	 -0.482989816604	 
36.5	 1.03609787786	 -0.299157515598	 
36.5	 1.02878488375	 -0.115664960264	 
36.5	 1.01174077928	 0.0673755090211	 
36.5	 0.994696674821	 0.250415978306	 
36.5	 0.977652570359	 0.433456447591	 
36.5	 0.942823737362	 0.612541710433	 
36.5	 0.880684219536	 0.785553256919	 
36.5	 0.81854470171	 0.958564803404	 
36.5	 0.756405183883	 1.13157634989	 
36.5	 0.694265666057	 1.30458789638	 
36.5	 0.598260000597	 1.45332939121	 
36.5	 0.454395703102	 1.56777317129	 
36.5	 0.310531405607	 1.68221695137	 
36.5	 0.166667108112	 1.79666073145	 
36.5	 0.0191187046777	 1.89252772992	 
36.5	 -0.157532219755	 1.84164781453	 
36.5	 -0.334183144187	 1.79076789914	 
36.5	 -0.51083406862	 1.73988798375	 
36.5	 -0.687484993053	 1.68900806836	 
36.5	 -0.864135917485	 1.63812815297	 
36.5	 -1.02329582488	 1.55491422244	 
36.5	 -1.16255147541	 1.43490514491	 
36.5	 -1.30180712594	 1.31489606738	 
36.5	 -1.44106277647	 1.19488698986	 
36.5	 -1.57798539974	 1.07348776587	 
36.5	 -1.61724777528	 0.8938971738	 
36.5	 -1.65651015082	 0.714306581731	 
36.5	 -1.69577252637	 0.534715989662	 
36.5	 -1.73503490191	 0.355125397593	 
36.5	 -1.77429727745	 0.175534805524	 
36.5	 -1.7061905848	 0.0156161250353	 
36.5	 -1.60580758235	 -0.138388964851	 
36.5	 -1.50542457989	 -0.292394054737	 
36.5	 -1.40504157743	 -0.446399144623	 
36.5	 -1.30465857498	 -0.600404234509	 
36.5	 -1.1286153305	 -0.648817837022	 
36.5	 -0.95051304988	 -0.694357847226	 
36.5	 -0.771342799237	 -0.734487876984	 
36.5	 -0.58929555926	 -0.760044036903	 
36.5	 -0.407248319283	 -0.785600196823	 
36.5	 -0.225230918709	 -0.811355647476	 
36.5	 -0.0436820041456	 -0.840240011998	 
36.5	 0.137866910418	 -0.869124376519	 
36.5	 0.319915910204	 -0.89168276678	 
36.5	 0.50374821121	 -0.89168276678	 
36.5	 0.687580512215	 -0.89168276678	 
36.5	 0.852265576852	 -0.850654418615	 
37.0	 -1.01664425824	 -0.549716566304	 
37.0	 -1.07304836925	 -0.377951180851	 
37.0	 -1.12945248025	 -0.206185795398	 
37.0	 -1.18585659126	 -0.034420409945	 
37.0	 -1.24226070226	 0.137344975508	 
37.0	 -1.26247043444	 0.311550482209	 
37.0	 -1.2296317976	 0.489332357856	 
37.0	 -1.19679316076	 0.667114233502	 
37.0	 -1.16395452391	 0.844896109149	 
37.0	 -1.13111588707	 1.0226779848	 
37.0	 -1.03399618585	 1.14716483305	 
37.0	 -0.865375345575	 1.21237053528	 
37.0	 -0.696754505301	 1.27757623751	 
37.0	 -0.528133665026	 1.34278193974	 
37.0	 -0.359512824752	 1.40798764197	 
37.0	 -0.189742737294	 1.46703500823	 
37.0	 -0.0089534362332	 1.46703500823	 
37.0	 0.171835864828	 1.46703500823	 
37.0	 0.345194607502	 1.43482060624	 
37.0	 0.507718345977	 1.35563218656	 
37.0	 0.670242084452	 1.27644376689	 
37.0	 0.832765822926	 1.19725534722	 
37.0	 0.995289561401	 1.11806692755	 
37.0	 1.13445583979	 1.0108033703	 
37.0	 1.24188922828	 0.8653975987	 
37.0	 1.34932261677	 0.719991827098	 
37.0	 1.37807176526	 0.549474166916	 
37.0	 1.37473292004	 0.368715699643	 
37.0	 1.37139407482	 0.187957232371	 
37.0	 1.36805522959	 0.00719876509897	 
37.0	 1.36471638437	 -0.173559702173	 
37.0	 1.36137753915	 -0.354318169445	 
37.0	 1.35803869392	 -0.535076636718	 
37.0	 1.3546998487	 -0.71583510399	 
37.0	 1.35136100348	 -0.896593571262	 
37.0	 1.34714316013	 -1.07705351229	 
37.0	 1.18807324585	 -1.12717586634	 
37.0	 1.00759615397	 -1.13779616231	 
37.0	 0.827119062099	 -1.14841645828	 
37.0	 0.646641970224	 -1.15903675425	 
37.0	 0.46633442809	 -1.15495654613	 
37.0	 0.286150293292	 -1.14017652769	 
37.0	 0.105966158495	 -1.12539650924	 
37.0	 -0.0742179763029	 -1.11061649079	 
37.0	 -0.2544021111	 -1.09583647235	 
37.0	 -0.434586245898	 -1.0810564539	 
37.0	 -0.56027528014	 -0.976782224712	 
37.0	 -0.6561135588	 -0.823485793829	 
37.0	 -0.75195183746	 -0.670189362946	 
37.0	 -0.847790116121	 -0.516892932063	 
37.5	 -1.19406061319	 -0.303263358183	 
37.5	 -1.08180983492	 -0.44520847709	 
37.5	 -0.969559056643	 -0.587153595998	 
37.5	 -0.857308278369	 -0.729098714905	 
37.5	 -0.745057500095	 -0.871043833813	 
37.5	 -0.612471956353	 -0.98553976838	 
37.5	 -0.443982945258	 -1.05157087579	 
37.5	 -0.275493934164	 -1.11760198319	 
37.5	 -0.107004923069	 -1.1836330906	 
37.5	 0.0614840880251	 -1.249664198	 
37.5	 0.238137325324	 -1.2864385342	 
37.5	 0.416471310314	 -1.31718985617	 
37.5	 0.594805295303	 -1.34794117813	 
37.5	 0.773139280293	 -1.37869250009	 
37.5	 0.947345009054	 -1.33383697784	 
37.5	 1.12127064537	 -1.28385170965	 
37.5	 1.23850952637	 -1.17039168366	 
37.5	 1.30776462137	 -1.00320201346	 
37.5	 1.37455814774	 -0.835522688095	 
37.5	 1.37455814774	 -0.654556796267	 
37.5	 1.37455814774	 -0.47359090444	 
37.5	 1.37455814774	 -0.292625012613	 
37.5	 1.37455814774	 -0.111659120786	 
37.5	 1.37455814774	 0.0693067710415	 
37.5	 1.37455814774	 0.250272662869	 
37.5	 1.37455814774	 0.431238554696	 
37.5	 1.37455814774	 0.612204446523	 
37.5	 1.36167333706	 0.788152134916	 
37.5	 1.23927838036	 0.921449278843	 
37.5	 1.11688342366	 1.05474642277	 
37.5	 0.994488466963	 1.1880435667	 
37.5	 0.872093510263	 1.32134071063	 
37.5	 0.749698553563	 1.45463785455	 
37.5	 0.585598772197	 1.50096024816	 
37.5	 0.405029568822	 1.51293592339	 
37.5	 0.224460365448	 1.52491159863	 
37.5	 0.043891162073	 1.53688727387	 
37.5	 -0.136678041302	 1.54886294911	 
37.5	 -0.301963305483	 1.49051685951	 
37.5	 -0.461271728218	 1.4046711814	 
37.5	 -0.620580150953	 1.31882550329	 
37.5	 -0.763942823349	 1.21652745094	 
37.5	 -0.854727663474	 1.05998107823	 
37.5	 -0.905817698636	 0.888573208087	 
37.5	 -0.940163954749	 0.710896567259	 
37.5	 -0.974510210861	 0.533219926431	 
37.5	 -0.998535874588	 0.354004561653	 
37.5	 -1.01751182355	 0.174036321772	 
37.5	 -1.03648777252	 -0.00593191810857	 
37.5	 -1.05700300393	 -0.185094556255	 
38.0	 -0.152967919399	 -1.1480363152	 
38.0	 -0.322398912191	 -1.0871294412	 
38.0	 -0.491829904984	 -1.0262225672	 
38.0	 -0.661260897776	 -0.965315693202	 
38.0	 -0.830691890568	 -0.904408819201	 
38.0	 -1.00012288336	 -0.8435019452	 
38.0	 -1.16955387615	 -0.782595071199	 
38.0	 -1.32177988164	 -0.698523303098	 
38.0	 -1.42904835822	 -0.553920458899	 
38.0	 -1.53631683481	 -0.409317614699	 
38.0	 -1.64358531139	 -0.2647147705	 
38.0	 -1.74608488424	 -0.119351968367	 
38.0	 -1.68907512874	 0.0514297531294	 
38.0	 -1.63206537324	 0.222211474626	 
38.0	 -1.57505561775	 0.392993196123	 
38.0	 -1.51804586225	 0.563774917619	 
38.0	 -1.44776631507	 0.727250321665	 
38.0	 -1.33393723375	 0.866747450188	 
38.0	 -1.22010815244	 1.00624457871	 
38.0	 -1.10627907112	 1.14574170723	 
38.0	 -0.992449989805	 1.28523883576	 
38.0	 -0.824790429227	 1.32742404545	 
38.0	 -0.646130938598	 1.34972415817	 
38.0	 -0.467471447969	 1.37202427089	 
38.0	 -0.28881195734	 1.39432438361	 
38.0	 -0.109926185326	 1.40825831944	 
38.0	 0.0696775278766	 1.39564821148	 
38.0	 0.24928124108	 1.38303810352	 
38.0	 0.428884954283	 1.37042799555	 
38.0	 0.604404811797	 1.34417909501	 
38.0	 0.761382952171	 1.25600669534	 
38.0	 0.918361092544	 1.16783429567	 
38.0	 1.04850164091	 1.05703169431	 
38.0	 1.10889633912	 0.887417458331	 
38.0	 1.16929103734	 0.717803222351	 
38.0	 1.21397944544	 0.545476132703	 
38.0	 1.21397944544	 0.365430281267	 
38.0	 1.21397944544	 0.185384429832	 
38.0	 1.21397944544	 0.00533857839629	 
38.0	 1.21397944544	 -0.174707273039	 
38.0	 1.19584066868	 -0.352582819604	 
38.0	 1.15336379608	 -0.527546312691	 
38.0	 1.11088692348	 -0.702509805778	 
38.0	 1.04562884854	 -0.861239061496	 
38.0	 0.894114059126	 -0.95850044751	 
38.0	 0.739843254004	 -1.04843269695	 
38.0	 0.561783699238	 -1.07510297208	 
38.0	 0.383724144473	 -1.10177324722	 
38.0	 0.205664589707	 -1.12844352236	 
38.0	 0.0270779320366	 -1.1480363152	 
38.5	 -1.07292362568	 -0.574982610672	 
38.5	 -0.94752547736	 -0.716458820302	 
38.5	 -0.822127329035	 -0.857935029931	 
38.5	 -0.69672918071	 -0.999411239561	 
38.5	 -0.571331032385	 -1.14088744919	 
38.5	 -0.445932884061	 -1.28236365882	 
38.5	 -0.319865262332	 -1.42210616584	 
38.5	 -0.131927089423	 -1.40162552478	 
38.5	 0.0560110834852	 -1.38114488372	 
38.5	 0.243949256394	 -1.36066424266	 
38.5	 0.431887429302	 -1.3401836016	 
38.5	 0.619825602211	 -1.31970296054	 
38.5	 0.786129341915	 -1.23485567284	 
38.5	 0.948284508576	 -1.13766557345	 
38.5	 1.11043967524	 -1.04047547406	 
38.5	 1.22482217534	 -0.900624286841	 
38.5	 1.30312065401	 -0.728549995522	 
38.5	 1.38141913268	 -0.556475704203	 
38.5	 1.45240265279	 -0.382007177893	 
38.5	 1.4909995328	 -0.196938287076	 
38.5	 1.52959641281	 -0.0118693962601	 
38.5	 1.56819329282	 0.173199494556	 
38.5	 1.60679017283	 0.358268385372	 
38.5	 1.64538705284	 0.543337276189	 
38.5	 1.63128358409	 0.722949193339	 
38.5	 1.5555854462	 0.896183154834	 
38.5	 1.47988730832	 1.06941711633	 
38.5	 1.40418917044	 1.24265107782	 
38.5	 1.32849103255	 1.41588503932	 
38.5	 1.25279289467	 1.58911900081	 
38.5	 1.17243815864	 1.75469210165	 
38.5	 0.983805170697	 1.74212988237	 
38.5	 0.795172182752	 1.72956766309	 
38.5	 0.606539194806	 1.71700544381	 
38.5	 0.417906206861	 1.70444322454	 
38.5	 0.24659674934	 1.6301222905	 
38.5	 0.0789491953422	 1.5427466009	 
38.5	 -0.0886983586556	 1.4553709113	 
38.5	 -0.256345912653	 1.3679952217	 
38.5	 -0.423993466651	 1.2806195321	 
38.5	 -0.591641020649	 1.1932438425	 
38.5	 -0.652803638446	 1.02977751017	 
38.5	 -0.681153808024	 0.842864478573	 
38.5	 -0.709503977602	 0.65595144698	 
38.5	 -0.719489960753	 0.467653633862	 
38.5	 -0.719489960753	 0.278602811345	 
38.5	 -0.756861442629	 0.0992448821426	 
38.5	 -0.848746962326	 -0.0659739568693	 
38.5	 -0.940632482023	 -0.231192795881	 
38.5	 -0.984565209452	 -0.408848960797	 
39.0	 -1.00573806279	 -0.729907897008	 
39.0	 -1.09155809432	 -0.569416048193	 
39.0	 -1.17737812584	 -0.408924199379	 
39.0	 -1.26319815737	 -0.248432350564	 
39.0	 -1.3490181889	 -0.0879405017489	 
39.0	 -1.43483822042	 0.0725513470659	 
39.0	 -1.39824279931	 0.250024868266	 
39.0	 -1.35935008665	 0.427817073519	 
39.0	 -1.32045737398	 0.605609278772	 
39.0	 -1.28156466132	 0.783401484025	 
39.0	 -1.24267194866	 0.961193689278	 
39.0	 -1.11738553659	 1.0911656171	 
39.0	 -0.987373710714	 1.21852195373	 
39.0	 -0.857361884842	 1.34587829037	 
39.0	 -0.727350058971	 1.473234627	 
39.0	 -0.56297855338	 1.53852393747	 
39.0	 -0.386031522318	 1.58109692826	 
39.0	 -0.209084491255	 1.62366991906	 
39.0	 -0.0321374601924	 1.66624290985	 
39.0	 0.143404187191	 1.65866539127	 
39.0	 0.317689320471	 1.60624970979	 
39.0	 0.491974453751	 1.55383402832	 
39.0	 0.666259587031	 1.50141834684	 
39.0	 0.826409795912	 1.42704939755	 
39.0	 0.946256468663	 1.2900841232	 
39.0	 1.06610314141	 1.15311884886	 
39.0	 1.18594981417	 1.01615357451	 
39.0	 1.27456009081	 0.85935890391	 
39.0	 1.34750875085	 0.692621972353	 
39.0	 1.38693088249	 0.518062647539	 
39.0	 1.39530356812	 0.336258881124	 
39.0	 1.40367625375	 0.15445511471	 
39.0	 1.41204893938	 -0.0273486517042	 
39.0	 1.420421625	 -0.209152418119	 
39.0	 1.39529161557	 -0.388822070006	 
39.0	 1.36391848281	 -0.56809403627	 
39.0	 1.29682516901	 -0.727773022582	 
39.0	 1.16250548803	 -0.850577479536	 
39.0	 1.02818580705	 -0.973381936491	 
39.0	 0.873347993417	 -1.04671610027	 
39.0	 0.691541397386	 -1.05502711625	 
39.0	 0.509734801355	 -1.06333813223	 
39.0	 0.327928205324	 -1.0716491482	 
39.0	 0.146121609293	 -1.07996016418	 
39.0	 -0.0356471554245	 -1.08696343557	 
39.0	 -0.216669258405	 -1.06815626726	 
39.0	 -0.397691361385	 -1.04934909896	 
39.0	 -0.544061173703	 -0.95782923162	 
39.0	 -0.682244192172	 -0.839388677949	 
39.0	 -0.823741603084	 -0.729907897008	 
39.5	 -1.09564059281	 -0.333461407109	 
39.5	 -1.1695405786	 -0.167058991248	 
39.5	 -1.24344056439	 -0.000656575388347	 
39.5	 -1.31734055018	 0.165745840472	 
39.5	 -1.33958522408	 0.335404535473	 
39.5	 -1.28716676544	 0.509769890683	 
39.5	 -1.23474830679	 0.684135245893	 
39.5	 -1.18232984815	 0.858500601103	 
39.5	 -1.12991138951	 1.03286595631	 
39.5	 -1.07749293087	 1.20723131152	 
39.5	 -0.933336261728	 1.30553442675	 
39.5	 -0.771697233552	 1.38934251988	 
39.5	 -0.610058205376	 1.47315061301	 
39.5	 -0.4484191772	 1.55695870614	 
39.5	 -0.286780149024	 1.64076679927	 
39.5	 -0.125141120848	 1.7245748924	 
39.5	 0.0464770049135	 1.73567157461	 
39.5	 0.224718282549	 1.69850951263	 
39.5	 0.402959560185	 1.66134745065	 
39.5	 0.581200837821	 1.62418538867	 
39.5	 0.746889302845	 1.55468226577	 
39.5	 0.903528395929	 1.46186434497	 
39.5	 1.06016748901	 1.36904642417	 
39.5	 1.17791993864	 1.24636710667	 
39.5	 1.22716234851	 1.07107832502	 
39.5	 1.27640475837	 0.895789543361	 
39.5	 1.32564716824	 0.720500761705	 
39.5	 1.37488957811	 0.54521198005	 
39.5	 1.42413198797	 0.369923198394	 
39.5	 1.47337439784	 0.194634416738	 
39.5	 1.52261680771	 0.0193456350825	 
39.5	 1.57185921758	 -0.155943146573	 
39.5	 1.59726863809	 -0.32981125731	 
39.5	 1.52755119753	 -0.498008910044	 
39.5	 1.45783375697	 -0.666206562778	 
39.5	 1.34154470141	 -0.794016627932	 
39.5	 1.18490560833	 -0.886834548732	 
39.5	 1.02826651524	 -0.979652469533	 
39.5	 0.863745542766	 -1.04756310211	 
39.5	 0.682225418907	 -1.06175523156	 
39.5	 0.500705295049	 -1.07594736101	 
39.5	 0.322102027022	 -1.05192552685	 
39.5	 0.144838807042	 -1.01034761509	 
39.5	 -0.0324244129371	 -0.968769703325	 
39.5	 -0.203404592771	 -0.90622274958	 
39.5	 -0.37432408195	 -0.843473246611	 
39.5	 -0.545243571128	 -0.780723743642	 
39.5	 -0.712014402678	 -0.708652352496	 
39.5	 -0.868265320722	 -0.61789834785	 
39.5	 -0.981952956766	 -0.475679877479	 
40.0	 -0.898431727816	 -0.505712885741	 
40.0	 -0.768378816589	 -0.632435649745	 
40.0	 -0.638325905361	 -0.759158413749	 
40.0	 -0.508272994134	 -0.885881177753	 
40.0	 -0.35610038982	 -0.982000038406	 
40.0	 -0.194975507706	 -1.06573289336	 
40.0	 -0.0338506255926	 -1.14946574832	 
40.0	 0.127274256521	 -1.23319860328	 
40.0	 0.288399138635	 -1.31693145824	 
40.0	 0.464195768043	 -1.3290391253	 
40.0	 0.645266031122	 -1.31540173317	 
40.0	 0.826336294201	 -1.30176434104	 
40.0	 0.995389262261	 -1.25589707587	 
40.0	 1.1411861935	 -1.14765811119	 
40.0	 1.28698312475	 -1.03941914651	 
40.0	 1.3360183761	 -0.87531932409	 
40.0	 1.35684495223	 -0.69493453437	 
40.0	 1.37767152836	 -0.514549744651	 
40.0	 1.3984981045	 -0.334164954932	 
40.0	 1.41932468063	 -0.153780165213	 
40.0	 1.44015125677	 0.0266046245068	 
40.0	 1.44996057235	 0.207320160786	 
40.0	 1.43999232772	 0.3886294345	 
40.0	 1.4300240831	 0.569938708214	 
40.0	 1.42005583847	 0.751247981928	 
40.0	 1.41008759384	 0.932557255641	 
40.0	 1.40011934921	 1.11386652936	 
40.0	 1.23860020383	 1.19591205083	 
40.0	 1.07637681214	 1.27749630068	 
40.0	 0.914153420446	 1.35908055053	 
40.0	 0.751930028754	 1.44066480038	 
40.0	 0.589706637062	 1.52224905023	 
40.0	 0.410500143507	 1.52317919785	 
40.0	 0.229152269491	 1.51393975926	 
40.0	 0.0478043954754	 1.50470032067	 
40.0	 -0.13354347854	 1.49546088207	 
40.0	 -0.314891352556	 1.48622144348	 
40.0	 -0.478870689216	 1.41235642492	 
40.0	 -0.640417591404	 1.32944070247	 
40.0	 -0.801964493592	 1.24652498002	 
40.0	 -0.96351139578	 1.16360925757	 
40.0	 -1.07286718161	 1.04156252181	 
40.0	 -1.10717924362	 0.863250713352	 
40.0	 -1.14149130563	 0.684938904893	 
40.0	 -1.17580336765	 0.506627096433	 
40.0	 -1.21011542966	 0.328315287974	 
40.0	 -1.19085382963	 0.150621945085	 
40.0	 -1.15243452275	 -0.0268502372255	 
40.0	 -1.07999869866	 -0.191192441824	 
40.0	 -0.989215213237	 -0.348452663782	 
40.5	 -1.19202741126	 -0.482418151324	 
40.5	 -1.07387391512	 -0.619420668304	 
40.5	 -0.955720418983	 -0.756423185284	 
40.5	 -0.837566922843	 -0.893425702263	 
40.5	 -0.719413426703	 -1.03042821924	 
40.5	 -0.559008035446	 -1.09408406139	 
40.5	 -0.381218332966	 -1.12756181521	 
40.5	 -0.203428630487	 -1.16103956904	 
40.5	 -0.0256389280079	 -1.19451732287	 
40.5	 0.152150774471	 -1.22799507669	 
40.5	 0.330892510751	 -1.25127208	 
40.5	 0.511806684626	 -1.25127208	 
40.5	 0.692720858501	 -1.25127208	 
40.5	 0.873635032376	 -1.25127208	 
40.5	 1.03232559877	 -1.20550993106	 
40.5	 1.14419085743	 -1.06332659092	 
40.5	 1.2560561161	 -0.921143250782	 
40.5	 1.32516936269	 -0.761626463618	 
40.5	 1.34390682608	 -0.58168523495	 
40.5	 1.36264428946	 -0.401744006281	 
40.5	 1.38138175284	 -0.221802777612	 
40.5	 1.39767515753	 -0.04169656493	 
40.5	 1.40329103255	 0.139130424916	 
40.5	 1.40890690757	 0.319957414761	 
40.5	 1.41452278259	 0.500784404607	 
40.5	 1.42013865761	 0.681611394453	 
40.5	 1.39085144106	 0.855453076876	 
40.5	 1.3160761513	 1.02019103349	 
40.5	 1.24130086153	 1.1849289901	 
40.5	 1.16652557177	 1.34966694672	 
40.5	 1.00010401089	 1.37944661382	 
40.5	 0.819401540548	 1.38819621511	 
40.5	 0.63869907021	 1.3969458164	 
40.5	 0.457996599872	 1.40569541769	 
40.5	 0.277294129535	 1.41444501898	 
40.5	 0.0968163035801	 1.42677672052	 
40.5	 -0.0835634854679	 1.44067168407	 
40.5	 -0.263943274516	 1.45456664761	 
40.5	 -0.428205650547	 1.41391864431	 
40.5	 -0.572061329517	 1.30421230021	 
40.5	 -0.715917008488	 1.1945059561	 
40.5	 -0.859772687458	 1.084799612	 
40.5	 -0.946882125646	 0.932219823805	 
40.5	 -1.0131106336	 0.763863882289	 
40.5	 -1.06828278669	 0.592408509831	 
40.5	 -1.09921831296	 0.414158877227	 
40.5	 -1.13015383923	 0.235909244624	 
40.5	 -1.1610893655	 0.0576596120201	 
40.5	 -1.19202489177	 -0.120590020584	 
40.5	 -1.19202741126	 -0.301503977449	 
41.0	 -1.2233176126	 -0.353826510287	 
41.0	 -1.05797371569	 -0.436277378064	 
41.0	 -0.892629818779	 -0.51872824584	 
41.0	 -0.727285921871	 -0.601179113617	 
41.0	 -0.56484180413	 -0.68791391815	 
41.0	 -0.426857812006	 -0.81078445066	 
41.0	 -0.288873819882	 -0.933654983171	 
41.0	 -0.150889827758	 -1.05652551568	 
41.0	 -0.012905835634	 -1.17939604819	 
41.0	 0.149599010379	 -1.25822595113	 
41.0	 0.326722387491	 -1.31080027111	 
41.0	 0.503881507405	 -1.36323199993	 
41.0	 0.684861202006	 -1.40042205215	 
41.0	 0.865840896606	 -1.43761210437	 
41.0	 1.04682059121	 -1.4748021566	 
41.0	 1.18726005652	 -1.44545351099	 
41.0	 1.23720107127	 -1.26756971497	 
41.0	 1.28714208603	 -1.08968591895	 
41.0	 1.33708310079	 -0.911802122924	 
41.0	 1.37988193653	 -0.732715129137	 
41.0	 1.39097728046	 -0.548287248421	 
41.0	 1.40207262438	 -0.363859367706	 
41.0	 1.41316796831	 -0.179431486991	 
41.0	 1.42426331223	 0.00499639372454	 
41.0	 1.43535865616	 0.18942427444	 
41.0	 1.44645400008	 0.373852155155	 
41.0	 1.44557743738	 0.557223388544	 
41.0	 1.40234984475	 0.736856695804	 
41.0	 1.35912225212	 0.916490003064	 
41.0	 1.31589465949	 1.09612331032	 
41.0	 1.18564367114	 1.19174813947	 
41.0	 1.00764550988	 1.24127999214	 
41.0	 0.829647348615	 1.29081184481	 
41.0	 0.651649187352	 1.34034369748	 
41.0	 0.473544676354	 1.38909667001	 
41.0	 0.288783344247	 1.38909667001	 
41.0	 0.10402201214	 1.38909667001	 
41.0	 -0.0807393199668	 1.38909667001	 
41.0	 -0.265500652074	 1.38909667001	 
41.0	 -0.439868288971	 1.33346298058	 
41.0	 -0.612167108326	 1.26675565947	 
41.0	 -0.784465927681	 1.20004833835	 
41.0	 -0.902904934408	 1.08800689703	 
41.0	 -0.939233019777	 0.906852211595	 
41.0	 -0.975561105146	 0.725697526159	 
41.0	 -1.01188919051	 0.544542840723	 
41.0	 -1.04622733302	 0.363002418032	 
41.0	 -1.08021833793	 0.181394705015	 
41.0	 -1.12343558308	 0.00194108175615	 
41.0	 -1.17337659784	 -0.175942714265	 
41.5	 0.0992321356608	 -0.949311594925	 
41.5	 0.285972301706	 -0.939602553262	 
41.5	 0.472712467751	 -0.929893511598	 
41.5	 0.659452633796	 -0.920184469935	 
41.5	 0.846192799842	 -0.910475428271	 
41.5	 0.982429624728	 -0.800206617824	 
41.5	 1.10173021872	 -0.656215217459	 
41.5	 1.2210308127	 -0.512223817095	 
41.5	 1.33891882518	 -0.367461928118	 
41.5	 1.39539014343	 -0.189200475975	 
41.5	 1.45186146168	 -0.010939023833	 
41.5	 1.50833277993	 0.167322428309	 
41.5	 1.55927607808	 0.34632436788	 
41.5	 1.55171060718	 0.533163653778	 
41.5	 1.54414513629	 0.720002939676	 
41.5	 1.53657966539	 0.906842225573	 
41.5	 1.52901419449	 1.09368151147	 
41.5	 1.40094413889	 1.22141682939	 
41.5	 1.25783726372	 1.34177702788	 
41.5	 1.11473038854	 1.46213722638	 
41.5	 0.966525478248	 1.5696099501	 
41.5	 0.779806721948	 1.57972237564	 
41.5	 0.593087965648	 1.58983480119	 
41.5	 0.406369209348	 1.59994722673	 
41.5	 0.219919409027	 1.60780359454	 
41.5	 0.0408109761691	 1.55407907143	 
41.5	 -0.138297456689	 1.50035454831	 
41.5	 -0.317405889548	 1.4466300252	 
41.5	 -0.496514322406	 1.39290550209	 
41.5	 -0.669204068104	 1.32383217508	 
41.5	 -0.833237348708	 1.23405891649	 
41.5	 -0.997270629312	 1.14428565789	 
41.5	 -1.16130390992	 1.0545123993	 
41.5	 -1.26649849561	 0.90745919697	 
41.5	 -1.35183630587	 0.741075263717	 
41.5	 -1.43717411613	 0.574691330464	 
41.5	 -1.51990347968	 0.407768975388	 
41.5	 -1.50742166356	 0.221193630363	 
41.5	 -1.49493984744	 0.0346182853386	 
41.5	 -1.48245803132	 -0.151957059686	 
41.5	 -1.4699762152	 -0.33853240471	 
41.5	 -1.45749439908	 -0.525107749735	 
41.5	 -1.31583303793	 -0.641216471385	 
41.5	 -1.16571809069	 -0.752713815376	 
41.5	 -1.01560314344	 -0.864211159368	 
41.5	 -0.831554219292	 -0.894381895445	 
41.5	 -0.646710532776	 -0.922647893748	 
41.5	 -0.461745043859	 -0.949311594925	 
41.5	 -0.274752650685	 -0.949311594925	 
41.5	 -0.0877602575123	 -0.949311594925	 
42.0	 -1.05169678055	 -0.956598414742	 
42.0	 -0.883716161829	 -1.01712343757	 
42.0	 -0.715735543105	 -1.0776484604	 
42.0	 -0.547754924381	 -1.13817348322	 
42.0	 -0.379774305657	 -1.19869850605	 
42.0	 -0.211793686933	 -1.25922352888	 
42.0	 -0.0438130682097	 -1.3197485517	 
42.0	 0.124167550514	 -1.38027357453	 
42.0	 0.294743952947	 -1.3996653517	 
42.0	 0.469000696089	 -1.36073780202	 
42.0	 0.643257439232	 -1.32181025233	 
42.0	 0.817514182375	 -1.28288270265	 
42.0	 0.991770925518	 -1.24395515297	 
42.0	 1.16602766866	 -1.20502760329	 
42.0	 1.27360439445	 -1.09704416867	 
42.0	 1.3186064724	 -0.924256496556	 
42.0	 1.36360855036	 -0.751468824441	 
42.0	 1.40861062831	 -0.578681152326	 
42.0	 1.38769746463	 -0.403334450404	 
42.0	 1.35622693242	 -0.227577879382	 
42.0	 1.32475640021	 -0.0518213083596	 
42.0	 1.293285868	 0.123935262663	 
42.0	 1.26181533579	 0.299691833685	 
42.0	 1.20900688723	 0.469432339238	 
42.0	 1.14403407458	 0.63574319358	 
42.0	 1.07906126194	 0.802054047923	 
42.0	 1.01408844929	 0.968364902265	 
42.0	 0.886400847583	 1.08847618984	 
42.0	 0.746827533441	 1.19983173139	 
42.0	 0.6072542193	 1.31118727295	 
42.0	 0.467680905158	 1.4225428145	 
42.0	 0.300150577932	 1.45402959041	 
42.0	 0.121598718085	 1.45402959041	 
42.0	 -0.0569531417627	 1.45402959041	 
42.0	 -0.23550500161	 1.45402959041	 
42.0	 -0.392586848903	 1.39131997865	 
42.0	 -0.533671390798	 1.28188543798	 
42.0	 -0.674755932693	 1.1724508973	 
42.0	 -0.815840474588	 1.06301635662	 
42.0	 -0.956925016483	 0.953581815943	 
42.0	 -1.05634648003	 0.82164336684	 
42.0	 -1.07051105302	 0.643654233668	 
42.0	 -1.084675626	 0.465665100496	 
42.0	 -1.08506238122	 0.287831318734	 
42.0	 -1.06688809641	 0.110206821474	 
42.0	 -1.04871381161	 -0.0674176757855	 
42.0	 -1.0305395268	 -0.245042173045	 
42.0	 -1.01236524199	 -0.422666670305	 
42.0	 -1.02336763459	 -0.600620148398	 
42.0	 -1.03753220757	 -0.77860928157	 
42.5	 -1.18485293274	 -0.181346969944	 
42.5	 -1.17701563822	 0.014487819422	 
42.5	 -1.16917834369	 0.210322608788	 
42.5	 -1.16134104916	 0.406157398154	 
42.5	 -1.11443131409	 0.59256544433	 
42.5	 -1.03210877429	 0.770429682877	 
42.5	 -0.949786234502	 0.948293921423	 
42.5	 -0.86746369471	 1.12615815997	 
42.5	 -0.785141154917	 1.30402239852	 
42.5	 -0.651761554501	 1.44598299172	 
42.5	 -0.512225584919	 1.5836143875	 
42.5	 -0.372689615337	 1.72124578328	 
42.5	 -0.233153645755	 1.85887717906	 
42.5	 -0.0821098202754	 1.97204367259	 
42.5	 0.112886455905	 1.99177030908	 
42.5	 0.307882732085	 2.01149694558	 
42.5	 0.502879008265	 2.03122358208	 
42.5	 0.697875284445	 2.05095021857	 
42.5	 0.892871560625	 2.07067685507	 
42.5	 1.02128419665	 1.95083236162	 
42.5	 1.12864660126	 1.7868628462	 
42.5	 1.23600900587	 1.62289333077	 
42.5	 1.34337141047	 1.45892381535	 
42.5	 1.45073381508	 1.29495429992	 
42.5	 1.55809621969	 1.1309847845	 
42.5	 1.66545862429	 0.967015269073	 
42.5	 1.7728210289	 0.803045753648	 
42.5	 1.76695991033	 0.611253249851	 
42.5	 1.747822408	 0.4161982732	 
42.5	 1.72868490567	 0.221143296549	 
42.5	 1.70954740335	 0.0260883198986	 
42.5	 1.69040990102	 -0.168966656752	 
42.5	 1.6603574864	 -0.361347644939	 
42.5	 1.5871680179	 -0.54316070721	 
42.5	 1.5139785494	 -0.72497376948	 
42.5	 1.4407890809	 -0.906786831751	 
42.5	 1.27010983755	 -0.982124992272	 
42.5	 1.08256521616	 -1.03904338034	 
42.5	 0.895020594776	 -1.0959617684	 
42.5	 0.707218249951	 -1.14514502545	 
42.5	 0.516300891646	 -1.10083644604	 
42.5	 0.32538353334	 -1.05652786663	 
42.5	 0.158592119122	 -0.962024636695	 
42.5	 0.00473231375361	 -0.840616860158	 
42.5	 -0.151611280093	 -0.722434270777	 
42.5	 -0.316606911576	 -0.617197077567	 
42.5	 -0.489465315868	 -0.526399258714	 
42.5	 -0.675651795679	 -0.465184206259	 
42.5	 -0.858766280986	 -0.395939454834	 
42.5	 -1.02660060813	 -0.296970884709	 
43.0	 -1.05601529851	 -0.803591616521	 
43.0	 -0.924422689302	 -0.921564749595	 
43.0	 -0.792830080098	 -1.03953788267	 
43.0	 -0.647661132833	 -1.1318521613	 
43.0	 -0.476097706853	 -1.17428170042	 
43.0	 -0.304534280874	 -1.21671123955	 
43.0	 -0.132970854894	 -1.25914077868	 
43.0	 0.0388821878462	 -1.29337396708	 
43.0	 0.21301247971	 -1.26315946096	 
43.0	 0.387142771574	 -1.23294495484	 
43.0	 0.561273063437	 -1.20273044873	 
43.0	 0.735403355301	 -1.17251594261	 
43.0	 0.868023737017	 -1.07154052562	 
43.0	 0.979365000167	 -0.934291124729	 
43.0	 1.09070626332	 -0.79704172384	 
43.0	 1.19688744173	 -0.657357861263	 
43.0	 1.2320150579	 -0.484151840852	 
43.0	 1.26714267408	 -0.310945820442	 
43.0	 1.30227029025	 -0.137739800031	 
43.0	 1.33739790642	 0.0354662203792	 
43.0	 1.37252552259	 0.20867224079	 
43.0	 1.39700410769	 0.383147508815	 
43.0	 1.40357074232	 0.559757684722	 
43.0	 1.41013737696	 0.736367860629	 
43.0	 1.4167040116	 0.912978036536	 
43.0	 1.33767688276	 1.04692826534	 
43.0	 1.19270719809	 1.14801271246	 
43.0	 1.04773751341	 1.24909715958	 
43.0	 0.889723356835	 1.31956551559	 
43.0	 0.716397308284	 1.35409602121	 
43.0	 0.543071259734	 1.38862652683	 
43.0	 0.369745211183	 1.42315703245	 
43.0	 0.196419162632	 1.45768753806	 
43.0	 0.0244274042432	 1.46867286763	 
43.0	 -0.143887848061	 1.41478176663	 
43.0	 -0.312203100366	 1.36089066564	 
43.0	 -0.48051835267	 1.30699956465	 
43.0	 -0.643917439954	 1.24524702719	 
43.0	 -0.76605035809	 1.11750578392	 
43.0	 -0.888183276226	 0.989764540648	 
43.0	 -1.01031619436	 0.862023297378	 
43.0	 -1.1324491125	 0.734282054109	 
43.0	 -1.22882715454	 0.597176935162	 
43.0	 -1.21725585037	 0.420823937331	 
43.0	 -1.20568454619	 0.2444709395	 
43.0	 -1.19411324202	 0.0681179416685	 
43.0	 -1.18254193784	 -0.108235056163	 
43.0	 -1.1529224703	 -0.282326353554	 
43.0	 -1.1206200797	 -0.45608144121	 
43.0	 -1.0883176891	 -0.629836528865	 
43.5	 -1.06937049147	 -0.369779408801	 
43.5	 -0.948529878576	 -0.511426398293	 
43.5	 -0.827689265684	 -0.653073387784	 
43.5	 -0.706848652792	 -0.794720377275	 
43.5	 -0.524787675697	 -0.822530374669	 
43.5	 -0.33999038893	 -0.845252305918	 
43.5	 -0.155193102163	 -0.867974237167	 
43.5	 0.0168434075655	 -0.927810242396	 
43.5	 0.176540636353	 -1.02353442154	 
43.5	 0.33700254881	 -1.11767502142	 
43.5	 0.511273549004	 -1.18321845624	 
43.5	 0.685544549198	 -1.24876189105	 
43.5	 0.86730514665	 -1.28077234564	 
43.5	 1.05290229128	 -1.2956055267	 
43.5	 1.23663699493	 -1.30693955586	 
43.5	 1.32798640067	 -1.14470019742	 
43.5	 1.41933580642	 -0.982460838986	 
43.5	 1.46666067876	 -0.806299192863	 
43.5	 1.48520521397	 -0.62103607303	 
43.5	 1.50374974917	 -0.435772953198	 
43.5	 1.52229428437	 -0.250509833365	 
43.5	 1.54083881958	 -0.0652467135326	 
43.5	 1.54841814089	 0.120091451093	 
43.5	 1.53241106742	 0.305591038572	 
43.5	 1.51640399395	 0.491090626051	 
43.5	 1.50039692047	 0.67659021353	 
43.5	 1.484389847	 0.862089801009	 
43.5	 1.46838277353	 1.04758938849	 
43.5	 1.4216507763	 1.20907342666	 
43.5	 1.24550789952	 1.26940592467	 
43.5	 1.06936502274	 1.32973842268	 
43.5	 0.893222145964	 1.39007092069	 
43.5	 0.717079269186	 1.45040341871	 
43.5	 0.540936392408	 1.51073591672	 
43.5	 0.361307835355	 1.55013487266	 
43.5	 0.175118890044	 1.55013487266	 
43.5	 -0.0110700552675	 1.55013487266	 
43.5	 -0.197259000579	 1.55013487266	 
43.5	 -0.371433632073	 1.49182385091	 
43.5	 -0.542458202129	 1.41822412405	 
43.5	 -0.713482772185	 1.3446243972	 
43.5	 -0.878176525133	 1.26465332288	 
43.5	 -0.952866160336	 1.09410191788	 
43.5	 -1.02755579554	 0.923550512872	 
43.5	 -1.06261906525	 0.742090876349	 
43.5	 -1.08573532776	 0.557342502165	 
43.5	 -1.08138021271	 0.37231140519	 
43.5	 -1.06207113441	 0.187126408898	 
43.5	 -1.0461194376	 0.0018718819516	 
43.5	 -1.05774496454	 -0.183953763425	 
44.0	 -1.14374648354	 -0.52887045236	 
44.0	 -1.04468967136	 -0.688389564585	 
44.0	 -0.945632859175	 -0.84790867681	 
44.0	 -0.846576046992	 -1.00742778904	 
44.0	 -0.711895712663	 -1.11722235759	 
44.0	 -0.528991795945	 -1.15970478283	 
44.0	 -0.346087879228	 -1.20218720807	 
44.0	 -0.16318396251	 -1.24466963331	 
44.0	 0.0184755302354	 -1.29164167435	 
44.0	 0.197150545033	 -1.34938107418	 
44.0	 0.37582555983	 -1.407120474	 
44.0	 0.556821700812	 -1.4501286597	 
44.0	 0.744594433669	 -1.4501286597	 
44.0	 0.932367166527	 -1.4501286597	 
44.0	 1.09103268878	 -1.39424077826	 
44.0	 1.19867484575	 -1.24038446462	 
44.0	 1.30631700273	 -1.08652815098	 
44.0	 1.3822692618	 -0.918204574273	 
44.0	 1.42800766108	 -0.736087584302	 
44.0	 1.47374606036	 -0.553970594332	 
44.0	 1.51948445964	 -0.371853604362	 
44.0	 1.54292201893	 -0.185704883264	 
44.0	 1.5638439754	 0.000898629409565	 
44.0	 1.58476593187	 0.187502142083	 
44.0	 1.60568788834	 0.374105654757	 
44.0	 1.62660984481	 0.560709167431	 
44.0	 1.61802940563	 0.741122928643	 
44.0	 1.52387230045	 0.903582273553	 
44.0	 1.42971519527	 1.06604161846	 
44.0	 1.33555809008	 1.22850096337	 
44.0	 1.17157000012	 1.26977652387	 
44.0	 0.983797267264	 1.26977652387	 
44.0	 0.796024534406	 1.26977652387	 
44.0	 0.608915116339	 1.27910515862	 
44.0	 0.423031572735	 1.30567407696	 
44.0	 0.23714802913	 1.3322429953	 
44.0	 0.0511996360382	 1.35680810216	 
44.0	 -0.136012842095	 1.34231371581	 
44.0	 -0.323225320229	 1.32781932945	 
44.0	 -0.509544690328	 1.31105526954	 
44.0	 -0.65643231568	 1.19408251749	 
44.0	 -0.803319941032	 1.07710976543	 
44.0	 -0.849772534295	 0.906065437732	 
44.0	 -0.867757677346	 0.71916290665	 
44.0	 -0.887852537302	 0.532468515175	 
44.0	 -0.907652025928	 0.345758273322	 
44.0	 -0.907652025928	 0.157985540465	 
44.0	 -0.907652025928	 -0.0297871923929	 
44.0	 -0.957990733458	 -0.209994459927	 
44.0	 -1.02579988412	 -0.382763645916	 
44.5	 -1.11059848773	 -0.354613892839	 
44.5	 -1.01211515078	 -0.507092837057	 
44.5	 -0.913631813817	 -0.659571781275	 
44.5	 -0.815148476859	 -0.812050725494	 
44.5	 -0.706442153005	 -0.95462997085	 
44.5	 -0.557205521917	 -1.05796062472	 
44.5	 -0.40796889083	 -1.1612912786	 
44.5	 -0.258732259742	 -1.26462193247	 
44.5	 -0.090441953639	 -1.31353140186	 
44.5	 0.0906571735178	 -1.32585626419	 
44.5	 0.271756300675	 -1.33818112652	 
44.5	 0.451734877222	 -1.33726183792	 
44.5	 0.628188958535	 -1.29468539753	 
44.5	 0.804643039848	 -1.25210895714	 
44.5	 0.981097121162	 -1.20953251675	 
44.5	 1.15755120247	 -1.16695607636	 
44.5	 1.33400528379	 -1.12437963597	 
44.5	 1.43793277886	 -1.02469508404	 
44.5	 1.43793277886	 -0.843177051638	 
44.5	 1.43953680568	 -0.661678722997	 
44.5	 1.44399564483	 -0.480215462688	 
44.5	 1.44845448399	 -0.29875220238	 
44.5	 1.45291332314	 -0.117288942071	 
44.5	 1.45737216229	 0.0641743182373	 
44.5	 1.45607514552	 0.244981815482	 
44.5	 1.41091227767	 0.420791688516	 
44.5	 1.36574940983	 0.59660156155	 
44.5	 1.32058654198	 0.772411434584	 
44.5	 1.27542367413	 0.948221307618	 
44.5	 1.23026080628	 1.12403118065	 
44.5	 1.07454513797	 1.20994579524	 
44.5	 0.911641329176	 1.29001542223	 
44.5	 0.748737520377	 1.37008504923	 
44.5	 0.585833711578	 1.45015467622	 
44.5	 0.422929902779	 1.53022430322	 
44.5	 0.245656026623	 1.5484806654	 
44.5	 0.0641379942173	 1.5484806654	 
44.5	 -0.117380038188	 1.5484806654	 
44.5	 -0.298898070594	 1.5484806654	 
44.5	 -0.446977715009	 1.47629774482	 
44.5	 -0.564354165818	 1.33783632462	 
44.5	 -0.681730616627	 1.19937490442	 
44.5	 -0.772375513168	 1.04483980292	 
44.5	 -0.839633613137	 0.876242222633	 
44.5	 -0.906891713105	 0.707644642351	 
44.5	 -0.974149813074	 0.539047062069	 
44.5	 -1.0262617253	 0.366420768502	 
44.5	 -1.05165558652	 0.186687777927	 
44.5	 -1.07349050771	 0.00652068342298	 
44.5	 -1.09204449772	 -0.174046604708	 
45.0	 -0.925978959913	 -0.506725125665	 
45.0	 -0.855528173826	 -0.674424164326	 
45.0	 -0.785077387739	 -0.842123202987	 
45.0	 -0.714626601651	 -1.00982224165	 
45.0	 -0.578355657765	 -1.10402179011	 
45.0	 -0.403929549254	 -1.15561455605	 
45.0	 -0.229503440744	 -1.207207322	 
45.0	 -0.0550773322326	 -1.25880008794	 
45.0	 0.119348776278	 -1.31039285389	 
45.0	 0.293774884789	 -1.36198561983	 
45.0	 0.47372939926	 -1.37539676966	 
45.0	 0.655625745645	 -1.37539676966	 
45.0	 0.83752209203	 -1.37539676966	 
45.0	 1.00042418848	 -1.32585276231	 
45.0	 1.13570188683	 -1.20425413915	 
