1.5	 -0.5372487962033404	 0.327019696272949	 
1.5	 -0.5187500534837337	 0.13095060756621377	 
1.5	 -0.5616788406911881	 -0.04156593248605793	 
1.5	 -0.6838011386071708	 -0.18356317181855566	 
1.5	 -0.8324321269603535	 -0.3129852608168411	 
1.5	 -0.9676411860740919	 -0.44227605676988724	 
1.5	 -1.1286633304943892	 -0.5520793480019918	 
1.5	 -1.3194371888404166	 -0.6379642114893306	 
1.5	 -1.4199607871162037	 -0.7470809622871127	 
1.5	 -1.3737086694874505	 -0.9091316022603793	 
1.5	 -1.2709931645764492	 -1.1090134197879675	 
1.5	 -1.203874803301386	 -1.323599948136278	 
1.5	 -1.1547954169130155	 -1.503601957660268	 
1.5	 -1.05382930466142	 -1.5872316274330482	 
2.0	 -1.2935789931066064	 -1.4636458669620755	 
2.0	 -1.1524297691507666	 -1.3494611252069695	 
2.0	 -0.9862009529611198	 -1.2790716706717289	 
2.0	 -0.8029842567510037	 -1.2389927432784407	 
2.0	 -0.6108713927337545	 -1.2157395829491908	 
2.0	 -0.4179540731227083	 -1.195827429606065	 
2.0	 -0.23232401013120207	 -1.16577152317115	 
2.0	 -0.062072915972571654	 -1.1120871035665316	 
2.0	 0.08470749713984593	 -1.0212894107142958	 
2.0	 0.20619952791757495	 -0.8892954854103862	 
2.0	 0.32759850397456375	 -0.7525022340075574	 
2.0	 0.47546105089525525	 -0.6499525638664451	 
2.0	 0.6397617091397038	 -0.5696231292653221	 
2.0	 0.7964994834705827	 -0.4799807308767454	 
2.0	 0.9299948734548277	 -0.3604027692911137	 
2.0	 1.0478950537157024	 -0.22085771475167693	 
2.0	 1.1618875497562664	 -0.0766129094308469	 
2.0	 1.278960871643962	 0.06250270303876097	 
2.0	 1.3912086692209915	 0.20389872339820722	 
2.0	 1.4877374288966132	 0.3580455778715947	 
2.0	 1.5567342020084083	 0.5279683515093743	 
2.0	 1.585501624795947	 0.7095303706400773	 
2.0	 1.5625626330020914	 0.8970927139192955	 
2.0	 1.488612167908235	 1.0732701068674648	 
2.0	 1.3711795675673755	 1.2140818756116476	 
2.0	 1.2182184305302615	 1.2983696892688203	 
2.0	 1.04155278739921	 1.33713584372617	 
2.0	 0.8554206233010506	 1.3614409357191455	 
2.0	 0.6728235768918162	 1.398448225884492	 
2.0	 0.49535810833019833	 1.4376746798756246	 
2.0	 0.3186162292878551	 1.4488190943797483	 
2.0	 0.14147367879861722	 1.4129332425695824	 
2.0	 -0.02886016647102108	 1.3398124096652089	 
2.0	 -0.1844652583031488	 1.2392575231375234	 
2.0	 -0.3182575336323956	 1.114601859697262	 
2.0	 -0.4232689789974252	 0.9686778709844578	 
2.0	 -0.4994246436235397	 0.8059842401088929	 
2.0	 -0.5605336880469532	 0.6343757988543755	 
2.0	 -0.6220720562681188	 0.4621102836622869	 
2.0	 -0.697918303904046	 0.2967538380457504	 
2.0	 -0.7921816017162168	 0.14164292815855756	 
2.0	 -0.9052790584152551	 -0.0014844664950377992	 
2.0	 -1.0364275500423936	 -0.13170232149177616	 
2.0	 -1.1705887830657193	 -0.25774823044679684	 
2.0	 -1.2833426473442495	 -0.3947197458484806	 
2.0	 -1.3540809989550322	 -0.5549668290214496	 
2.0	 -1.3845241962836743	 -0.7347851859286535	 
2.0	 -1.3841799016968124	 -0.9248714292771343	 
2.0	 -1.3625638078607871	 -1.1159163979660751	 
2.0	 -1.3291916074419383	 -1.298610930894661	 
2.5	 -1.5082928399518831	 -1.4763165538924898	 
2.5	 -1.322061677478523	 -1.4648646620043808	 
2.5	 -1.1368301787428525	 -1.4439664552946834	 
2.5	 -0.9529904270575992	 -1.4137886354102094	 
2.5	 -0.7709345057354883	 -1.3744979039977685	 
2.5	 -0.5910544980892467	 -1.3262609627041717	 
2.5	 -0.41374248743160014	 -1.2692445131762298	 
2.5	 -0.2393905570752745	 -1.2036152570607526	 
2.5	 -0.06839079033299664	 -1.1295398960045513	 
2.5	 0.09886472948250763	 -1.047185131654436	 
2.5	 0.2619839190585124	 -0.9567176656572174	 
2.5	 0.42057143794170015	 -0.8583013315889333	 
2.5	 0.5730731084011439	 -0.751079550417144	 
2.5	 0.7150692047610175	 -0.6316724897746605	 
2.5	 0.8439427834441752	 -0.49840169624042374	 
2.5	 0.9654704686880564	 -0.35740699767637424	 
2.5	 1.087396280348803	 -0.2166607742847355	 
2.5	 1.2153787661520792	 -0.08204701850971584	 
2.5	 1.341082554303576	 0.05456376114659684	 
2.5	 1.4504368508982464	 0.2070077251457928	 
2.5	 1.5320805065468077	 0.38174102955614386	 
2.5	 1.5800191186235837	 0.570663167362982	 
2.5	 1.5888847280769798	 0.7639744777718867	 
2.5	 1.5533093758553989	 0.951875299988436	 
2.5	 1.4688427758364855	 1.1240674777916788	 
2.5	 1.3412243573758886	 1.2647176294989713	 
2.5	 1.1825257264319387	 1.3548686920415707	 
2.5	 1.0037584661124088	 1.393020678469783	 
2.5	 0.8142192058184456	 1.403639124452556	 
2.5	 0.6230522787372323	 1.4132059923844562	 
2.5	 0.4361925987736875	 1.4278789125209888	 
2.5	 0.2522350667988141	 1.4073248138461378	 
2.5	 0.0791228708035678	 1.3176907510321632	 
2.5	 -0.04027678059967131	 1.1687437429117502	 
2.5	 -0.06774470798092626	 0.9811287633270049	 
2.5	 -0.06004702421596661	 0.7889979302296075	 
2.5	 -0.11712569855800949	 0.6319952343251372	 
2.5	 -0.26136698467244823	 0.5137490634493087	 
2.5	 -0.4144417458191684	 0.3912368375275661	 
2.5	 -0.5185028956192385	 0.2344808270412579	 
2.5	 -0.5913685409979561	 0.05845602368137838	 
2.5	 -0.6639191954970751	 -0.1141021999340687	 
2.5	 -0.7669388744745319	 -0.2605353702654525	 
2.5	 -0.9123878093766017	 -0.3731856239096341	 
2.5	 -1.0710032236305485	 -0.4772455740121007	 
2.5	 -1.2083870788556317	 -0.6019494926886858	 
2.5	 -1.307393814961354	 -0.760090287042357	 
2.5	 -1.3764238473961872	 -0.940115914924155	 
2.5	 -1.4259410878877836	 -1.1285078517494969	 
2.5	 -1.4664094481637977	 -1.3117475729338026	 
3.0	 -1.540884651412486	 -1.4449730043479065	 
3.0	 -1.3447405770536138	 -1.4573254754771658	 
3.0	 -1.1533928090244132	 -1.4467728930698316	 
3.0	 -0.9663411894484742	 -1.4165580214383555	 
3.0	 -0.7830855604493883	 -1.3699236248951896	 
3.0	 -0.6031257641507457	 -1.3101124677527847	 
3.0	 -0.42596164267613723	 -1.2403673143235925	 
3.0	 -0.25109303814915346	 -1.1639309289200641	 
3.0	 -0.07801979269338546	 -1.084046075854652	 
3.0	 0.09389692619087052	 -1.0035790259234798	 
3.0	 0.265974710899773	 -0.9235532563813094	 
3.0	 0.43973849789146635	 -0.844429317444544	 
3.0	 0.6154340973912042	 -0.7653209250562075	 
3.0	 0.7857771233821361	 -0.6774141476275679	 
3.0	 0.9407369455162243	 -0.5690038597160062	 
3.0	 1.0720914064601836	 -0.4313409561993295	 
3.0	 1.183267760179137	 -0.2747027847924645	 
3.0	 1.2822500073075882	 -0.11644712846910811	 
3.0	 1.3752967693487548	 0.04099344707414995	 
3.0	 1.4665609839994587	 0.2133042271527805	 
3.0	 1.557848180955082	 0.41407210084067037	 
3.0	 1.6302814891063262	 0.6272016233663354	 
3.0	 1.653732856310249	 0.8204502249340164	 
3.0	 1.5979630666207734	 0.9614151612087074	 
3.0	 1.4487523214012636	 1.0332228931011564	 
3.0	 1.2477033519337215	 1.0731141796703263	 
3.0	 1.0485319705967184	 1.1300676862128483	 
3.0	 0.8837876053989498	 1.2300841908675855	 
3.0	 0.7298566299822941	 1.3381947613530958	 
3.0	 0.5571877382699482	 1.4129088600573323	 
3.0	 0.36747278382718873	 1.445929989920878	 
3.0	 0.17645837517851737	 1.4445089865587395	 
3.0	 -0.010949571407869021	 1.4064461248895155	 
3.0	 -0.19196277633926082	 1.3276414588739247	 
3.0	 -0.3557759538533794	 1.2090741499486626	 
3.0	 -0.4809373214549373	 1.0584683588688546	 
3.0	 -0.5453305576257872	 0.8840171177385917	 
3.0	 -0.5481284296501516	 0.6948118265157656	 
3.0	 -0.5395315246677742	 0.5020970933476282	 
3.0	 -0.5634681045134617	 0.3145496978937	 
3.0	 -0.6143236937898315	 0.13046284456526924	 
3.0	 -0.6757640691512327	 -0.05394772317603384	 
3.0	 -0.7478678599155598	 -0.23252136714027563	 
3.0	 -0.8517532420186436	 -0.38638699254703884	 
3.0	 -0.9950130763459498	 -0.508159051752052	 
3.0	 -1.1589513552372344	 -0.6121737670721438	 
3.0	 -1.3221985139284735	 -0.7149764476201468	 
3.0	 -1.4633849876556426	 -0.8331124025088927	 
3.0	 -1.5611412116547165	 -0.9831269408512127	 
3.0	 -1.5940976211616729	 -1.1815653717599401	 
3.5	 -0.9799237866692178	 -1.4424881961744909	 
3.5	 -0.7620027862588971	 -1.4379421149824916	 
3.5	 -0.5836075736326507	 -1.3702665661791213	 
3.5	 -0.43344274228188207	 -1.2577456473102648	 
3.5	 -0.30021288569799315	 -1.1186634559218052	 
3.5	 -0.17262259737238633	 -0.9713040895596258	 
3.5	 -0.03937647079646428	 -0.833951645769611	 
3.5	 0.11082090053837104	 -0.7248902220976439	 
3.5	 0.2865998854691559	 -0.6580884778418139	 
3.5	 0.47294398581499203	 -0.6092242085504522	 
3.5	 0.6425004699125434	 -0.53399371926512	 
3.5	 0.7840209254064103	 -0.4114003528316778	 
3.5	 0.9282490766876902	 -0.2813781154321937	 
3.5	 1.0869644777123288	 -0.1670179240664903	 
3.5	 1.2249759446869515	 -0.042749735444930395	 
3.5	 1.3080169153220915	 0.1181170935772438	 
3.5	 1.3564430886686853	 0.3048726786160901	 
3.5	 1.4201154543006564	 0.48660450355167145	 
3.5	 1.542722889626854	 0.6356349116547355	 
3.5	 1.693275529334577	 0.7639610990391822	 
3.5	 1.7928318125761151	 0.9090512718693615	 
3.5	 1.787574048353186	 1.0909382508082535	 
3.5	 1.69746904866696	 1.2788164250291691	 
3.5	 1.5555281857143974	 1.4328923210395754	 
3.5	 1.390035788873654	 1.523528805549482	 
3.5	 1.2095124268042212	 1.5635523922538253	 
3.5	 1.0173142399586212	 1.5768856842700716	 
3.5	 0.8167973529282885	 1.5874513187942019	 
3.5	 0.6124682657814684	 1.6127388575596198	 
3.5	 0.4160486594900181	 1.6298894680886844	 
3.5	 0.2420512879427623	 1.600436211630306	 
3.5	 0.10218647780222684	 1.4942196917190405	 
3.5	 -0.0091280523717523	 1.3324405936358625	 
3.5	 -0.10403481797940854	 1.1556810748159165	 
3.5	 -0.1929726970787086	 0.9884856528663775	 
3.5	 -0.28311374313413284	 0.8253993435575313	 
3.5	 -0.37932286149379424	 0.6627961052839333	 
3.5	 -0.48391646425066587	 0.5037604193536633	 
3.5	 -0.5976712922448878	 0.35082458561034147	 
3.5	 -0.7088466696161247	 0.19733920907483826	 
3.5	 -0.7991898152011294	 0.03184898509189208	 
3.5	 -0.8761713132089084	 -0.14198726256438496	 
3.5	 -0.9981456170300865	 -0.2905901196787959	 
3.5	 -1.1915037522373588	 -0.3948968496463646	 
3.5	 -1.3745065487723531	 -0.48723005476045417	 
3.5	 -1.4464145133622397	 -0.6089549131271069	 
3.5	 -1.3678302203469281	 -0.7781264309310009	 
3.5	 -1.2522708435496597	 -0.9546747213573952	 
3.5	 -1.1578162912984844	 -1.1192852634868593	 
3.5	 -1.0719924440426287	 -1.2791810214336028	 
4.0	 -1.1144821262444449	 -1.522168762575762	 
4.0	 -0.8537600127318304	 -1.5759981839497175	 
4.0	 -0.6434916083960921	 -1.563532862107456	 
4.0	 -0.4735827944239965	 -1.4973501661407052	 
4.0	 -0.33393945200230835	 -1.3900274651411895	 
4.0	 -0.21446746231779346	 -1.2541421282006342	 
4.0	 -0.10507270655721733	 -1.1022715244107648	 
4.0	 0.004338934092654817	 -0.9469930228633067	 
4.0	 0.12378276017915064	 -0.8007878336798203	 
4.0	 0.25705837477565635	 -0.6685539619839432	 
4.0	 0.39736234041229546	 -0.5422536111847154	 
4.0	 0.5370171211910202	 -0.4128235435116308	 
4.0	 0.6763175420216965	 -0.28295003187105805	 
4.0	 0.8270197429193704	 -0.17221081299594942	 
4.0	 0.9978513469248886	 -0.09487092305985317	 
4.0	 1.1764812226413115	 -0.029592840677175238	 
4.0	 1.34353213042001	 0.0568713311840415	 
4.0	 1.4820405402302306	 0.18727235533554654	 
4.0	 1.5828354077972562	 0.35051485216157763	 
4.0	 1.6396169551549535	 0.5298823609969823	 
4.0	 1.6563491622249742	 0.7179537751468775	 
4.0	 1.6418492108932137	 0.9117032738937159	 
4.0	 1.6012718177551533	 1.1047574394820976	 
4.0	 1.52769427994617	 1.27970454286208	 
4.0	 1.4120123253571553	 1.4172575594941734	 
4.0	 1.2552227657579575	 1.5115708750283512	 
4.0	 1.0709139255201767	 1.5735542736256727	 
4.0	 0.873464354981354	 1.6151690851504001	 
4.0	 0.675962643562215	 1.646237723767513	 
4.0	 0.4832657011612574	 1.6629334547941246	 
4.0	 0.29699521184912153	 1.6560651365922923	 
4.0	 0.1187652577748527	 1.6164298315299426	 
4.0	 -0.04943885425540466	 1.5382163292594782	 
4.0	 -0.20443041266991935	 1.426590161535975	 
4.0	 -0.34278010650729834	 1.2889333911379084	 
4.0	 -0.4610560317685987	 1.1326258162098988	 
4.0	 -0.5540488564477427	 0.9634949150543952	 
4.0	 -0.611676092922126	 0.7831121870384651	 
4.0	 -0.6233845338711632	 0.5924153078913413	 
4.0	 -0.6162306510568911	 0.4017250148117515	 
4.0	 -0.6781349702067091	 0.2359210011112622	 
4.0	 -0.803831435962699	 0.0898851037099554	 
4.0	 -0.9265162340034913	 -0.06097095713626439	 
4.0	 -0.992654694080882	 -0.2359623733284543	 
4.0	 -1.0265927459054252	 -0.42384638720252554	 
4.0	 -1.0692037962029726	 -0.6077073508007704	 
4.0	 -1.1244773669389114	 -0.78804895111127	 
4.0	 -1.1821279696310323	 -0.968437348296545	 
4.0	 -1.2175278040428523	 -1.1502330627816126	 
4.0	 -1.2039036097290854	 -1.3344666742976328	 
4.5	 -0.6344669401473534	 -1.0758971071402872	 
4.5	 -0.492371735736151	 -1.033270344980222	 
4.5	 -0.3058025296503232	 -1.0528836846076157	 
4.5	 -0.0917598136277622	 -1.1105794656564805	 
4.5	 0.13275592059364014	 -1.182200027760826	 
4.5	 0.3507441812759917	 -1.2435877105546636	 
4.5	 0.5452044766814006	 -1.270584853672004	 
4.5	 0.6991363150719747	 -1.2390337967468577	 
4.5	 0.7970956891229453	 -1.1267134757179094	 
4.5	 0.8537810723829389	 -0.9489064575149015	 
4.5	 0.9111901832610741	 -0.7548613522039286	 
4.5	 1.007119418742717	 -0.5897265244769595	 
4.5	 1.1341348485206328	 -0.4522016006304958	 
4.5	 1.2614794995924505	 -0.3170348899227068	 
4.5	 1.361210557361383	 -0.16156983993709823	 
4.5	 1.4305922430708446	 0.013434749628902877	 
4.5	 1.4794165360780016	 0.1955928133438068	 
4.5	 1.5129035018010542	 0.37770266500871585	 
4.5	 1.5278740972753553	 0.5620527223256787	 
4.5	 1.5202704201335937	 0.7519244211440803	 
4.5	 1.4862693826904134	 0.949605814670592	 
4.5	 1.424750208071143	 1.14595284023136	 
4.5	 1.3363226181067724	 1.324500566784614	 
4.5	 1.2216246009898646	 1.4686644825505941	 
4.5	 1.081299783925765	 1.5619015951311104	 
4.5	 0.9173902124223184	 1.597965300048138	 
4.5	 0.7351640862183266	 1.594362783368906	 
4.5	 0.5403430561966203	 1.571939938093622	 
4.5	 0.3386487732400295	 1.5515426572224964	 
4.5	 0.13577453116092109	 1.5536022419216757	 
4.5	 -0.06373840165352368	 1.5817069159137076	 
4.5	 -0.25687464925596554	 1.6171357385805503	 
4.5	 -0.4407238226597816	 1.639632817495603	 
4.5	 -0.6123755328783488	 1.6289422602322639	 
4.5	 -0.7689987797798936	 1.5660175118659798	 
4.5	 -0.9090190130829837	 1.4509516300329708	 
4.5	 -1.0318652083600979	 1.299124471148843	 
4.5	 -1.1369943427562041	 1.1263424420787873	 
4.5	 -1.2237661644620217	 0.9476892713036745	 
4.5	 -1.2902554629824654	 0.7686979122894714	 
4.5	 -1.3336281289241243	 0.5881457013876461	 
4.5	 -1.3510308739637504	 0.40466742278366075	 
4.5	 -1.3396508765811044	 0.2173160145547477	 
4.5	 -1.297307743388953	 0.03167945746561975	 
4.5	 -1.222322074354277	 -0.14147737443254066	 
4.5	 -1.1136169543934868	 -0.2919620208843295	 
4.5	 -0.9842311336765657	 -0.42670792433927945	 
4.5	 -0.8603465595645623	 -0.5685290575073616	 
4.5	 -0.7561141942643532	 -0.7250029709800085	 
4.5	 -0.6785195021580628	 -0.8946522489140181	 
5.0	 -0.35014408060421254	 -0.6183868001800104	 
5.0	 -0.15236977298186236	 -0.5983816407843577	 
5.0	 0.04297875522174954	 -0.5479322841589677	 
5.0	 0.23678966467919121	 -0.48078710654979573	 
5.0	 0.4299511160630307	 -0.4106944842027986	 
5.0	 0.6233512700458359	 -0.35140279336393226	 
5.0	 0.8178783196246497	 -0.31665971162754913	 
5.0	 1.0147701208307125	 -0.312655403604588	 
5.0	 1.2164783785879236	 -0.31934426441073904	 
5.0	 1.4252499846403481	 -0.31089392117052705	 
5.0	 1.6224952927223515	 -0.25713377945764454	 
5.0	 1.763078937519854	 -0.12509809567071561	 
5.0	 1.829684786781183	 0.07451269890947108	 
5.0	 1.8268676358361673	 0.2987513508767223	 
5.0	 1.7596849604679792	 0.5039459654750807	 
5.0	 1.6366477380631688	 0.6607870430560616	 
5.0	 1.4763954077199617	 0.7820872502941807	 
5.0	 1.2994146327889526	 0.8883414754499069	 
5.0	 1.1261920766207352	 1.0000446067837094	 
5.0	 0.9772143970085648	 1.1376915260651288	 
5.0	 0.8600688400531061	 1.3067106962340136	 
5.0	 0.7319433386685689	 1.4536681758257006	 
5.0	 0.5569756737262681	 1.5353169885647364	 
5.0	 0.3507792645007866	 1.574060790680738	 
5.0	 0.13710267525666553	 1.6017443919529495	 
5.0	 -0.06875634524181437	 1.6178857907513533	 
5.0	 -0.25996450517488107	 1.5896239915702903	 
5.0	 -0.42987799781681785	 1.4917056726242865	 
5.0	 -0.5710675713660788	 1.3383218092519347	 
5.0	 -0.675911354648411	 1.1544279250832414	 
5.0	 -0.7439657867974656	 0.9600560657337831	 
5.0	 -0.79225573558124	 0.7632563638139265	 
5.0	 -0.840412540000106	 0.570291125895954	 
5.0	 -0.9079680687177356	 0.3873819053524682	 
5.0	 -1.0040295235559717	 0.21647924830417525	 
5.0	 -1.1182713182900375	 0.05157204800258204	 
5.0	 -1.2382446539887484	 -0.11422068687399677	 
5.0	 -1.3515005012141583	 -0.28777739962956117	 
5.0	 -1.4453748879967947	 -0.47360056262734185	 
5.0	 -1.5065904671690344	 -0.6694124096418389	 
5.0	 -1.5217611921449998	 -0.8717336130012391	 
5.0	 -1.4780700610162063	 -1.076318077303717	 
5.0	 -1.3744351870993876	 -1.2631070512697222	 
5.0	 -1.2208040304770964	 -1.397180125969407	 
5.0	 -1.0289567924669836	 -1.4469505030950052	 
5.0	 -0.8243277427260054	 -1.4188286611930987	 
5.0	 -0.6364164374124918	 -1.3365691431681037	 
5.0	 -0.481631716298263	 -1.2094569227625878	 
5.0	 -0.37338428162861226	 -1.0434302752682623	 
5.0	 -0.32508483564883095	 -0.8444274759768331	 
5.5	 -1.0569713972810828	 -1.1973783363385972	 
5.5	 -0.8936945004957823	 -1.1253494269746536	 
5.5	 -0.7262097105940053	 -1.0547564502717597	 
5.5	 -0.5551762678092198	 -0.9877612443124154	 
5.5	 -0.38125341237489413	 -0.9265256471791217	 
5.5	 -0.20510038452449558	 -0.8732114969543785	 
5.5	 -0.02737642449149283	 -0.8299806317206866	 
5.5	 0.15125922749064674	 -0.7989948895605462	 
5.5	 0.3303339228274226	 -0.7821566816036287	 
5.5	 0.5109915660209893	 -0.7791208507269738	 
5.5	 0.6952052522121337	 -0.78838937785794	 
5.5	 0.8832676626932676	 -0.8048042293761509	 
5.5	 1.057739552997418	 -0.7848594555794894	 
5.5	 1.199024212549944	 -0.6870559038741414	 
5.5	 1.308190251455963	 -0.530999614878597	 
5.5	 1.3894423047188074	 -0.3455523627233986	 
5.5	 1.4469727810994641	 -0.15822308874438484	 
5.5	 1.4848073487956976	 0.02192909648492993	 
5.5	 1.5068511304948025	 0.199183434044939	 
5.5	 1.5170065675391542	 0.3781158556298023	 
5.5	 1.5180800858128702	 0.5623394447368297	 
5.5	 1.5042057799174802	 0.7478486527765102	 
5.5	 1.4653950582312683	 0.9270161565152586	 
5.5	 1.391683999651705	 1.0922047114849665	 
5.5	 1.2793119763972298	 1.2372862574369186	 
5.5	 1.1366668706553287	 1.3590883157120135	 
5.5	 0.973546521223686	 1.4547814325825912	 
5.5	 0.7997451698785768	 1.5215399014556341	 
5.5	 0.6225622905358439	 1.5591368968731703	 
5.5	 0.4424464013376714	 1.5744824576921685	 
5.5	 0.25868035803226586	 1.575700931344589	 
5.5	 0.07058802971457873	 1.570826766469419	 
5.5	 -0.11914254596193823	 1.5605203562630896	 
5.5	 -0.30200998741440804	 1.5326995931534844	 
5.5	 -0.4689356397633193	 1.4740170211708454	 
5.5	 -0.6120625590655722	 1.3734063339633258	 
5.5	 -0.7326801209415216	 1.23687901564131	 
5.5	 -0.836223387566119	 1.0781872776985058	 
5.5	 -0.9279272469532179	 0.9108198431008154	 
5.5	 -1.0080298980916595	 0.7414318396780232	 
5.5	 -1.0718170984201951	 0.5699053140617062	 
5.5	 -1.1143627133015406	 0.39583252405469377	 
5.5	 -1.1311122738107695	 0.21882014540945693	 
5.5	 -1.127244585231922	 0.038852434733287325	 
5.5	 -1.1183794389783828	 -0.14368131639234027	 
5.5	 -1.1206500531863832	 -0.3283718991313118	 
5.5	 -1.1477967621414902	 -0.5145951281131406	 
5.5	 -1.1861907301901014	 -0.6992679734644842	 
5.5	 -1.2047560672542983	 -0.8777399630418239	 
5.5	 -1.1721354105469897	 -1.0453353372111869	 
6.0	 -0.9555092277663954	 -1.2692150681600325	 
6.0	 -0.7975564124731749	 -1.2208238392758914	 
6.0	 -0.6233042126936973	 -1.2012388134998755	 
6.0	 -0.43791619145311134	 -1.2006543507791372	 
6.0	 -0.24655591177656505	 -1.2092648110608264	 
6.0	 -0.054386936689206467	 -1.2172645542920957	 
6.0	 0.1334271707838162	 -1.214847940420095	 
6.0	 0.311722847617355	 -1.1922093293919767	 
6.0	 0.47533653078626137	 -1.139543081154891	 
6.0	 0.6194640206056574	 -1.0476387213011158	 
6.0	 0.7515481592079435	 -0.9275689198822001	 
6.0	 0.8935536593317337	 -0.8146096057999727	 
6.0	 1.0486362393048554	 -0.7194763779089233	 
6.0	 1.193132432492214	 -0.6174301351078446	 
6.0	 1.3022573117152865	 -0.48244301873271844	 
6.0	 1.3673931419571614	 -0.31379164576989904	 
6.0	 1.3950755883617123	 -0.13405283900638754	 
6.0	 1.3967127848718264	 0.0439292662778248	 
6.0	 1.3894651176409882	 0.22153251152001813	 
6.0	 1.3889802508782358	 0.40084042213051013	 
6.0	 1.3931172643245835	 0.5812645374229326	 
6.0	 1.3900758688646158	 0.7607654831020505	 
6.0	 1.3679597483644685	 0.9372894608548763	 
6.0	 1.3148733690481431	 1.1087818677363448	 
6.0	 1.222743467251032	 1.2692570083077155	 
6.0	 1.0961773759089242	 1.3996875661410375	 
6.0	 0.9424282940652076	 1.4789429509591414	 
6.0	 0.7694488756975224	 1.5071440780576233	 
6.0	 0.5860643277718651	 1.5109225981440948	 
6.0	 0.40102754576949107	 1.5174948850330106	 
6.0	 0.2200819178491284	 1.5284889722204718	 
6.0	 0.04591309331933574	 1.5195344642513444	 
6.0	 -0.11899284733723366	 1.4681971802327918	 
6.0	 -0.27263710144943026	 1.37609512234849	 
6.0	 -0.41324870329413477	 1.2560923948131282	 
6.0	 -0.5390808001259851	 1.1210829078511788	 
6.0	 -0.6508096522816735	 0.9803475703464458	 
6.0	 -0.7536458735600619	 0.8364063086849619	 
6.0	 -0.8532425509487797	 0.6910094661211408	 
6.0	 -0.9524531989226468	 0.5445222395685544	 
6.0	 -1.050066625977366	 0.39529872867938626	 
6.0	 -1.144535987749229	 0.24153550276835922	 
6.0	 -1.2298034262567596	 0.08156974212982346	 
6.0	 -1.2891629895083898	 -0.08592946551334829	 
6.0	 -1.305890794944007	 -0.2616990815140457	 
6.0	 -1.2812862435105468	 -0.4399916237083804	 
6.0	 -1.228330293027126	 -0.6115182338904948	 
6.0	 -1.1586630664180986	 -0.775414465183215	 
6.0	 -1.082903364624886	 -0.9364298776863282	 
6.0	 -1.0116518607176102	 -1.0994136768589096	 
6.5	 -1.5498488432361244	 -0.8261817427365489	 
6.5	 -1.282499135061306	 -0.9301880579766768	 
6.5	 -1.0537480059231104	 -0.9270314828351823	 
6.5	 -0.8505004981509862	 -0.8487038616540629	 
6.5	 -0.659661654074383	 -0.7271970387753156	 
6.5	 -0.46813651602274997	 -0.594502858540938	 
6.5	 -0.2643146227404787	 -0.48110333585678366	 
6.5	 -0.04375184598710091	 -0.41019185870676816	 
6.5	 0.19583628260940664	 -0.4027653004799492	 
6.5	 0.4347455204347706	 -0.4206576218196466	 
6.5	 0.5610103617446991	 -0.2203467592617372	 
6.5	 0.6064128407029393	 -0.16900028988869198	 
6.5	 0.6228236162595816	 -0.40207898198503733	 
6.5	 0.6316032555263177	 -0.747801810640681	 
6.5	 0.6542291420362243	 -1.0387524938418184	 
6.5	 0.7205774928353437	 -1.2448740400855873	 
6.5	 0.865868030318093	 -1.4206616310384637	 
6.5	 1.0872308664926271	 -1.399409412651101	 
6.5	 1.2744275944308108	 -1.2221663900098991	 
6.5	 1.3407387850289654	 -1.0065043856880305	 
6.5	 1.3459429214165577	 -0.7700501371567647	 
6.5	 1.3647019669335072	 -0.5157439258733973	 
6.5	 1.3739453166741005	 -0.2730742620103117	 
6.5	 1.2996361290717988	 -0.08535606980881337	 
6.5	 1.1058427913583042	 0.023514301814527586	 
6.5	 0.8576369140059494	 0.08095357661277801	 
6.5	 0.6607967892161031	 0.1645443454609862	 
6.5	 0.6007445545743688	 0.3664272829879375	 
6.5	 0.619708705844398	 0.6302055327452515	 
6.5	 0.6433704670169453	 0.8823753953431198	 
6.5	 0.6284160032037124	 1.1101240462153947	 
6.5	 0.5690302183320334	 1.3408690321267436	 
6.5	 0.45526497696664003	 1.5427438676225882	 
6.5	 0.280244299987187	 1.6840122686647205	 
6.5	 0.0610026511079127	 1.7690427399025852	 
6.5	 -0.17586008877686995	 1.816636908686076	 
6.5	 -0.40977820254969194	 1.8339257188482136	 
6.5	 -0.6340694418764761	 1.8012295679273598	 
6.5	 -0.8433209528923182	 1.705440460648689	 
6.5	 -1.0303492203878828	 1.5608261260581915	 
6.5	 -1.1878154736235362	 1.3860379905379565	 
6.5	 -1.3154230374191094	 1.1941215056142984	 
6.5	 -1.42288116828095	 0.9898481277420408	 
6.5	 -1.512589173206568	 0.7762810911280432	 
6.5	 -1.5785445583280393	 0.5553980205772079	 
6.5	 -1.6162753753055643	 0.32907956177410436	 
6.5	 -1.6293774876847888	 0.09900862359408324	 
6.5	 -1.6235683882217162	 -0.13318388483617943	 
6.5	 -1.6045655793620868	 -0.3658670546274957	 
6.5	 -1.5780865635516426	 -0.5974099768906815	 
7.0	 -1.159135578409133	 -1.1529418423211517	 
7.0	 -0.9751768322237341	 -1.1567119763922475	 
7.0	 -0.7989001724438266	 -1.1280952293172328	 
7.0	 -0.6270562459172818	 -1.0801944480025432	 
7.0	 -0.45639569949196945	 -1.026112479354613	 
7.0	 -0.28366918001576047	 -0.9789521702798772	 
7.0	 -0.10562733433652532	 -0.9518163676847708	 
7.0	 0.08043356541648955	 -0.9560638426671823	 
7.0	 0.26963784778687144	 -0.9788260303473172	 
7.0	 0.4515605301827631	 -0.9894961494617605	 
7.0	 0.6156494334237357	 -0.9570608384425747	 
7.0	 0.7557663965076937	 -0.8605963524497737	 
7.0	 0.8904388949436343	 -0.7355599601990995	 
7.0	 1.044950531243559	 -0.6345069234748326	 
7.0	 1.2003340803510079	 -0.5493616633983592	 
7.0	 1.3041353116379524	 -0.4219617359144871	 
7.0	 1.3619722012413957	 -0.2532091959969158	 
7.0	 1.397818173978096	 -0.0629032302090197	 
7.0	 1.4354148100360808	 0.1292826870099528	 
7.0	 1.4833979551670144	 0.3120047847828881	 
7.0	 1.5264401813901731	 0.48713327844498777	 
7.0	 1.547087128644425	 0.6577112302262029	 
7.0	 1.5283560595673185	 0.8266107084303763	 
7.0	 1.4653409937867548	 0.9923251708783641	 
7.0	 1.3659379897828696	 1.1487065030246375	 
7.0	 1.2386599396853297	 1.2893829479096643	 
7.0	 1.0915318973754757	 1.4078649990598198	 
7.0	 0.9306630880481089	 1.4972007264467557	 
7.0	 0.7616924997092487	 1.550324698895634	 
7.0	 0.5900081460532712	 1.5610404108453344	 
7.0	 0.41723247993858786	 1.5361885167489737	 
7.0	 0.24208397109219595	 1.4926638686711846	 
7.0	 0.06320608501084188	 1.447620999025453	 
7.0	 -0.12067394165231331	 1.4179561173147837	 
7.0	 -0.3040156620188569	 1.3995557159696062	 
7.0	 -0.46953876947272677	 1.3521039306100613	 
7.0	 -0.6041919759915945	 1.2454921567948156	 
7.0	 -0.7130705456089397	 1.096031066853389	 
7.0	 -0.8050816751744683	 0.9297801761452957	 
7.0	 -0.8871387177306782	 0.7658800167160388	 
7.0	 -0.9605388218340217	 0.6039819184045296	 
7.0	 -1.0255974425608614	 0.4403305646595972	 
7.0	 -1.0824125394434987	 0.2716248994149321	 
7.0	 -1.1294703467464158	 0.09793011074861127	 
7.0	 -1.1645330337328954	 -0.0791763334583286	 
7.0	 -1.1853593180001356	 -0.25810975618630916	 
7.0	 -1.1899911452265446	 -0.43733493621958675	 
7.0	 -1.1817140107626676	 -0.616232253517537	 
7.0	 -1.16843528027507	 -0.7949891348221902	 
7.0	 -1.1582205905588567	 -0.973820643350934	 
7.5	 -1.0437850119404006	 -1.365463510694461	 
7.5	 -0.8928188940963843	 -1.2627954503828214	 
7.5	 -0.7285050202918651	 -1.1843965688372078	 
7.5	 -0.5573223183709447	 -1.118741223085296	 
7.5	 -0.38574971617772413	 -1.0543037701547626	 
7.5	 -0.22026614155630458	 -0.9795585670732827	 
7.5	 -0.0669216282673989	 -0.8837216248770554	 
7.5	 0.07918859402735665	 -0.7749522664532161	 
7.5	 0.2334297999012015	 -0.6795632561908995	 
7.5	 0.39830968010117945	 -0.6023995585181502	 
7.5	 0.5675945050869576	 -0.533688851174423	 
7.5	 0.7368950902172277	 -0.46665908166776787	 
7.5	 0.906157951382687	 -0.40160529999898353	 
7.5	 1.0749589152216537	 -0.33536781118873843	 
7.5	 1.2386761365984027	 -0.24970272783577094	 
7.5	 1.381860645876206	 -0.13439238855891222	 
7.5	 1.4828947192077122	 0.012276984524999906	 
7.5	 1.5388211400370595	 0.18470595722302502	 
7.5	 1.564849568631548	 0.370392991871049	 
7.5	 1.576456441102008	 0.5568925626993941	 
7.5	 1.578749706218424	 0.739134614620658	 
7.5	 1.5667670340055406	 0.9192124369395669	 
7.5	 1.5351295744821725	 1.099512315470991	 
7.5	 1.4731191799469272	 1.2730310474940942	 
7.5	 1.3551918814013915	 1.404397846363209	 
7.5	 1.1870922345967445	 1.4830772504267016	 
7.5	 0.9991369256243611	 1.5204660076454608	 
7.5	 0.8156112543009266	 1.528623908213356	 
7.5	 0.6355922462658581	 1.5203968500486744	 
7.5	 0.4537499148025989	 1.5060338414830474	 
7.5	 0.27172516018428033	 1.4840881226965987	 
7.5	 0.0929877823099495	 1.450044402414459	 
7.5	 -0.07926148628476329	 1.3996333230481104	 
7.5	 -0.2501769293469968	 1.3362223741587724	 
7.5	 -0.43008892038275126	 1.268989727605993	 
7.5	 -0.6028433456905239	 1.1892568489025004	 
7.5	 -0.7424301587087202	 1.0816515302517389	 
7.5	 -0.8257712814163897	 0.9328301684348826	 
7.5	 -0.8620733692135805	 0.7517846999734775	 
7.5	 -0.8804166230637803	 0.561240814198486	 
7.5	 -0.9022584787435666	 0.376566946151086	 
7.5	 -0.9331971445416553	 0.1979857532666215	 
7.5	 -0.9769393706938728	 0.02391352485552474	 
7.5	 -1.0371919074360465	 -0.14723344977177505	 
7.5	 -1.1095267456447089	 -0.31752247546641527	 
7.5	 -1.146744602655976	 -0.49157111693621386	 
7.5	 -1.1395022995108943	 -0.6729318763023181	 
7.5	 -1.1720148072203365	 -0.8595189067278838	 
7.5	 -1.1562565287216005	 -1.0276826716981478	 
7.5	 -1.0392140711267814	 -1.17602377894142	 
8.0	 -1.1694353515470117	 -1.1190644378510362	 
8.0	 -0.9873189606173668	 -1.1562311699180772	 
8.0	 -0.8069809687738622	 -1.1590355732682367	 
8.0	 -0.6279548291540586	 -1.1388672161171907	 
8.0	 -0.44977399489551567	 -1.1071156666806146	 
8.0	 -0.27197191913579355	 -1.0751704931741835	 
8.0	 -0.09408197724830898	 -1.0544102663068722	 
8.0	 0.08440144147011656	 -1.0507000949562761	 
8.0	 0.26408603786957197	 -1.055467366189267	 
8.0	 0.4455960188428303	 -1.057805160974979	 
8.0	 0.6286896834110222	 -1.0463685405043772	 
8.0	 0.803623760738635	 -1.0050061937697854	 
8.0	 0.9567156098849032	 -0.9179403325100483	 
8.0	 1.0872560912383946	 -0.791945118435021	 
8.0	 1.1999428470525895	 -0.6431490260548456	 
8.0	 1.2993890272148372	 -0.4874048053872086	 
8.0	 1.3868326926755996	 -0.3304293272779702	 
8.0	 1.4594366172667477	 -0.1657019775043922	 
8.0	 1.5135786858716518	 0.011027077105971362	 
8.0	 1.5438680533731384	 0.19420459328628212	 
8.0	 1.5445533670028608	 0.3762792364497601	 
8.0	 1.509908980697868	 0.5497178956448509	 
8.0	 1.4386967779106845	 0.7101686960876965	 
8.0	 1.339255156774731	 0.8600686107910376	 
8.0	 1.2211533295379648	 1.002727144160081	 
8.0	 1.0939605084318484	 1.1414538005770243	 
8.0	 0.9636608717515202	 1.274556352724397	 
8.0	 0.8219699515144862	 1.3804353864447276	 
8.0	 0.6592266552895244	 1.4374659532145064	 
8.0	 0.4795023574402144	 1.455159781528534	 
8.0	 0.2922182104936758	 1.4551585629309933	 
8.0	 0.1065069386704902	 1.4579666623360739	 
8.0	 -0.07396903900138299	 1.4628867667121372	 
8.0	 -0.2503156654372821	 1.4507501806717729	 
8.0	 -0.4227950844593234	 1.4081975423461568	 
8.0	 -0.5893288049269215	 1.33686107221093	 
8.0	 -0.7475053893630367	 1.2405054857692648	 
8.0	 -0.8949096568343428	 1.12289493494223	 
8.0	 -1.0273251619977537	 0.9875223890051541	 
8.0	 -1.1358489629342159	 0.8371752592187565	 
8.0	 -1.2108256765672702	 0.6745276758713872	 
8.0	 -1.2429930223763914	 0.5022645213919447	 
8.0	 -1.2364721191974035	 0.32343674092939595	 
8.0	 -1.2117447110885085	 0.1415427754304066	 
8.0	 -1.1892975039981228	 -0.04006004989392555	 
8.0	 -1.1763311327204773	 -0.22027128842084664	 
8.0	 -1.170554930431733	 -0.3996027621319729	 
8.0	 -1.169473074150953	 -0.5786011424789297	 
8.0	 -1.170589740897198	 -0.7578131009133413	 
8.0	 -1.1714091076895305	 -0.9377853088868355	 
8.5	 -0.9166045612700102	 -1.0757463912992062	 
8.5	 -0.7419298486495368	 -0.9975244656229165	 
8.5	 -0.5611039338365534	 -0.9628409294685624	 
8.5	 -0.37649204447434176	 -0.9551820626156822	 
8.5	 -0.1904594082061834	 -0.9580341448438122	 
8.5	 -0.004878086709843419	 -0.9579784663796104	 
8.5	 0.18148811659227887	 -0.9614244694025162	 
8.5	 0.36675557936881525	 -0.9595876741087725	 
8.5	 0.5478676401798735	 -0.9310996150752757	 
8.5	 0.7324987634164429	 -0.8799129795636824	 
8.5	 0.9232778568171556	 -0.8129882758695613	 
8.5	 1.1101751480935198	 -0.7295340640631237	 
8.5	 1.2821378421074923	 -0.6281322072075461	 
8.5	 1.4281131437210284	 -0.5073645683660044	 
8.5	 1.537048257796084	 -0.36581301060167487	 
8.5	 1.5980880557584725	 -0.20211648304353766	 
8.5	 1.61519224539706	 -0.01919245672627032	 
8.5	 1.6171615369158885	 0.17286715142672826	 
8.5	 1.6257986969886402	 0.365222720078662	 
8.5	 1.6337988970714394	 0.5550532929666141	 
8.5	 1.6282226564154811	 0.7407030078237786	 
8.5	 1.5961304942719585	 0.9205160023833492	 
8.5	 1.5247256963230627	 1.0927054581230222	 
8.5	 1.4098857816043677	 1.2475278883362428	 
8.5	 1.260995945310163	 1.3628495358733312	 
8.5	 1.0885388659809276	 1.4178036804854512	 
8.5	 0.9021535290082904	 1.4190091125569881	 
8.5	 0.7109303805843717	 1.3909547213600113	 
8.5	 0.5225066438555118	 1.3565414590850622	 
8.5	 0.33748587363528293	 1.329453655634947	 
8.5	 0.1543330361199689	 1.3205733245987281	 
8.5	 -0.028473772718190113	 1.3405382357946944	 
8.5	 -0.21166754473686075	 1.3858845348892792	 
8.5	 -0.3947747074741792	 1.431581306988759	 
8.5	 -0.577219774226952	 1.450775943503427	 
8.5	 -0.7577273666588152	 1.4189222995079231	 
8.5	 -0.9278165778612334	 1.3352197487350017	 
8.5	 -1.0747646561140982	 1.2128464874436562	 
8.5	 -1.188550572466959	 1.0638876175259642	 
8.5	 -1.2702232220385958	 0.8953169300175159	 
8.5	 -1.3236103091379414	 0.7128251576878362	 
8.5	 -1.352539538080915	 0.5221030333032236	 
8.5	 -1.3608386131834365	 0.3288412896299782	 
8.5	 -1.3518955908283983	 0.13846763682258484	 
8.5	 -1.3247695205821945	 -0.046180075154610575	 
8.5	 -1.2760579249418709	 -0.22373662302372915	 
8.5	 -1.2039611205348044	 -0.39343959242484433	 
8.5	 -1.1178714191552244	 -0.5585459149689581	 
8.5	 -1.0318783365262816	 -0.7239994143184776	 
8.5	 -0.9600875060854015	 -0.8947497024397719	 
9.0	 -1.025916111743992	 -1.1222480000630946	 
9.0	 -0.8447667956449978	 -1.0902402205148731	 
9.0	 -0.6639658104487481	 -1.077988445801484	 
9.0	 -0.4831534856234179	 -1.077290736612544	 
9.0	 -0.30197015063718163	 -1.0799451536376703	 
9.0	 -0.12005613495821439	 -1.0777497575664798	 
9.0	 0.062270781211315816	 -1.0627570371364488	 
9.0	 0.24131755798093066	 -1.0282871167822691	 
9.0	 0.4123508056720429	 -0.9680976340920453	 
9.0	 0.5715379061525316	 -0.8804046119334712	 
9.0	 0.7174918381475308	 -0.771447257000606	 
9.0	 0.8509086642068733	 -0.6477881161423615	 
9.0	 0.9745200255891302	 -0.5163897916637818	 
9.0	 1.1026246315093262	 -0.3874208809586284	 
9.0	 1.2495100051482169	 -0.2698043313130215	 
9.0	 1.3875748196778492	 -0.14977959856206652	 
9.0	 1.4694638320931652	 -0.0027372339020784965	 
9.0	 1.492085844342457	 0.17500874899635463	 
9.0	 1.4931731936674657	 0.36783489840159933	 
9.0	 1.5056659993938861	 0.5601838954707975	 
9.0	 1.5132107547771072	 0.7426141924068912	 
9.0	 1.4765561330069572	 0.9086081745545435	 
9.0	 1.3787920177203805	 1.0552832635103861	 
9.0	 1.241071179862877	 1.1858843457503587	 
9.0	 1.088067980847374	 1.3042120505862078	 
9.0	 0.9344640714048218	 1.4117644139995496	 
9.0	 0.7792536808615487	 1.5064246618326056	 
9.0	 0.6200580869017233	 1.585759654389311	 
9.0	 0.45451099751578733	 1.6473565263490801	 
9.0	 0.28084400874763427	 1.689777594066093	 
9.0	 0.09813912257715002	 1.7129722233264608	 
9.0	 -0.09401047985367939	 1.7167889675598977	 
9.0	 -0.28764370068307915	 1.6972010046214074	 
9.0	 -0.4673664421249172	 1.6467391183606164	 
9.0	 -0.6175261409282874	 1.5578143912985363	 
9.0	 -0.7258072931498032	 1.4252735188294179	 
9.0	 -0.8031836142486117	 1.2609612528269607	 
9.0	 -0.8705528008955238	 1.0839655416937448	 
9.0	 -0.9480645819470174	 0.9128269507056046	 
9.0	 -1.0375020886138726	 0.7526465577918615	 
9.0	 -1.1221038856543246	 0.594955727481819	 
9.0	 -1.1857469320026341	 0.43124698433407016	 
9.0	 -1.2278420570448152	 0.2589915082564117	 
9.0	 -1.25718473490918	 0.07927242871313497	 
9.0	 -1.2827005624927414	 -0.10677704335373213	 
9.0	 -1.3109517703835103	 -0.29732710901190823	 
9.0	 -1.3177734396702134	 -0.48149132701580666	 
9.0	 -1.2588574703490225	 -0.6425687504671219	 
9.0	 -1.1409768398881994	 -0.7836151669118151	 
9.0	 -1.0374288082714052	 -0.9333637200467639	 
9.5	 -1.0733514110121138	 -1.4067974115624164	 
9.5	 -0.8952915897712109	 -1.384135923155035	 
9.5	 -0.7163470835981873	 -1.3465744736910297	 
9.5	 -0.5394906250745984	 -1.29380657894905	 
9.5	 -0.3676949467819988	 -1.2255257547077452	 
9.5	 -0.203932781301944	 -1.1414255167457645	 
9.5	 -0.05117686121598922	 -1.0411993808417572	 
9.5	 0.08760008125532359	 -0.9245408630345724	 
9.5	 0.21160006731396494	 -0.7927109324038967	 
9.5	 0.3285811071863696	 -0.6531372851971657	 
9.5	 0.4484045372466536	 -0.5147638046980608	 
9.5	 0.578977238529775	 -0.3859653420202895	 
9.5	 0.7218211945419379	 -0.2732578098699835	 
9.5	 0.8767706291058102	 -0.18126181894356477	 
9.5	 1.039602492918076	 -0.0986613288267552	 
9.5	 1.2016256728218078	 -0.00534672685859994	 
9.5	 1.3395993673585462	 0.11366800455454973	 
9.5	 1.4267939119093398	 0.26909800563603714	 
9.5	 1.466785227548592	 0.4500462440741031	 
9.5	 1.4807800777307112	 0.6335951983759298	 
9.5	 1.47770436591961	 0.8128489371050309	 
9.5	 1.4574542656878664	 0.9925779405358661	 
9.5	 1.4197266361938712	 1.1778061386932863	 
9.5	 1.3628804925448124	 1.3670920884896354	 
9.5	 1.281131729137982	 1.538971967386132	 
9.5	 1.1678966467492238	 1.668117772189767	 
9.5	 1.0184933356389378	 1.7334094271321996	 
9.5	 0.8406781069309228	 1.7412478471279424	 
9.5	 0.6472067400338963	 1.7090958442550637	 
9.5	 0.45084859219623974	 1.6544462731196528	 
9.5	 0.26334483638138134	 1.5926995804024147	 
9.5	 0.08913801194064265	 1.5244031178301702	 
9.5	 -0.07048669303918564	 1.443678864844026	 
9.5	 -0.21425669904319802	 1.3446231417925247	 
9.5	 -0.3417204417030376	 1.2227182513168873	 
9.5	 -0.4584967535715967	 1.0836941299512597	 
9.5	 -0.5729262476853949	 0.9378754401257998	 
9.5	 -0.6926623411928404	 0.7949936907834869	 
9.5	 -0.8150772190859117	 0.6557503260054681	 
9.5	 -0.9297264567398529	 0.5139814170493974	 
9.5	 -1.0259701337194223	 0.363351330087191	 
9.5	 -1.0944773620785246	 0.1983420299199487	 
9.5	 -1.138502844414107	 0.021296219459375557	 
9.5	 -1.168324134395997	 -0.16105704933667775	 
9.5	 -1.1932667775713448	 -0.34263026751355785	 
9.5	 -1.2143021705008825	 -0.5229350739465219	 
9.5	 -1.228305929251743	 -0.704171115289233	 
9.5	 -1.2299839383809663	 -0.8864586964597477	 
9.5	 -1.2106824107944656	 -1.0666294286896838	 
9.5	 -1.1614540128766966	 -1.241227578287691	 
10.0	 -0.8664318800503803	 -1.3224884828676005	 
10.0	 -0.6996275214798605	 -1.3061315711392532	 
10.0	 -0.5217432191009389	 -1.291613634060268	 
10.0	 -0.3374921816136313	 -1.2742803831289606	 
10.0	 -0.1515876177179517	 -1.2494775298436454	 
10.0	 0.03125726388608498	 -1.2125507857026372	 
10.0	 0.2063292544984639	 -1.1588458622042503	 
10.0	 0.36891514541917086	 -1.0837084708467994	 
10.0	 0.5143059722621768	 -0.9824898616573918	 
10.0	 0.6429707103273531	 -0.8572981287910214	 
10.0	 0.7693524446303478	 -0.7285273265492627	 
10.0	 0.8950719383330838	 -0.6004624011495168	 
10.0	 1.0119425406055653	 -0.46479346834264657	 
10.0	 1.1194018268942765	 -0.32068165120194775	 
10.0	 1.2216191741258904	 -0.17210674875084103	 
10.0	 1.310352165019871	 -0.01721459988564833	 
10.0	 1.3738831968553809	 0.14850329552711813	 
10.0	 1.4171736432809934	 0.3229724664445842	 
10.0	 1.4463249485364353	 0.5036621527549524	 
10.0	 1.4673563411528059	 0.6880177869956643	 
10.0	 1.4729622378123608	 0.8696263119481202	 
10.0	 1.4298248555165851	 1.034576061738571	 
10.0	 1.3299960733944334	 1.1768108383490856	 
10.0	 1.1878656832697403	 1.29713660910534	 
10.0	 1.018404038987897	 1.3965376889091057	 
10.0	 0.8365814943942946	 1.4759983926621558	 
10.0	 0.6558264005939441	 1.5347289580536234	 
10.0	 0.48011207338613837	 1.561061585891576	 
10.0	 0.3096541884665361	 1.5406163829950434	 
10.0	 0.14175198607453812	 1.4823212639161918	 
10.0	 -0.028687011107200122	 1.4142694405562786	 
10.0	 -0.20674367985198208	 1.364847890101304	 
10.0	 -0.39117680534480787	 1.3413915650932076	 
10.0	 -0.5700663577235672	 1.3156758766783219	 
10.0	 -0.7304708326313019	 1.2560678816321065	 
10.0	 -0.8648309006426402	 1.144323087560604	 
10.0	 -0.9802474432639663	 0.9986650685523994	 
10.0	 -1.0856699629133595	 0.8424453739752563	 
10.0	 -1.181217778708526	 0.6845399693388591	 
10.0	 -1.2604640633775968	 0.5230935263862453	 
10.0	 -1.3168274993539284	 0.35599745629482515	 
10.0	 -1.3441232795563967	 0.1813694216245386	 
10.0	 -1.3428229973628767	 0.001125268997349542	 
10.0	 -1.318919547229006	 -0.1796686657650477	 
10.0	 -1.2787496456862844	 -0.35613136905632287	 
10.0	 -1.2323355802777183	 -0.5292307644441663	 
10.0	 -1.1927252015403011	 -0.705239900546828	 
10.0	 -1.1576956973773922	 -0.8830716967106752	 
10.0	 -1.1063309050188657	 -1.0524459473993473	 
10.0	 -1.0165899305485766	 -1.202529320241954	 
10.5	 -0.7664580523791943	 -1.0037205104676163	 
10.5	 -0.6031023717674937	 -1.096939785960096	 
10.5	 -0.4341123042437845	 -1.1615791869159426	 
10.5	 -0.2602727474048441	 -1.2040409341364673	 
10.5	 -0.08236859884744933	 -1.2307272484229803	 
10.5	 0.0988152438316222	 -1.2480403505767914	 
10.5	 0.2824938830355932	 -1.2623824613992118	 
10.5	 0.4658241238068855	 -1.269707014375074	 
10.5	 0.6375121856883705	 -1.225083435707437	 
10.5	 0.7885320942678992	 -1.1184484055325257	 
10.5	 0.9128494271872275	 -0.9699612037086025	 
10.5	 1.004480128866484	 -0.8002815403481642	 
10.5	 1.0636488874566594	 -0.626535171407295	 
10.5	 1.1117517816662594	 -0.453776709836623	 
10.5	 1.1671772267585308	 -0.2834917928261657	 
10.5	 1.2308259005585096	 -0.11485381012269709	 
10.5	 1.3011215737988748	 0.05329134784541448	 
10.5	 1.376488017212307	 0.22209779064979912	 
10.5	 1.455013263571378	 0.392687772933344	 
10.5	 1.529601969946691	 0.5656917489372694	 
10.5	 1.5890853099199411	 0.7413536794415408	 
10.5	 1.6221847455540712	 0.9199071157609234	 
10.5	 1.6176217389120253	 1.1015856092101841	 
10.5	 1.5655276645218124	 1.2829092778001967	 
10.5	 1.4655766699875692	 1.4352644441961182	 
10.5	 1.3223127431855068	 1.525010170382432	 
10.5	 1.1467009874640062	 1.5563076662896296	 
10.5	 0.9524499771519085	 1.5495158553925827	 
10.5	 0.7532786954346513	 1.525055116045285	 
10.5	 0.561248146239047	 1.5002275552101976	 
10.5	 0.3787345572739284	 1.4741204798414165	 
10.5	 0.2046077446098741	 1.439226456312524	 
10.5	 0.03773249112830705	 1.3880299403807534	 
10.5	 -0.12371381418656768	 1.3167013373333258	 
10.5	 -0.2837895941184035	 1.2333999417511232	 
10.5	 -0.4470070682991884	 1.1487184016192413	 
10.5	 -0.6178784563609097	 1.0732493649227748	 
10.5	 -0.7972204768346297	 1.0122452106467263	 
10.5	 -0.9675115711130302	 0.9444581679337447	 
10.5	 -1.1056681341875447	 0.8406136466608982	 
10.5	 -1.1997834614138327	 0.6886270753801492	 
10.5	 -1.258291772164998	 0.5076978381127016	 
10.5	 -1.2912853042390626	 0.31979653526401836	 
10.5	 -1.299278247202642	 0.13641255551049336	 
10.5	 -1.2741523453215033	 -0.04041174409991336	 
10.5	 -1.2128231862814605	 -0.20987733384013005	 
10.5	 -1.1308067567630156	 -0.37433684138037626	 
10.5	 -1.0460978828244354	 -0.5365503422229173	 
10.5	 -0.9612756502931469	 -0.6965421805444482	 
10.5	 -0.8701570484915598	 -0.8527817481465298	 
11.0	 -0.418806152418134	 -1.3112279920903152	 
11.0	 -0.13592766740668435	 -1.3658184815063654	 
11.0	 0.07192082572205848	 -1.344678471537445	 
11.0	 0.22003454638852016	 -1.262237817501058	 
11.0	 0.32370871401312645	 -1.132926374714708	 
11.0	 0.39823854801630315	 -0.9711739984958984	 
11.0	 0.4589192678184759	 -0.7914105441621329	 
11.0	 0.5210460928400706	 -0.6080658670309148	 
11.0	 0.5983701408668463	 -0.4341391287192922	 
11.0	 0.6926620454039413	 -0.27152892401381656	 
11.0	 0.8000918917617835	 -0.11694463680884107	 
11.0	 0.9176481971877211	 0.03169236149169737	 
11.0	 1.0473283113962206	 0.1691470106539687	 
11.0	 1.1929504264374844	 0.2875258889406453	 
11.0	 1.353823781710094	 0.38574212331318447	 
11.0	 1.517049145805033	 0.4811379400253552	 
11.0	 1.6676824689283698	 0.5941422877914441	 
11.0	 1.7907807308401715	 0.7451135496576073	 
11.0	 1.8716287494724357	 0.9387940721974583	 
11.0	 1.8960244632888177	 1.1447569023488626	 
11.0	 1.849835986776681	 1.3277652198686174	 
11.0	 1.7215629641821726	 1.4544771211106475	 
11.0	 1.5380530753845225	 1.5191644236668154	 
11.0	 1.3467207286256484	 1.5364837632971107	 
11.0	 1.1578725099414318	 1.5193657349134237	 
11.0	 0.9712193166383616	 1.480112830368946	 
11.0	 0.7864715265555157	 1.4310275107233	 
11.0	 0.6033395175319703	 1.3844122370361078	 
11.0	 0.42153366740680337	 1.3525694703669924	 
11.0	 0.2399195252927964	 1.3437080274679485	 
11.0	 0.05370242691530936	 1.348301045382492	 
11.0	 -0.14290330251402528	 1.3520196516787046	 
11.0	 -0.3516699330011846	 1.341739084842952	 
11.0	 -0.5589199877314563	 1.308970153728086	 
11.0	 -0.7472588999155612	 1.2463389496790047	 
11.0	 -0.8992921027642196	 1.1464715640406065	 
11.0	 -0.997825662651885	 1.0021459616390442	 
11.0	 -1.0427917804894578	 0.8191040940315862	 
11.0	 -1.0636319484547596	 0.6252902207821357	 
11.0	 -1.0788113538823347	 0.43628982070981775	 
11.0	 -1.0907156278981167	 0.2508658171382372	 
11.0	 -1.1009559669514501	 0.06681185631849278	 
11.0	 -1.113009848986169	 -0.1187884082591113	 
11.0	 -1.131899964260742	 -0.3094391709506583	 
11.0	 -1.152915959678679	 -0.5045016350061051	 
11.0	 -1.1148904075262835	 -0.6792654110516041	 
11.0	 -0.9837329995480294	 -0.815004549705023	 
11.0	 -0.813875051593188	 -0.9211271577356324	 
11.0	 -0.6555067372324311	 -1.025263657479623	 
11.0	 -0.5421024231152086	 -1.1692399585892992	 
11.5	 -0.9650583732180149	 -1.446198218465197	 
11.5	 -0.7305533333719281	 -1.4615229159577279	 
11.5	 -0.5429870648490035	 -1.4122465558342046	 
11.5	 -0.39153496080841155	 -1.3134292681547	 
11.5	 -0.2653724144093222	 -1.180131182979285	 
11.5	 -0.15367481881090544	 -1.0274124303680314	 
11.5	 -0.04582166860633718	 -0.8699690033801514	 
11.5	 0.0653114697910018	 -0.716259559636207	 
11.5	 0.18391203767823278	 -0.5695028741020488	 
11.5	 0.3140384427212015	 -0.432735500954829	 
11.5	 0.4566893696128544	 -0.307418141972967	 
11.5	 0.6075997067644057	 -0.19230048030003266	 
11.5	 0.7620138184450246	 -0.08586577354147555	 
11.5	 0.9179275432073968	 0.013285122161545477	 
11.5	 1.0783045291763704	 0.10633902553916941	 
11.5	 1.2466300034682958	 0.19446046293594965	 
11.5	 1.4263887617077045	 0.2788141566406631	 
11.5	 1.615039448201079	 0.36330135717159806	 
11.5	 1.7888681009324352	 0.46143798149596393	 
11.5	 1.9195133338041774	 0.5888503826657311	 
11.5	 1.9795539458594198	 0.7596996302991704	 
11.5	 1.9612806368100557	 0.9574256942586695	 
11.5	 1.8756887165452396	 1.136317312122838	 
11.5	 1.7354014896318415	 1.2576795293503673	 
11.5	 1.557934359259187	 1.3277393692764112	 
11.5	 1.3624757633684046	 1.3680865933792163	 
11.5	 1.1672723680053905	 1.3991213837822736	 
11.5	 0.9784268908134278	 1.4257558251106424	 
11.5	 0.7936085094168408	 1.4421460694260908	 
11.5	 0.6103566310166898	 1.44258405890021	 
11.5	 0.42682782795806423	 1.4267614929207872	 
11.5	 0.2416610115792874	 1.3985901949129655	 
11.5	 0.053507926399134265	 1.362094269527462	 
11.5	 -0.1389796830636208	 1.3212978214149937	 
11.5	 -0.33413162569987553	 1.2768352409104742	 
11.5	 -0.5105228458635036	 1.2071562133609985	 
11.5	 -0.6396308163373452	 1.0830680540594626	 
11.5	 -0.7132967135721425	 0.906135591264999	 
11.5	 -0.7442532654764948	 0.70946030880343	 
11.5	 -0.7475841826585213	 0.5185062681392401	 
11.5	 -0.7424837994056264	 0.33214519048977953	 
11.5	 -0.7431325577838215	 0.14511776780139832	 
11.5	 -0.7434541155832821	 -0.04531433983846707	 
11.5	 -0.7366065844873609	 -0.24010273358073062	 
11.5	 -0.7421032766635731	 -0.4313732281593845	 
11.5	 -0.7907928114814178	 -0.6074645473448647	 
11.5	 -0.8909043369297125	 -0.7656410717872907	 
11.5	 -1.0038698719286712	 -0.9216275016293085	 
11.5	 -1.085288078620608	 -1.0929613451543367	 
11.5	 -1.0887336022397134	 -1.2774197617217418	 
12.0	 -0.7667262765256095	 -1.1759145885723274	 
12.0	 -0.5975825170691303	 -1.111719362370346	 
