0.5	 -0.648305178253	 -1.24554119773	 
0.5	 -0.483046955509	 -1.18315874294	 
0.5	 -0.313420070108	 -1.12834732679	 
0.5	 -0.141081207973	 -1.07811765793	 
0.5	 0.0323129449746	 -1.02948044505	 
0.5	 0.205105702813	 -0.979446396788	 
0.5	 0.375640379619	 -0.925026221828	 
0.5	 0.542260289472	 -0.863230628832	 
0.5	 0.703361649248	 -0.791141107313	 
0.5	 0.858630393627	 -0.70756471374	 
0.5	 1.00908405588	 -0.613090105571	 
0.5	 1.15580145092	 -0.508387931508	 
0.5	 1.29985368195	 -0.394127217313	 
0.5	 1.43765953248	 -0.269997900931	 
0.5	 1.5531110044	 -0.133053639903	 
0.5	 1.628201292	 0.0200334493871	 
0.5	 1.65572079484	 0.189282448672	 
0.5	 1.6449174766	 0.36966902168	 
0.5	 1.60642299306	 0.555744799911	 
0.5	 1.55073185922	 0.742004868488	 
0.5	 1.48124404067	 0.920019062422	 
0.5	 1.39096966155	 1.07707323998	 
0.5	 1.27209242888	 1.20011250814	 
0.5	 1.11916551851	 1.27936560715	 
0.5	 0.944217029737	 1.32927819828	 
0.5	 0.766128289477	 1.37382679757	 
0.5	 0.591615146939	 1.42055369595	 
0.5	 0.419025163724	 1.46569567047	 
0.5	 0.246542351908	 1.5052685436	 
0.5	 0.0723507235676	 1.53528813783	 
0.5	 -0.105365709222	 1.55177027563	 
0.5	 -0.287932451899	 1.55061698727	 
0.5	 -0.469748220706	 1.52612328375	 
0.5	 -0.640082771109	 1.47139425411	 
0.5	 -0.788339483107	 1.37981135393	 
0.5	 -0.910484937561	 1.25261050414	 
0.5	 -1.00947165446	 1.0993880002	 
0.5	 -1.08859113741	 0.930145813861	 
0.5	 -1.15102278929	 0.754683186923	 
0.5	 -1.19742025235	 0.578231619138	 
0.5	 -1.22594026603	 0.401507056333	 
0.5	 -1.23463324078	 0.225033152424	 
0.5	 -1.22166379036	 0.0493346591473	 
0.5	 -1.18811723865	 -0.125035595556	 
0.5	 -1.13817295923	 -0.297495041254	 
0.5	 -1.07615923307	 -0.467459676099	 
0.5	 -1.00580624017	 -0.634042240868	 
0.5	 -0.921749229513	 -0.791744039211	 
0.5	 -0.812786549544	 -0.932312401941	 
0.5	 -0.701592154783	 -1.07031841175	 
1.0	 -0.0181914990863	 -1.14179182769	 
1.0	 0.185141308874	 -1.15615029171	 
1.0	 0.370005831975	 -1.13084033453	 
1.0	 0.53896341141	 -1.07214885594	 
1.0	 0.694575388371	 -0.986362755715	 
1.0	 0.83940310405	 -0.879768933638	 
1.0	 0.976007899639	 -0.75865428949	 
1.0	 1.10682222751	 -0.629204839608	 
1.0	 1.22727950871	 -0.492128341103	 
1.0	 1.32289174056	 -0.340253279378	 
1.0	 1.38979636525	 -0.172239461253	 
1.0	 1.43529135136	 0.0069342979622	 
1.0	 1.46653601624	 0.191997125305	 
1.0	 1.47977464687	 0.377113716355	 
1.0	 1.46173019359	 0.555956405078	 
1.0	 1.40088688684	 0.722813763103	 
1.0	 1.30379653418	 0.877469021603	 
1.0	 1.18629626629	 1.02252923749	 
1.0	 1.06308833726	 1.16031891591	 
1.0	 0.935970505358	 1.28990492848	 
1.0	 0.798940818597	 1.40838515125	 
1.0	 0.647593982977	 1.51186794286	 
1.0	 0.483830543343	 1.5929029962	 
1.0	 0.310970789654	 1.64371578957	 
1.0	 0.131746528763	 1.66429567922	 
1.0	 -0.0515756696206	 1.66076991109	 
1.0	 -0.236741931078	 1.63943322054	 
1.0	 -0.421494846303	 1.60652578662	 
1.0	 -0.603330413703	 1.56448196433	 
1.0	 -0.779341134712	 1.50950866927	 
1.0	 -0.946582189388	 1.43723681126	 
1.0	 -1.10210875779	 1.3432973001	 
1.0	 -1.24291340031	 1.22347100234	 
1.0	 -1.3639090466	 1.07851892338	 
1.0	 -1.45749608334	 0.915218912125	 
1.0	 -1.51592472336	 0.740708442252	 
1.0	 -1.53181073289	 0.562018960922	 
1.0	 -1.50894246078	 0.382941376327	 
1.0	 -1.46407432544	 0.203505867843	 
1.0	 -1.41313822879	 0.0241164666244	 
1.0	 -1.34900665105	 -0.146120937702	 
1.0	 -1.24871554383	 -0.292615297077	 
1.0	 -1.11632835218	 -0.418258712877	 
1.0	 -0.976940481063	 -0.539455014323	 
1.0	 -0.854771937918	 -0.672188689806	 
1.0	 -0.753301222415	 -0.821224194541	 
1.0	 -0.660213632334	 -0.98277895463	 
1.0	 -0.551888769318	 -1.13044518009	 
1.0	 -0.383610360428	 -1.18487989854	 
1.0	 -0.185968595624	 -1.16794166475	 
1.5	 -0.518137762787	 -1.24138367745	 
1.5	 -0.323795645531	 -1.24382511111	 
1.5	 -0.144662481091	 -1.21362872951	 
1.5	 0.0231420724171	 -1.15760746637	 
1.5	 0.183498356878	 -1.08257425543	 
1.5	 0.340286714177	 -0.995342030398	 
1.5	 0.497387486199	 -0.902723724994	 
1.5	 0.658681014828	 -0.811532272941	 
1.5	 0.827723018623	 -0.728214602216	 
1.5	 0.998182113963	 -0.648070148102	 
1.5	 1.15227238732	 -0.553483612511	 
1.5	 1.27185764919	 -0.426431730437	 
1.5	 1.35288222115	 -0.264133567467	 
1.5	 1.41139473953	 -0.0855715647604	 
1.5	 1.4594432167	 0.093189385136	 
1.5	 1.49027144679	 0.271646638165	 
1.5	 1.49325566824	 0.452458070761	 
1.5	 1.4626158574	 0.632588627417	 
1.5	 1.39947115179	 0.802403264358	 
1.5	 1.30839854525	 0.959525080934	 
1.5	 1.19533859717	 1.10511723962	 
1.5	 1.06623869504	 1.24036062984	 
1.5	 0.926688628022	 1.36575125795	 
1.5	 0.777352723069	 1.47235173686	 
1.5	 0.615342516684	 1.54448674635	 
1.5	 0.44037440923	 1.5769694085	 
1.5	 0.256818959657	 1.58305621429	 
1.5	 0.0695105332379	 1.5778416134	 
1.5	 -0.116797754749	 1.57604283743	 
1.5	 -0.299970251912	 1.58022506452	 
1.5	 -0.480987871045	 1.57848424503	 
1.5	 -0.661013549481	 1.55807124687	 
1.5	 -0.84112514307	 1.50635969454	 
1.5	 -1.01733582936	 1.41803058984	 
1.5	 -1.17783156874	 1.29905813543	 
1.5	 -1.3101276976	 1.15638411818	 
1.5	 -1.4017395523	 0.996950324942	 
1.5	 -1.44021953365	 0.827692566856	 
1.5	 -1.42272370073	 0.653998304433	 
1.5	 -1.36876361191	 0.477650730878	 
1.5	 -1.30102500483	 0.29992128207	 
1.5	 -1.24186060405	 0.122065500816	 
1.5	 -1.1996940849	 -0.0553258347948	 
1.5	 -1.16426453697	 -0.232553669657	 
1.5	 -1.12400054793	 -0.40997246162	 
1.5	 -1.06710188048	 -0.584413719578	 
1.5	 -0.981178748015	 -0.743839965259	 
1.5	 -0.850082309319	 -0.872043978764	 
1.5	 -0.675842720328	 -0.964736695065	 
1.5	 -0.535174711901	 -1.069065336	 
2.0	 0.17716792237	 -1.21413000199	 
2.0	 0.359901723638	 -1.15103206201	 
2.0	 0.527502949296	 -1.07241537303	 
2.0	 0.683933076765	 -0.981130774146	 
2.0	 0.833153583463	 -0.880029104456	 
2.0	 0.979125946811	 -0.77196120305	 
2.0	 1.12581164423	 -0.659777909018	 
2.0	 1.27717215314	 -0.546330061452	 
2.0	 1.43177121749	 -0.431849807546	 
2.0	 1.56465453584	 -0.305159595328	 
2.0	 1.64636939385	 -0.15290070437	 
2.0	 1.67474125247	 0.0250341874137	 
2.0	 1.66798369128	 0.218848107682	 
2.0	 1.64476449977	 0.418509456172	 
2.0	 1.61559928287	 0.614794240957	 
2.0	 1.5725687013	 0.80030475539	 
2.0	 1.50522041612	 0.967894228215	 
2.0	 1.4031144397	 1.11042348454	 
2.0	 1.26269230381	 1.22498565445	 
2.0	 1.09870871324	 1.31993692335	 
2.0	 0.927753418309	 1.40455399082	 
2.0	 0.755186347084	 1.47922296329	 
2.0	 0.580142520324	 1.53940171972	 
2.0	 0.401690721393	 1.58049569926	 
2.0	 0.218922570796	 1.59792929847	 
2.0	 0.0331627791427	 1.58898063147	 
2.0	 -0.150186359979	 1.55431266778	 
2.0	 -0.32533726412	 1.49499442381	 
2.0	 -0.492561010098	 1.41774359053	 
2.0	 -0.663052351996	 1.33922005048	 
2.0	 -0.835864553559	 1.26120137367	 
2.0	 -0.999769459796	 1.17316891909	 
2.0	 -1.14328132388	 1.06429597508	 
2.0	 -1.25747778413	 0.926026112617	 
2.0	 -1.34773663642	 0.762467952038	 
2.0	 -1.42385880355	 0.582135480951	 
2.0	 -1.48313246253	 0.393903998942	 
2.0	 -1.51019328073	 0.207009663991	 
2.0	 -1.48911614228	 0.0307046280077	 
2.0	 -1.40972077211	 -0.128596061333	 
2.0	 -1.30068477882	 -0.283667421095	 
2.0	 -1.19743005164	 -0.448522241648	 
2.0	 -1.09210526661	 -0.606111755166	 
2.0	 -0.964328065815	 -0.730395750947	 
2.0	 -0.798880710433	 -0.802875872825	 
2.0	 -0.623810712585	 -0.867881599938	 
2.0	 -0.457602611201	 -0.944636906873	 
2.0	 -0.281102282507	 -0.997489686729	 
2.0	 -0.0812994349291	 -1.01755146009	 
2.0	 0.0961687915907	 -1.06086959546	 
2.5	 -0.0276962621487	 -1.27758457236	 
2.5	 0.175518099454	 -1.24720136684	 
2.5	 0.348832968369	 -1.17704464513	 
2.5	 0.498971155767	 -1.07607320686	 
2.5	 0.632655472819	 -0.953245851695	 
2.5	 0.756608730695	 -0.817521379275	 
2.5	 0.877553740567	 -0.67785858925	 
2.5	 1.0022133136	 -0.543216281269	 
2.5	 1.13606451628	 -0.420740848771	 
2.5	 1.27343592535	 -0.301358995802	 
2.5	 1.40278353345	 -0.167453534611	 
2.5	 1.51247656684	 -0.00365169359071	 
2.5	 1.59056788891	 0.183913273062	 
2.5	 1.62493895838	 0.377456195319	 
2.5	 1.6034695427	 0.559076931246	 
2.5	 1.51518986609	 0.711655439804	 
2.5	 1.37615502561	 0.836396685545	 
2.5	 1.2258660537	 0.951250298913	 
2.5	 1.07624271557	 1.0617194145	 
2.5	 0.926298877056	 1.16735976648	 
2.5	 0.774987531195	 1.26769903712	 
2.5	 0.621261083094	 1.36226465634	 
2.5	 0.463324050247	 1.45026305582	 
2.5	 0.297168805386	 1.52995120019	 
2.5	 0.118500787008	 1.59938692302	 
2.5	 -0.0726224430761	 1.65574320493	 
2.5	 -0.270666847546	 1.6950795757	 
2.5	 -0.469749671974	 1.71338466558	 
2.5	 -0.663988161934	 1.70664710486	 
2.5	 -0.847499562998	 1.67085552381	 
2.5	 -1.01440112074	 1.60199855269	 
2.5	 -1.15881350111	 1.49608046056	 
2.5	 -1.27589315602	 1.35384137193	 
2.5	 -1.3632827505	 1.18738895873	 
2.5	 -1.41907550752	 1.01036707108	 
2.5	 -1.44499504409	 0.830697805285	 
2.5	 -1.44767365853	 0.648566834091	 
2.5	 -1.43409182894	 0.463611074691	 
2.5	 -1.41123003339	 0.275467444279	 
2.5	 -1.38526143963	 0.0842087594875	 
2.5	 -1.35096413593	 -0.103939499803	 
2.5	 -1.29468175289	 -0.27819774964	 
2.5	 -1.20260544531	 -0.427716060879	 
2.5	 -1.07106292467	 -0.549766307901	 
2.5	 -0.919204999907	 -0.659907118544	 
2.5	 -0.768862614614	 -0.775636515983	 
2.5	 -0.623116135283	 -0.890570246042	 
2.5	 -0.460057666781	 -0.966687912716	 
2.5	 -0.279949179504	 -1.00697795038	 
2.5	 -0.121693065224	 -1.08423492652	 
3.0	 -0.028854202263	 -1.15253235188	 
3.0	 0.20454536872	 -1.19695786086	 
3.0	 0.396702651576	 -1.1829967746	 
3.0	 0.555093807278	 -1.12076391855	 
3.0	 0.687194996801	 -1.02037411817	 
3.0	 0.800482381116	 -0.891942198902	 
3.0	 0.902432121197	 -0.745582986209	 
3.0	 1.00052037802	 -0.591411305541	 
3.0	 1.10222331255	 -0.439541982349	 
3.0	 1.21442871908	 -0.299373232784	 
3.0	 1.33304787323	 -0.166934271037	 
3.0	 1.44427178811	 -0.0264153838003	 
3.0	 1.53402742669	 0.138154113575	 
3.0	 1.59200897104	 0.329740346424	 
3.0	 1.61345534313	 0.532168822449	 
3.0	 1.59404960355	 0.727731868967	 
3.0	 1.52947481285	 0.898721813295	 
3.0	 1.41541878376	 1.02743795671	 
3.0	 1.25784672585	 1.1112620465	 
3.0	 1.0929531003	 1.1921762118	 
3.0	 0.936273670605	 1.2853964695	 
3.0	 0.782682662674	 1.3785469262	 
3.0	 0.626524621445	 1.45854433986	 
3.0	 0.462839885302	 1.51391528361	 
3.0	 0.291219099118	 1.54371409914	 
3.0	 0.113081740254	 1.55122638708	 
3.0	 -0.070147749179	 1.53974923473	 
3.0	 -0.257044927068	 1.51257972939	 
3.0	 -0.446185351302	 1.47301495834	 
3.0	 -0.635066890426	 1.42322875608	 
3.0	 -0.81567646662	 1.35965101428	 
3.0	 -0.978244086789	 1.27688042902	 
3.0	 -1.1129990031	 1.16951490971	 
3.0	 -1.21053530275	 1.03243008174	 
3.0	 -1.2712032364	 0.867928057397	 
3.0	 -1.30593377362	 0.686365095463	 
3.0	 -1.32618797046	 0.498500961744	 
3.0	 -1.34098155808	 0.313551744496	 
3.0	 -1.34740096464	 0.133202836535	 
3.0	 -1.33890034442	 -0.0431533405515	 
3.0	 -1.3091608476	 -0.216114634789	 
3.0	 -1.25687533479	 -0.386052890926	 
3.0	 -1.18562433616	 -0.553119544062	 
3.0	 -1.09913466461	 -0.717365286741	 
3.0	 -0.998013856637	 -0.873807938332	 
3.0	 -0.878192496688	 -1.0099191751	 
3.0	 -0.735216763946	 -1.11255044322	 
3.0	 -0.567620860617	 -1.17220037099	 
3.0	 -0.385467089597	 -1.19343879115	 
3.0	 -0.201597515331	 -1.1842285145	 
3.5	 -0.561690831553	 -1.29662794344	 
3.5	 -0.331711977227	 -1.24820401286	 
3.5	 -0.212820815284	 -1.07329347649	 
3.5	 -0.151726741456	 -0.83774509667	 
3.5	 -0.0951391514746	 -0.607407635739	 
3.5	 0.0102325589292	 -0.448129856028	 
3.5	 0.199143553537	 -0.400343622556	 
3.5	 0.416478443893	 -0.381587881656	 
3.5	 0.618134443709	 -0.345393436697	 
3.5	 0.818654453205	 -0.35295257242	 
3.5	 1.02367699782	 -0.406194127066	 
3.5	 1.22486930531	 -0.442081045574	 
3.5	 1.40323053114	 -0.368792967264	 
3.5	 1.54718163224	 -0.203493288654	 
3.5	 1.64758761622	 0.00504089626049	 
3.5	 1.69709607934	 0.21490548042	 
3.5	 1.69609950717	 0.414062181439	 
3.5	 1.64875381531	 0.600522191422	 
3.5	 1.56577432162	 0.779960819837	 
3.5	 1.45949579255	 0.959945540552	 
3.5	 1.34225299451	 1.14804382743	 
3.5	 1.22380597771	 1.34537480159	 
3.5	 1.08167696872	 1.4723171605	 
3.5	 0.892054887987	 1.43852270851	 
3.5	 0.700474074717	 1.30236150257	 
3.5	 0.542798470955	 1.15015509855	 
3.5	 0.383057627104	 1.05718942559	 
3.5	 0.192342965536	 1.06666246729	 
3.5	 -0.0119460213244	 1.15291486258	 
3.5	 -0.205968060214	 1.280693639	 
3.5	 -0.378855964266	 1.40856968972	 
3.5	 -0.559116083275	 1.47649013503	 
3.5	 -0.76159028625	 1.44862045865	 
3.5	 -0.957741932746	 1.34608786361	 
3.5	 -1.11446984927	 1.19670771158	 
3.5	 -1.22074714045	 1.01965663923	 
3.5	 -1.29063493188	 0.824293136028	 
3.5	 -1.33951877681	 0.619433118871	 
3.5	 -1.37696068382	 0.412094782025	 
3.5	 -1.4002082019	 0.205494858007	 
3.5	 -1.4049429975	 0.00236669290471	 
3.5	 -1.3874754257	 -0.194893559866	 
3.5	 -1.35631604645	 -0.390433239842	 
3.5	 -1.33103845362	 -0.594333266005	 
3.5	 -1.33159929746	 -0.816877748828	 
3.5	 -1.35410213447	 -1.05248223624	 
3.5	 -1.32357847439	 -1.24828072729	 
3.5	 -1.16398489748	 -1.34527637453	 
3.5	 -0.947866017272	 -1.32086159147	 
3.5	 -0.754001320273	 -1.25221900594	 
4.0	 -0.539160981037	 -1.10842224233	 
4.0	 -0.359189678187	 -0.995279276687	 
4.0	 -0.210019994361	 -0.866860177129	 
4.0	 -0.0661790965368	 -0.729818418076	 
4.0	 0.0976374474366	 -0.591078274764	 
4.0	 0.287896653939	 -0.487855952495	 
4.0	 0.476142527002	 -0.510796392162	 
4.0	 0.662765187098	 -0.600368976862	 
4.0	 0.866306666646	 -0.624540673509	 
4.0	 1.07122686644	 -0.635024477009	 
4.0	 1.27495720579	 -0.613108863026	 
4.0	 1.46397361959	 -0.526518520864	 
4.0	 1.59696023653	 -0.38575734752	 
4.0	 1.66496673394	 -0.204277662603	 
4.0	 1.683200871	 0.00525734146835	 
4.0	 1.6673406171	 0.230199831759	 
4.0	 1.63306394168	 0.457901975333	 
4.0	 1.59213654094	 0.676130104516	 
4.0	 1.53470032009	 0.874939712571	 
4.0	 1.44346751357	 1.04517282053	 
4.0	 1.30533877926	 1.18017424174	 
4.0	 1.12988607998	 1.28681037443	 
4.0	 0.93430503703	 1.37649450753	 
4.0	 0.734564878654	 1.45645086771	 
4.0	 0.535923316469	 1.49745546525	 
4.0	 0.338320116413	 1.45827812922	 
4.0	 0.143953067981	 1.37836690429	 
4.0	 -0.0435864374015	 1.34905246169	 
4.0	 -0.225616286179	 1.40582558046	 
4.0	 -0.409883632997	 1.51021749716	 
4.0	 -0.604567026679	 1.61879687484	 
4.0	 -0.814507155274	 1.69038855982	 
4.0	 -1.01861605105	 1.7013435335	 
4.0	 -1.18533182435	 1.63756362518	 
4.0	 -1.30544528307	 1.50323336254	 
4.0	 -1.38585406978	 1.31563720799	 
4.0	 -1.43380866677	 1.09234659388	 
4.0	 -1.4565595563	 0.850932952517	 
4.0	 -1.46135722067	 0.608967716245	 
4.0	 -1.45542787419	 0.383564313746	 
4.0	 -1.44528131932	 0.178315495427	 
4.0	 -1.43661014917	 -0.0186089946393	 
4.0	 -1.43506241982	 -0.219879949637	 
4.0	 -1.44393443237	 -0.436101395622	 
4.0	 -1.43962936147	 -0.654243166139	 
4.0	 -1.38140944587	 -0.846211313323	 
4.0	 -1.23262842867	 -0.975801245875	 
4.0	 -1.01999074827	 -0.971160310668	 
4.0	 -0.799063028426	 -0.91235684441	 
4.0	 -0.621551146798	 -0.918430827997	 
4.5	 -0.615020037274	 -1.16068287295	 
4.5	 -0.472580781113	 -0.998215934446	 
4.5	 -0.323734102128	 -0.846764088257	 
4.5	 -0.172246192856	 -0.695719047017	 
4.5	 -0.00961704170635	 -0.556522734691	 
4.5	 0.197580933834	 -0.503434890214	 
4.5	 0.411087572221	 -0.537470330619	 
4.5	 0.599491899406	 -0.637755268569	 
4.5	 0.799618945752	 -0.718516293757	 
4.5	 1.00813093367	 -0.651071147645	 
4.5	 1.17727655283	 -0.510798076317	 
4.5	 1.34031882275	 -0.61792096618	 
4.5	 1.54989972137	 -0.650026624242	 
4.5	 1.67760917899	 -0.533927898842	 
4.5	 1.7042771122	 -0.338656005201	 
4.5	 1.67196866423	 -0.0947030041078	 
4.5	 1.62274907153	 0.167439105001	 
4.5	 1.59868357057	 0.417278322689	 
4.5	 1.61826883051	 0.634030363337	 
4.5	 1.60872106352	 0.835702372939	 
4.5	 1.54372164189	 1.0343846501	 
4.5	 1.44164609061	 1.23198743703	 
4.5	 1.32151839923	 1.4302439183	 
4.5	 1.19386916875	 1.62334310075	 
4.5	 1.04859457803	 1.78714564726	 
4.5	 0.872517590787	 1.89478246438	 
4.5	 0.658042823534	 1.92169845444	 
4.5	 0.440621895188	 1.86118459244	 
4.5	 0.27510766311	 1.71521695576	 
4.5	 0.170417606554	 1.51454915483	 
4.5	 0.0584029899143	 1.33802162344	 
4.5	 -0.12666102334	 1.26248954289	 
4.5	 -0.353876679311	 1.2998410378	 
4.5	 -0.542771776742	 1.42098215779	 
4.5	 -0.724088101713	 1.51901289296	 
4.5	 -0.946786026763	 1.50624281903	 
4.5	 -1.15838041864	 1.40381788673	 
4.5	 -1.30404724305	 1.23906679704	 
4.5	 -1.37738773267	 1.03600750132	 
4.5	 -1.40572921965	 0.816352157302	 
4.5	 -1.41437855785	 0.598815152785	 
4.5	 -1.41354365547	 0.385642238227	 
4.5	 -1.4081966446	 0.173368427747	 
4.5	 -1.40106071994	 -0.0406241984148	 
4.5	 -1.38065283257	 -0.25355453672	 
4.5	 -1.33384543709	 -0.461574016772	 
4.5	 -1.25883109385	 -0.66385045261	 
4.5	 -1.15216100455	 -0.853707416158	 
4.5	 -0.988236121004	 -0.984661157472	 
4.5	 -0.774578823798	 -1.03769836821	 
5.0	 -0.840285849688	 -1.1634912694	 
5.0	 -0.627628055112	 -1.12677097541	 
5.0	 -0.454164200799	 -1.01757963401	 
5.0	 -0.302029031702	 -0.870773538391	 
5.0	 -0.153357292776	 -0.721208981751	 
5.0	 0.00971627102757	 -0.603742257294	 
5.0	 0.201980099617	 -0.540204881979	 
5.0	 0.407733991257	 -0.491929479347	 
5.0	 0.588063098081	 -0.563263124045	 
5.0	 0.726926184973	 -0.720686792915	 
5.0	 0.876184671876	 -0.858725739948	 
5.0	 1.07368069053	 -0.91447524405	 
5.0	 1.25986696023	 -0.836522792542	 
5.0	 1.41195576398	 -0.683718596057	 
5.0	 1.52599398559	 -0.508421863793	 
5.0	 1.60647941281	 -0.318319108313	 
5.0	 1.65847552068	 -0.118106537535	 
5.0	 1.68704575703	 0.0875196496903	 
5.0	 1.69618437667	 0.294219647201	 
5.0	 1.68598014654	 0.498955459879	 
5.0	 1.65563011811	 0.698990321852	 
5.0	 1.60427217	 0.89261793052	 
5.0	 1.53090710535	 1.08051908075	 
5.0	 1.43451637075	 1.26371165083	 
5.0	 1.31408141282	 1.44321351906	 
5.0	 1.16946914987	 1.61373093481	 
5.0	 1.00455008367	 1.74143266565	 
5.0	 0.824360912819	 1.78484880235	 
5.0	 0.636248257594	 1.73024883083	 
5.0	 0.451257032195	 1.60831641019	 
5.0	 0.280023246001	 1.45454684507	 
5.0	 0.116398654885	 1.32301376031	 
5.0	 -0.0620286802191	 1.28448269339	 
5.0	 -0.262483757114	 1.33736031175	 
5.0	 -0.470957364705	 1.38367415733	 
5.0	 -0.677084691034	 1.37338114791	 
5.0	 -0.875751473325	 1.31229605992	 
5.0	 -1.06095931755	 1.20851365839	 
5.0	 -1.21480909695	 1.06774482239	 
5.0	 -1.31253449431	 0.894310432827	 
5.0	 -1.35042574109	 0.695775637133	 
5.0	 -1.35901129058	 0.484988223625	 
5.0	 -1.36627109921	 0.274164104016	 
5.0	 -1.36520941275	 0.0686504175689	 
5.0	 -1.33550596262	 -0.128822470346	 
5.0	 -1.26856620408	 -0.318783979863	 
5.0	 -1.20092461804	 -0.51426185409	 
5.0	 -1.16785501633	 -0.725909890712	 
5.0	 -1.13270265394	 -0.932416989366	 
5.0	 -1.03239256779	 -1.10063540855	 
5.5	 -0.64585275209	 -1.09848452109	 
5.5	 -0.441526214799	 -1.03607892111	 
5.5	 -0.302428566252	 -0.898115640278	 
5.5	 -0.189222320688	 -0.729908355845	 
5.5	 -0.0625699923455	 -0.576770745073	 
5.5	 0.113162448374	 -0.483400211888	 
5.5	 0.316024527333	 -0.484911815429	 
5.5	 0.499358252769	 -0.564479075218	 
5.5	 0.696677388028	 -0.568425489516	 
5.5	 0.889072633059	 -0.62252728933	 
5.5	 1.08069188556	 -0.649965135889	 
5.5	 1.28418806096	 -0.676579163527	 
5.5	 1.43400388662	 -0.64820922262	 
5.5	 1.48797104066	 -0.44127110073	 
5.5	 1.49222224544	 -0.194501322521	 
5.5	 1.48062960604	 0.00357608259576	 
5.5	 1.45488176752	 0.188854222654	 
5.5	 1.41642456199	 0.382457893912	 
5.5	 1.36992384267	 0.580041680969	 
5.5	 1.32003581797	 0.776574224756	 
5.5	 1.2680436449	 0.969302061969	 
5.5	 1.21122631131	 1.15817583275	 
5.5	 1.14586119816	 1.34313503863	 
5.5	 1.05924523047	 1.52215318399	 
5.5	 0.934310560474	 1.68973018059	 
5.5	 0.77340069935	 1.81071961513	 
5.5	 0.592595150696	 1.83371541689	 
5.5	 0.405511778579	 1.76373191571	 
5.5	 0.224003173666	 1.64208755142	 
5.5	 0.0583668544847	 1.51024722731	 
5.5	 -0.105094024199	 1.40274179834	 
5.5	 -0.293708168882	 1.346013338	 
5.5	 -0.492868474146	 1.34016409423	 
5.5	 -0.69160052134	 1.34950533355	 
5.5	 -0.889055054963	 1.32939620317	 
5.5	 -1.07660184608	 1.25573328569	 
5.5	 -1.23443715591	 1.13429088644	 
5.5	 -1.35123125407	 0.974258943991	 
5.5	 -1.43008543236	 0.786472261544	 
5.5	 -1.47533248027	 0.581906009844	 
5.5	 -1.49130518724	 0.371535359631	 
5.5	 -1.48244659792	 0.166164454678	 
5.5	 -1.45788012842	 -0.0306627167521	 
5.5	 -1.43239772467	 -0.225044856309	 
5.5	 -1.40817526947	 -0.420591249982	 
5.5	 -1.37529337403	 -0.617964023222	 
5.5	 -1.32151402502	 -0.815002077188	 
5.5	 -1.21034631754	 -0.973929507807	 
5.5	 -1.03877532081	 -1.07911229463	 
5.5	 -0.845312763214	 -1.10194738147	 
6.0	 -0.403343154222	 -1.13408619248	 
6.0	 -0.171595588591	 -1.26626392159	 
6.0	 0.00374158241678	 -1.27886147523	 
6.0	 0.137925047174	 -1.20198027383	 
6.0	 0.246211494057	 -1.06572173787	 
6.0	 0.343857611438	 -0.900187287775	 
6.0	 0.446120087694	 -0.735478344013	 
6.0	 0.568255611198	 -0.601696327032	 
6.0	 0.723915335001	 -0.525565418693	 
6.0	 0.904362977523	 -0.486717901311	 
6.0	 1.08462185821	 -0.430918835578	 
6.0	 1.24694490257	 -0.330732379369	 
6.0	 1.38352487635	 -0.194774405774	 
6.0	 1.48722450621	 -0.0340907303025	 
6.0	 1.55090651881	 0.140272831536	 
6.0	 1.5729254878	 0.319366600345	 
6.0	 1.57592127801	 0.503510141868	 
6.0	 1.58354173294	 0.693821254833	 
6.0	 1.57989865466	 0.879194370096	 
6.0	 1.53256194549	 1.04345148084	 
6.0	 1.42717324373	 1.1796807798	 
6.0	 1.28141471555	 1.2973774129	 
6.0	 1.11624229963	 1.40771292264	 
6.0	 0.950356366691	 1.51926815097	 
6.0	 0.787322485982	 1.62324040723	 
6.0	 0.624480152427	 1.70367585537	 
6.0	 0.45914963865	 1.74459858097	 
6.0	 0.289153905732	 1.73310205559	 
6.0	 0.115876598057	 1.67802107223	 
6.0	 -0.0577612438651	 1.59757767363	 
6.0	 -0.228837747866	 1.5099508032	 
6.0	 -0.39496431715	 1.42517049904	 
6.0	 -0.554737236257	 1.33821696717	 
6.0	 -0.706859162347	 1.24244494878	 
6.0	 -0.850007568073	 1.1313063255	 
6.0	 -0.981858402825	 1.0021160064	 
6.0	 -1.09877344793	 0.857257846492	 
6.0	 -1.19702532087	 0.699459619247	 
6.0	 -1.27288663915	 0.531449098144	 
6.0	 -1.32339926034	 0.355897094346	 
6.0	 -1.35079406322	 0.175090171394	 
6.0	 -1.35944677938	 -0.00884393376557	 
6.0	 -1.35365992061	 -0.193764631221	 
6.0	 -1.33154969075	 -0.376498698588	 
6.0	 -1.28074854256	 -0.552122942107	 
6.0	 -1.18915677789	 -0.714335316018	 
6.0	 -1.05737061854	 -0.844866710604	 
6.0	 -0.893624566743	 -0.92087001244	 
6.0	 -0.712894988502	 -0.957748190162	 
6.0	 -0.538463006794	 -1.00685064935	 
6.5	 -0.55457327467	 -0.941328371024	 
6.5	 -0.377162323986	 -0.952899026404	 
6.5	 -0.191225631073	 -0.989699698131	 
6.5	 -0.00188385922496	 -1.03163438562	 
6.5	 0.185742328265	 -1.05860708828	 
6.5	 0.366532268105	 -1.05052180553	 
6.5	 0.536624397244	 -0.992405684162	 
6.5	 0.699347311448	 -0.898541876126	 
6.5	 0.859789102972	 -0.792726723886	 
6.5	 0.994036906999	 -0.667315870395	 
6.5	 1.07449541635	 -0.49998809829	 
6.5	 1.15943426296	 -0.334517417284	 
6.5	 1.24820493239	 -0.172299963992	 
6.5	 1.33135635247	 -0.00823344276374	 
6.5	 1.40279966533	 0.161016131644	 
6.5	 1.461419278	 0.336167124095	 
6.5	 1.50650073102	 0.517726928817	 
6.5	 1.53731849646	 0.706190878308	 
6.5	 1.55067639187	 0.899361929765	 
6.5	 1.53780362619	 1.08896815694	 
6.5	 1.48916538411	 1.26590504447	 
6.5	 1.39598568375	 1.42133766028	 
6.5	 1.26162051492	 1.55074107836	 
6.5	 1.09917946692	 1.65305543792	 
6.5	 0.922042458341	 1.72732146113	 
6.5	 0.740469062755	 1.77395174432	 
6.5	 0.556440929017	 1.79699831193	 
6.5	 0.370582417541	 1.80110992656	 
6.5	 0.18351788874	 1.7909353508	 
6.5	 -0.00390905018955	 1.77030567543	 
6.5	 -0.189531283083	 1.7381160192	 
6.5	 -0.370687537173	 1.69141856424	 
6.5	 -0.54471569024	 1.62726232464	 
6.5	 -0.708953620201	 1.54269631576	 
6.5	 -0.860859957726	 1.43584110917	 
6.5	 -0.998361304201	 1.30897003429	 
6.5	 -1.11949760999	 1.16536227586	 
6.5	 -1.22230890929	 1.0082969744	 
6.5	 -1.30521925378	 0.840850781696	 
6.5	 -1.3679212307	 0.665431462781	 
6.5	 -1.41036899763	 0.484308859142	 
6.5	 -1.43244502298	 0.299738960146	 
6.5	 -1.43320865118	 0.113818707258	 
6.5	 -1.41119301182	 -0.0714566357749	 
6.5	 -1.36492236204	 -0.254092591951	 
6.5	 -1.29181977569	 -0.429082731998	 
6.5	 -1.18574111129	 -0.581663593418	 
6.5	 -1.0410207904	 -0.695841047481	 
6.5	 -0.866658947093	 -0.764686262849	 
6.5	 -0.68739404649	 -0.808406096657	 
7.0	 -0.276528099136	 -1.18653691256	 
7.0	 -0.0798545858062	 -1.22060444494	 
7.0	 0.0943684091736	 -1.18504784497	 
7.0	 0.253597494314	 -1.10141267788	 
7.0	 0.405289278124	 -0.991244508928	 
7.0	 0.556900369116	 -0.876088903345	 
7.0	 0.715350244797	 -0.776022489215	 
7.0	 0.880372145953	 -0.691469090897	 
7.0	 1.04653448788	 -0.608842761124	 
7.0	 1.20674415329	 -0.514695270948	 
7.0	 1.35181139158	 -0.396398796457	 
7.0	 1.4708692749	 -0.250558467823	 
7.0	 1.55117805133	 -0.0856770970478	 
7.0	 1.58927729815	 0.0911863173246	 
7.0	 1.59777483885	 0.276795604172	 
7.0	 1.59084935204	 0.468288317555	 
7.0	 1.58251628835	 0.662781966336	 
7.0	 1.57482099794	 0.855924072372	 
7.0	 1.54988206078	 1.04091505248	 
7.0	 1.48793274602	 1.21072379805	 
7.0	 1.37409380847	 1.35778037753	 
7.0	 1.21933563137	 1.4716650558	 
7.0	 1.0431401984	 1.54102315021	 
7.0	 0.861049731562	 1.56017730265	 
7.0	 0.676706202885	 1.54057791319	 
7.0	 0.491516563087	 1.49689219705	 
7.0	 0.306887762885	 1.44378736948	 
7.0	 0.124124177894	 1.39566553827	 
7.0	 -0.0574888283855	 1.36171063351	 
7.0	 -0.240512237982	 1.34633466785	 
7.0	 -0.42757498816	 1.35377402228	 
7.0	 -0.621283012344	 1.38820767045	 
7.0	 -0.814545112376	 1.42961487495	 
7.0	 -0.975839636777	 1.39711054855	 
7.0	 -1.08902641484	 1.25578062492	 
7.0	 -1.17004814168	 1.06341546172	 
7.0	 -1.23348222404	 0.873577772727	 
7.0	 -1.27793383294	 0.69265319119	 
7.0	 -1.29838872211	 0.516336702837	 
7.0	 -1.29084073871	 0.340344731042	 
7.0	 -1.26595183097	 0.16070562421	 
7.0	 -1.24546644762	 -0.0263165939443	 
7.0	 -1.25112338245	 -0.224326423894	 
7.0	 -1.26848131423	 -0.4206276849	 
7.0	 -1.21279182437	 -0.571005432139	 
7.0	 -1.05721310804	 -0.665330102277	 
7.0	 -0.871296762959	 -0.748522288856	 
7.0	 -0.716619327942	 -0.857982156664	 
7.0	 -0.569379316786	 -0.966093594194	 
7.0	 -0.405292901193	 -1.05416845667	 
7.5	 -0.605668412608	 -1.000041175	 
7.5	 -0.443113449504	 -1.14824371275	 
7.5	 -0.270030352986	 -1.2060298281	 
7.5	 -0.0907165031614	 -1.19361648895	 
7.5	 0.090530719865	 -1.1312206632	 
7.5	 0.269413935987	 -1.03905931872	 
7.5	 0.441568365895	 -0.937194277636	 
7.5	 0.589731698618	 -0.81597305671	 
7.5	 0.700436400011	 -0.651236849004	 
7.5	 0.845057127279	 -0.549826996396	 
7.5	 1.04470114625	 -0.53949128913	 
7.5	 1.25050851705	 -0.53851958737	 
7.5	 1.42163329922	 -0.482406151352	 
7.5	 1.53578674391	 -0.341676552619	 
7.5	 1.60301432719	 -0.146958269253	 
7.5	 1.63799639689	 0.0625099649042	 
7.5	 1.65269741608	 0.258543766235	 
7.5	 1.6508323331	 0.446536399837	 
7.5	 1.63455510026	 0.638231966485	 
7.5	 1.60218209765	 0.837722564983	 
7.5	 1.53889283365	 1.02290577236	 
7.5	 1.42727110109	 1.16635304801	 
7.5	 1.26609927929	 1.26150179152	 
7.5	 1.08145990168	 1.33695564261	 
7.5	 0.901309050145	 1.42362214904	 
7.5	 0.734218188466	 1.52461397315	 
7.5	 0.568125916265	 1.61345907815	 
7.5	 0.391266270818	 1.66575357281	 
7.5	 0.202765308671	 1.68652607136	 
7.5	 0.00719492513272	 1.69552097906	 
7.5	 -0.190832605019	 1.71259181486	 
7.5	 -0.386740976794	 1.74692983861	 
7.5	 -0.576109391335	 1.76163077288	 
7.5	 -0.754186821248	 1.71153059208	 
7.5	 -0.912468523841	 1.5937602787	 
7.5	 -1.04027518922	 1.42995287489	 
7.5	 -1.12690091055	 1.24204110542	 
7.5	 -1.16573757454	 1.04972739709	 
7.5	 -1.17634573415	 0.858471408563	 
7.5	 -1.18848807684	 0.668130334514	 
7.5	 -1.21830974311	 0.47839919406	 
7.5	 -1.25380586385	 0.288666021072	 
7.5	 -1.27949371999	 0.0982809223075	 
7.5	 -1.28224043182	 -0.0931471599528	 
7.5	 -1.26044432214	 -0.284739117952	 
7.5	 -1.21588252059	 -0.475096978676	 
7.5	 -1.13975583625	 -0.653818419863	 
7.5	 -1.0067823677	 -0.794908191738	 
7.5	 -0.824555420895	 -0.835898174863	 
7.5	 -0.624513209814	 -0.826074376812	 
8.0	 0.080718689945	 -1.03765186935	 
8.0	 0.356233675131	 -1.12274008838	 
8.0	 0.570571128445	 -1.13487939561	 
8.0	 0.733578234212	 -1.08527110615	 
8.0	 0.85510217676	 -0.985116535119	 
8.0	 0.944990140414	 -0.845616997623	 
8.0	 1.0130893095	 -0.677973808778	 
8.0	 1.06924686835	 -0.493388283696	 
8.0	 1.12331000128	 -0.303061737491	 
8.0	 1.18512309025	 -0.118192577553	 
8.0	 1.26052831043	 0.0541734469442	 
8.0	 1.34338330319	 0.219425644678	 
8.0	 1.42531199214	 0.385271012278	 
8.0	 1.49793830088	 0.559416546374	 
8.0	 1.55286456335	 0.749281721669	 
8.0	 1.58084528262	 0.95099496315	 
8.0	 1.57152863755	 1.14595114272	 
8.0	 1.5144883683	 1.31455378882	 
8.0	 1.40193673189	 1.4401640137	 
8.0	 1.24262626399	 1.52468336808	 
8.0	 1.05170478488	 1.57718204737	 
8.0	 0.844333910971	 1.60674571145	 
8.0	 0.635668993864	 1.62245654907	 
8.0	 0.436588104938	 1.63102683988	 
8.0	 0.246248767257	 1.63267486916	 
8.0	 0.0618188997795	 1.62651654386	 
8.0	 -0.119533578537	 1.61166777097	 
8.0	 -0.300640748735	 1.58724445747	 
8.0	 -0.484334691856	 1.55236251032	 
8.0	 -0.673307915466	 1.50611650602	 
8.0	 -0.86476782633	 1.44676275416	 
8.0	 -1.04876206334	 1.37146336449	 
8.0	 -1.21485628712	 1.27730678787	 
8.0	 -1.3526161583	 1.16138147516	 
8.0	 -1.45203320274	 1.02097311333	 
8.0	 -1.5116023072	 0.857305653921	 
8.0	 -1.53766064882	 0.6752351434	 
8.0	 -1.53683878432	 0.479753504688	 
8.0	 -1.51576727044	 0.275852660706	 
8.0	 -1.48107666391	 0.0685245343738	 
8.0	 -1.43804361599	 -0.136404364633	 
8.0	 -1.37805661406	 -0.324546457931	 
8.0	 -1.28435120958	 -0.476488460008	 
8.0	 -1.14240508905	 -0.575745272384	 
8.0	 -0.964703168708	 -0.640278565729	 
8.0	 -0.781028193807	 -0.710111973859	 
8.0	 -0.612297517289	 -0.808677409208	 
8.0	 -0.448521677005	 -0.902133609676	 
8.0	 -0.273247473976	 -0.944757042883	 
8.0	 -0.0852892633067	 -0.94487909338	 
8.5	 -0.346136530063	 -1.08768340935	 
8.5	 -0.0852292953963	 -1.28204565073	 
8.5	 0.135976025106	 -1.38296911473	 
8.5	 0.322039938579	 -1.4043608774	 
8.5	 0.477522952156	 -1.36012801478	 
8.5	 0.606985572972	 -1.26417760293	 
8.5	 0.714988308162	 -1.13041671789	 
8.5	 0.80609166486	 -0.972752435727	 
8.5	 0.884874672914	 -0.80502113346	 
8.5	 0.957034795103	 -0.636790261001	 
8.5	 1.03000714285	 -0.470994867497	 
8.5	 1.11126410783	 -0.309939177542	 
8.5	 1.2013872015	 -0.15235132446	 
8.5	 1.29023786226	 0.00856987859881	 
8.5	 1.36898910733	 0.176856611227	 
8.5	 1.43232632965	 0.351452123374	 
8.5	 1.47524076267	 0.530856545874	 
8.5	 1.49272363983	 0.713570009559	 
8.5	 1.47976640562	 0.898068357292	 
8.5	 1.43140514157	 1.07768995743	 
8.5	 1.34277670702	 1.23431841048	 
8.5	 1.21251637026	 1.35374977992	 
8.5	 1.05036705557	 1.43918849387	 
8.5	 0.868279864767	 1.49729972501	 
8.5	 0.678205899705	 1.53474864605	 
8.5	 0.490968226546	 1.55773481814	 
8.5	 0.308486845746	 1.5687829451	 
8.5	 0.128458535993	 1.56867454051	 
8.5	 -0.0514453758723	 1.55818061233	 
8.5	 -0.233550920953	 1.53807015137	 
8.5	 -0.417869382638	 1.50734486953	 
8.5	 -0.59785737629	 1.46000207743	 
8.5	 -0.76581936501	 1.38915943281	 
8.5	 -0.914076297488	 1.28796751588	 
8.5	 -1.03740021439	 1.15447184052	 
8.5	 -1.13559117142	 0.996759077927	 
8.5	 -1.20906610244	 0.824147830971	 
8.5	 -1.25834483035	 0.645815399662	 
8.5	 -1.28707898923	 0.466638004081	 
8.5	 -1.30254743503	 0.286510411041	 
8.5	 -1.31223166517	 0.105049089222	 
8.5	 -1.3236131771	 -0.0781294926993	 
8.5	 -1.34178058656	 -0.26304329673	 
8.5	 -1.34592105731	 -0.445753225011	 
8.5	 -1.30022119369	 -0.619738600454	 
8.5	 -1.19411359287	 -0.773577544286	 
8.5	 -1.04642527966	 -0.890232762012	 
8.5	 -0.876613998202	 -0.956731346144	 
8.5	 -0.697067580912	 -0.990989536642	 
8.5	 -0.517130789959	 -1.02421905007	 
9.0	 0.581591862953	 -0.887588117362	 
9.0	 0.74054978391	 -0.799107275771	 
9.0	 0.8961682649	 -0.693023047701	 
9.0	 1.04344642311	 -0.570717078546	 
9.0	 1.17738337572	 -0.433571013698	 
9.0	 1.29297823991	 -0.282966498551	 
9.0	 1.38523013288	 -0.120285178496	 
9.0	 1.44928854426	 0.0530697176425	 
9.0	 1.48462004706	 0.235075316602	 
9.0	 1.49554711223	 0.423011762938	 
9.0	 1.48665081359	 0.614122083123	 
9.0	 1.46251189825	 0.805649190978	 
9.0	 1.42466678304	 0.993786451392	 
9.0	 1.36416308226	 1.17111115915	 
9.0	 1.26990190112	 1.329456748	 
9.0	 1.13856181177	 1.46306817135	 
9.0	 0.979578521211	 1.57014592274	 
9.0	 0.803571489961	 1.64925753611	 
9.0	 0.620149501251	 1.69973261713	 
9.0	 0.433141811502	 1.72525865507	 
9.0	 0.2443266873	 1.73106962828	 
9.0	 0.0554799621311	 1.72240134972	 
9.0	 -0.131622530516	 1.70448963233	 
9.0	 -0.315341525675	 1.68226619138	 
9.0	 -0.496924582381	 1.65423463902	 
9.0	 -0.680371522377	 1.61277011252	 
9.0	 -0.869529812933	 1.55017207345	 
9.0	 -1.06082133048	 1.46351444081	 
9.0	 -1.24236983698	 1.35520660043	 
9.0	 -1.40186192272	 1.22793902791	 
9.0	 -1.52698417799	 1.08440219885	 
9.0	 -1.60542319308	 0.927286588844	 
9.0	 -1.62546027138	 0.759250385708	 
9.0	 -1.59433983957	 0.581922243387	 
9.0	 -1.54177374917	 0.395711028632	 
9.0	 -1.49872406702	 0.20096636913	 
9.0	 -1.47981250554	 0.00165576851246	 
9.0	 -1.46011780906	 -0.189498162451	 
9.0	 -1.40885492572	 -0.358474524929	 
9.0	 -1.29947989792	 -0.493676893985	 
9.0	 -1.14758483608	 -0.607596448483	 
9.0	 -0.992784956441	 -0.726418989958	 
9.0	 -0.853933764199	 -0.856748564077	 
9.0	 -0.703510467419	 -0.961683575222	 
9.0	 -0.522784322771	 -1.00817411975	 
9.0	 -0.335556191062	 -1.00465682019	 
9.0	 -0.148868023589	 -0.972784047777	 
9.0	 0.0339543126497	 -0.932734878511	 
9.0	 0.216068128015	 -0.888757572346	 
9.0	 0.40131433635	 -0.850517108036	 
9.5	 0.0877570784423	 -1.14366213767	 
9.5	 0.297047738233	 -1.20638405093	 
9.5	 0.488493263135	 -1.21093351464	 
9.5	 0.666735095034	 -1.17005825178	 
9.5	 0.836414675815	 -1.09650598535	 
9.5	 1.00217344736	 -1.00302443833	 
9.5	 1.16863603316	 -0.902340611281	 
9.5	 1.3346273528	 -0.800035525815	 
9.5	 1.48471117006	 -0.684118630773	 
9.5	 1.60198950779	 -0.5405827317	 
9.5	 1.68402053575	 -0.368720909852	 
9.5	 1.74205332142	 -0.180430288782	 
9.5	 1.78178979701	 0.0133792148623	 
9.5	 1.79287423615	 0.205712395279	 
9.5	 1.7623339519	 0.390212037818	 
9.5	 1.68156702545	 0.560799265747	 
9.5	 1.55987419807	 0.712535274054	 
9.5	 1.41113927817	 0.840773115203	 
9.5	 1.24735079435	 0.94221531944	 
9.5	 1.07287629792	 1.01899070082	 
9.5	 0.890174758432	 1.07461158452	 
9.5	 0.703389046675	 1.11758609093	 
9.5	 0.520560253686	 1.16798757337	 
9.5	 0.348951096362	 1.24435151865	 
9.5	 0.187258650404	 1.34477490016	 
9.5	 0.030781397309	 1.45924529098	 
9.5	 -0.125693848604	 1.57529877364	 
9.5	 -0.29060093101	 1.66490877476	 
9.5	 -0.471072169332	 1.70223354441	 
9.5	 -0.664017448755	 1.69450357991	 
9.5	 -0.863783362739	 1.65714888013	 
9.5	 -1.05741990935	 1.5970077925	 
9.5	 -1.21407904984	 1.49984394595	 
9.5	 -1.30564586539	 1.35186483847	 
9.5	 -1.34120838321	 1.16406648296	 
9.5	 -1.34545540385	 0.957839768044	 
9.5	 -1.34272360001	 0.754228291718	 
9.5	 -1.34431293303	 0.561966404183	 
9.5	 -1.34601463353	 0.375145130078	 
9.5	 -1.3427125527	 0.187004433015	 
9.5	 -1.32438582682	 -0.00412956643945	 
9.5	 -1.26633147689	 -0.18451865394	 
9.5	 -1.16222032815	 -0.344939728848	 
9.5	 -1.03338990363	 -0.486028368606	 
9.5	 -0.884127104278	 -0.603130467417	 
9.5	 -0.719891316797	 -0.699874233782	 
9.5	 -0.550183786164	 -0.788607435077	 
9.5	 -0.388040664441	 -0.886863956886	 
9.5	 -0.229259306739	 -0.99587272893	 
9.5	 -0.0431070223886	 -1.02975186252	 
10.0	 -0.102236387449	 -1.05672266627	 
10.0	 0.0571424805981	 -1.07225261861	 
10.0	 0.243649856771	 -1.10765019545	 
10.0	 0.446428943118	 -1.14778453231	 
10.0	 0.65462294169	 -1.17752476469	 
10.0	 0.857375054536	 -1.18174002811	 
10.0	 1.0438284837	 -1.14529945809	 
10.0	 1.20325927978	 -1.053483799	 
10.0	 1.33067664598	 -0.909337005132	 
10.0	 1.42890048631	 -0.73997537192	 
10.0	 1.50338575688	 -0.564447049303	 
10.0	 1.56291693407	 -0.382810582271	 
10.0	 1.60848008217	 -0.196012118557	 
10.0	 1.63597481002	 -0.00692673121626	 
10.0	 1.64166986735	 0.181775287664	 
10.0	 1.62572914524	 0.369470170484	 
10.0	 1.59033801557	 0.55659624459	 
10.0	 1.53769903692	 0.74360086732	 
10.0	 1.4700147679	 0.930931396007	 
10.0	 1.38715366365	 1.11493274771	 
10.0	 1.27774147866	 1.27218957244	 
10.0	 1.12769556633	 1.374213024	 
10.0	 0.940710694545	 1.41547836557	 
10.0	 0.739649555032	 1.4152215058	 
10.0	 0.545130707217	 1.3929917846	 
10.0	 0.357882327187	 1.36264356921	 
10.0	 0.170990788782	 1.33584324211	 
10.0	 -0.0204427989041	 1.32323270377	 
10.0	 -0.211495576054	 1.33052044645	 
10.0	 -0.396313737644	 1.3603016818	 
10.0	 -0.583677931513	 1.40349243185	 
10.0	 -0.78483721898	 1.44372423235	 
10.0	 -0.981014308333	 1.44801847685	 
10.0	 -1.13992309913	 1.37639540736	 
10.0	 -1.2467171237	 1.22159953884	 
10.0	 -1.31200069639	 1.02398957634	 
10.0	 -1.34813010722	 0.823789310182	 
10.0	 -1.365566187	 0.631856240334	 
10.0	 -1.3739026941	 0.445614340138	 
10.0	 -1.38261507517	 0.262390421986	 
10.0	 -1.39158200837	 0.0771713487776	 
10.0	 -1.383950981	 -0.119135529557	 
10.0	 -1.34000229249	 -0.325571684468	 
10.0	 -1.23194581825	 -0.470039919626	 
10.0	 -1.04846200743	 -0.495999241613	 
10.0	 -0.853609848871	 -0.518576054564	 
10.0	 -0.698208373922	 -0.629141425274	 
10.0	 -0.560012652645	 -0.768194786382	 
10.0	 -0.418404146191	 -0.894843335637	 
10.0	 -0.274546902587	 -1.01986787053	 
10.5	 0.497933848944	 -1.01098539841	 
10.5	 0.70004631811	 -1.06176105796	 
10.5	 0.883707524568	 -1.04056744137	 
10.5	 1.04647569745	 -0.960242624888	 
10.5	 1.18590906587	 -0.833624684749	 
10.5	 1.29956585896	 -0.673551697187	 
10.5	 1.38500430586	 -0.492861738439	 
10.5	 1.43988634169	 -0.30425192606	 
10.5	 1.46575685567	 -0.115141610853	 
10.5	 1.46912050021	 0.0737912373768	 
10.5	 1.45680504805	 0.26230783866	 
10.5	 1.43563827195	 0.450169413025	 
10.5	 1.41224238507	 0.637132222116	 
10.5	 1.38492486612	 0.822751964562	 
10.5	 1.34100102874	 1.00631919261	 
10.5	 1.2673593934	 1.18686907076	 
10.5	 1.15986212421	 1.35693485407	 
10.5	 1.02422922044	 1.50190724158	 
10.5	 0.866685377127	 1.60681125187	 
10.5	 0.693432276735	 1.65712154352	 
10.5	 0.509862560143	 1.65412054877	 
10.5	 0.320364881763	 1.61870748016	 
10.5	 0.129265323953	 1.57300413854	 
10.5	 -0.0592595247278	 1.53845542895	 
10.5	 -0.2443263862	 1.5215944128	 
10.5	 -0.428266671602	 1.51439829863	 
10.5	 -0.613545558742	 1.50823861033	 
10.5	 -0.80262822543	 1.49448687175	 
10.5	 -0.997979849475	 1.46451460678	 
10.5	 -1.19790229939	 1.41064698991	 
10.5	 -1.38282960502	 1.32930201567	 
10.5	 -1.52840336209	 1.21799543699	 
10.5	 -1.61115506547	 1.07447672976	 
10.5	 -1.62928467817	 0.902185682224	 
10.5	 -1.60334871951	 0.710433092318	 
10.5	 -1.55493132545	 0.508799618305	 
10.5	 -1.50561663192	 0.306865918448	 
10.5	 -1.47053106363	 0.113062568675	 
10.5	 -1.43330245551	 -0.0697895781409	 
10.5	 -1.36805346883	 -0.240562051807	 
10.5	 -1.26045732767	 -0.39600950516	 
10.5	 -1.11939931169	 -0.528632530542	 
10.5	 -0.956525220533	 -0.630505683344	 
10.5	 -0.781762081261	 -0.701732368395	 
10.5	 -0.601881505993	 -0.756968968922	 
10.5	 -0.42112483849	 -0.808463186935	 
10.5	 -0.24002568212	 -0.861791354311	 
10.5	 -0.0585429405998	 -0.91931737098	 
10.5	 0.125264333155	 -0.961001950442	 
10.5	 0.313477450374	 -0.9639250136	 
11.0	 -0.527828881119	 -0.965395529211	 
11.0	 -0.31563798765	 -0.958907188681	 
11.0	 -0.109952253649	 -0.868412621078	 
11.0	 0.0166801330698	 -0.697049848474	 
11.0	 0.101061067767	 -0.500491083768	 
11.0	 0.318747820406	 -0.418690991637	 
11.0	 0.524662553243	 -0.496732713129	 
11.0	 0.608450504147	 -0.699314632469	 
11.0	 0.741554267618	 -0.852097930525	 
11.0	 0.917868407257	 -0.990698105229	 
11.0	 1.08331733211	 -1.04041274554	 
11.0	 1.26839439589	 -0.867276819167	 
11.0	 1.39809299485	 -0.688308377702	 
11.0	 1.46765427774	 -0.500064706281	 
11.0	 1.47923324106	 -0.293186061792	 
11.0	 1.45836685267	 -0.0743954451839	 
11.0	 1.43738087166	 0.144473858327	 
11.0	 1.42777998253	 0.359598157089	 
11.0	 1.42549916614	 0.573145323365	 
11.0	 1.4256599277	 0.787344883624	 
11.0	 1.40906365398	 1.001736039	 
11.0	 1.34001204134	 1.21156650221	 
11.0	 1.20090800254	 1.38068352065	 
11.0	 0.999604901403	 1.44258778692	 
11.0	 0.781371571077	 1.37758389856	 
11.0	 0.602150338545	 1.20889383694	 
11.0	 0.440979961273	 1.08673947844	 
11.0	 0.25344829061	 1.16673340556	 
11.0	 0.0704371475277	 1.29107922701	 
11.0	 -0.111270617504	 1.39341484824	 
11.0	 -0.306479251548	 1.48071824478	 
11.0	 -0.516554554186	 1.55135252664	 
11.0	 -0.734495761883	 1.58806460303	 
11.0	 -0.934708303303	 1.53770840787	 
11.0	 -1.11016249408	 1.40416850557	 
11.0	 -1.27346641004	 1.24854374745	 
11.0	 -1.42017875097	 1.08171261357	 
11.0	 -1.5418408914	 0.902728007862	 
11.0	 -1.62999420581	 0.710642834269	 
11.0	 -1.6768510889	 0.504812415205	 
11.0	 -1.68469871254	 0.289132620225	 
11.0	 -1.663597426	 0.0710025704033	 
11.0	 -1.62374886457	 -0.142788243359	 
11.0	 -1.57478624836	 -0.352118679187	 
11.0	 -1.5260280046	 -0.560560580606	 
11.0	 -1.47629671504	 -0.76915071749	 
11.0	 -1.35071077996	 -0.956134571821	 
11.0	 -1.14763562759	 -1.06364579954	 
11.0	 -0.93541959083	 -1.02681848096	 
11.0	 -0.729202475317	 -1.01900303747	 
