6.0	 -1.0236065516537904	 0.7564082306964263	 
6.0	 -1.0849184797698332	 0.5754041958807664	 
6.0	 -1.1506391109729455	 0.3946786952086082	 
6.0	 -1.2338503046087552	 0.22058119238771065	 
6.0	 -1.3201001336112659	 0.04951312977442703	 
6.0	 -1.3918527460821981	 -0.12323828300420671	 
6.0	 -1.4371199591218546	 -0.30254965669328765	 
6.0	 -1.465329336945425	 -0.49393000019697453	 
6.0	 -1.4885091590388382	 -0.701186672371217	 
6.0	 -1.4938470203560372	 -0.9101782685493851	 
6.0	 -1.4545945187631009	 -1.0966938581683583	 
6.0	 -1.3440087427788945	 -1.2364223444616151	 
6.0	 -1.1637538673082093	 -1.307047780463658	 
6.0	 -0.9718512124811899	 -1.294711716817485	 
6.0	 -0.8017157058907641	 -1.2141043948350907	 
6.0	 -0.6492207489599499	 -1.096068704032847	 
6.0	 -0.4959032599053437	 -0.9763406841825248	 
6.0	 -0.3234563598292033	 -0.9020947535382645	 
6.0	 -0.13806452788597123	 -0.8558105280217416	 
6.5	 -0.3765623251792626	 -1.0238934081942828	 
6.5	 -0.16161241390631212	 -1.079763086768005	 
6.5	 0.02104744047115737	 -1.0554627849724405	 
6.5	 0.18168068152171302	 -0.9752673612821939	 
6.5	 0.33055075281392216	 -0.8634516741718684	 
6.5	 0.4779210979163518	 -0.7442905821160676	 
6.5	 0.6340551603975689	 -0.6420589435893953	 
6.5	 0.8091939199064861	 -0.5809855126946022	 
6.5	 1.0036671440092957	 -0.564957526364091	 
6.5	 1.1923759893464947	 -0.5456731934430743	 
6.5	 1.3462739956370449	 -0.4668210298544835	 
6.5	 1.4473642467860384	 -0.30863930095845044	 
6.5	 1.5007254397704601	 -0.12373398676783265	 
6.5	 1.518628337283514	 0.061695000357393434	 
6.5	 1.516360897699109	 0.2459319717789507	 
6.5	 1.5076111918571076	 0.4286396138383953	 
6.5	 1.498154618123098	 0.6137658308567976	 
6.5	 1.4911522088673634	 0.8063093586532736	 
6.5	 1.4806059582793727	 1.0032691407699488	 
6.5	 1.4491002169721061	 1.191670888198792	 
6.5	 1.3785026892923242	 1.357914326383937	 
6.5	 1.2532176084834374	 1.4893635244739745	 
6.5	 1.091459372475036	 1.5863456673676728	 
6.5	 0.9160008449761984	 1.6529640758932325	 
6.5	 0.7316763298943112	 1.6883157088251588	 
6.5	 0.5426906374436767	 1.691308514659076	 
6.5	 0.35605006076712575	 1.6592604510097522	 
6.5	 0.18499605902389982	 1.5859506864435575	 
6.5	 0.04241016426087632	 1.4670891275216036	 
6.5	 -0.06701184236096844	 1.31479642591182	 
6.5	 -0.14756717869179076	 1.1470699789905974	 
6.5	 -0.22437845787451313	 0.9783154911719997	 
6.5	 -0.3240587294571397	 0.8210838933015905	 
6.5	 -0.44742835615858606	 0.6801648748229882	 
6.5	 -0.5835121384772036	 0.5566927576139804	 
6.5	 -0.7279575866267746	 0.44881523094437054	 
6.5	 -0.8858334865687356	 0.350500021361143	 
6.5	 -1.0626376865642062	 0.25538201510764	 
6.5	 -1.2479737447416535	 0.156066540271942	 
6.5	 -1.4073233848044246	 0.04359642475212117	 
6.5	 -1.5041523028330235	 -0.09111609244215058	 
6.5	 -1.5098783122544785	 -0.2548093862533749	 
6.5	 -1.450735454858265	 -0.43802683895766475	 
6.5	 -1.3760593203710294	 -0.6244866276908145	 
6.5	 -1.3177886208646727	 -0.8019324568124604	 
6.5	 -1.2451004210519108	 -0.9722261133901223	 
6.5	 -1.1107792605215205	 -1.0932313671561382	 
6.5	 -0.9210231088158322	 -1.1171581550310392	 
6.5	 -0.7355725483925241	 -1.096186372469545	 
6.5	 -0.5516205249038534	 -1.0863316008502875	 
7.0	 0.3758462083888773	 -0.5107839613760409	 
7.0	 0.5010019466843991	 -0.36870710691657355	 
7.0	 0.6597331276859394	 -0.21656153008975398	 
7.0	 0.8460679623815472	 -0.12218517834587952	 
7.0	 1.0522430632346005	 -0.138502488982736	 
7.0	 1.2486389543043417	 -0.13681781842799262	 
7.0	 1.390906390039496	 0.015679336753149812	 
7.0	 1.4566160997503474	 0.2104157838796085	 
7.0	 1.4772390404204312	 0.41492256144669987	 
7.0	 1.4804539983214422	 0.6198643025582438	 
7.0	 1.4759182468527743	 0.824236972312091	 
7.0	 1.4714706554704078	 1.0277883823573493	 
7.0	 1.4659826066885346	 1.231591445394178	 
7.0	 1.4474692324806	 1.4380249476890172	 
7.0	 1.3889088441554005	 1.634581259636331	 
7.0	 1.2506538273101613	 1.788124270322956	 
7.0	 1.0536547526609303	 1.8782565986079502	 
7.0	 0.8443456373462579	 1.8906563734418018	 
7.0	 0.6484592943396402	 1.8300045851538826	 
7.0	 0.45342954211923203	 1.7351877719017985	 
7.0	 0.2809029050642981	 1.6105551792472264	 
7.0	 0.16318839082441408	 1.4498618721975856	 
7.0	 0.11463487960849106	 1.253469059210569	 
7.0	 0.05732682405152647	 1.0558370881900285	 
7.0	 -0.054573537056881935	 0.8849607809676835	 
7.0	 -0.1969258652325657	 0.7392261793944012	 
7.0	 -0.3514875302991311	 0.6033214313336854	 
7.0	 -0.5023305961439399	 0.4625962220318429	 
7.0	 -0.6575289395830687	 0.3313940732581205	 
7.0	 -0.8360778324001301	 0.23479115803212788	 
7.0	 -1.0323529448165423	 0.1613654609955425	 
7.0	 -1.2303864452262958	 0.08960078490659512	 
7.0	 -1.4036568700724639	 -0.008537844216957316	 
7.0	 -1.5303647532039424	 -0.1554574464094212	 
7.0	 -1.6168236248214596	 -0.3430254245032855	 
7.0	 -1.6778740017778904	 -0.5538461733975327	 
7.0	 -1.7239814157363254	 -0.7714615568461923	 
7.0	 -1.74155020647589	 -0.9845784387801809	 
7.0	 -1.7087602108441868	 -1.1836691633818026	 
7.0	 -1.6039909986168923	 -1.3576864196277068	 
7.0	 -1.4204426963982075	 -1.4281556300488856	 
7.0	 -1.2105894128194181	 -1.3842878730230055	 
7.0	 -1.0359712075767156	 -1.2811105384823895	 
7.0	 -0.892863890038025	 -1.1276325633454904	 
7.0	 -0.7115934531780644	 -1.0481193408743081	 
7.0	 -0.5289404965532558	 -0.9594875830814769	 
7.0	 -0.3585736386263062	 -0.8441612447193216	 
7.0	 -0.15826221817042568	 -0.794390543970565	 
7.0	 0.040372761831607644	 -0.7388101098455722	 
7.0	 0.19168719851276728	 -0.6036225054043052	 
7.5	 -0.31717709432948205	 -1.0135353693080698	 
7.5	 -0.11931900546251262	 -0.9962366752688411	 
7.5	 0.05741150720627545	 -0.9355967640388746	 
7.5	 0.22045979458942336	 -0.8465341659126245	 
7.5	 0.37727120759947197	 -0.7439674111845449	 
7.5	 0.5352910971489624	 -0.6428150301490896	 
7.5	 0.700195406741102	 -0.5544484131937936	 
7.5	 0.8693379622789594	 -0.4735555598184774	 
7.5	 1.0376281028459187	 -0.3899239945366457	 
7.5	 1.194049194397259	 -0.28780198572133114	 
7.5	 1.3146062607889775	 -0.1444355412223051	 
7.5	 1.4062150163745366	 0.024179292220175994	 
7.5	 1.4755960633715852	 0.19964864221679895	 
7.5	 1.5020147721411998	 0.38348606482139613	 
7.5	 1.4992145506182109	 0.5729361272022997	 
7.5	 1.489611315804771	 0.7606382503265834	 
7.5	 1.4516326450466595	 0.9434829012829236	 
7.5	 1.3903852465309094	 1.1218945652810044	 
7.5	 1.3303120527081191	 1.2976707321616854	 
7.5	 1.2634229562861832	 1.4745440273449915	 
7.5	 1.1482413043624837	 1.6208400417435835	 
7.5	 0.9644921538142527	 1.6435224646570907	 
7.5	 0.7649566030365021	 1.6756248077512241	 
7.5	 0.603650911340631	 1.6470303935874415	 
7.5	 0.4805953545565594	 1.4981479651660448	 
7.5	 0.33511106606144075	 1.360778258699731	 
7.5	 0.21019823816259864	 1.2318508156262655	 
7.5	 0.16956464626614118	 1.0479852769529543	 
7.5	 0.12881731546773098	 0.8634078225014287	 
7.5	 0.08032431501447054	 0.6846547974344104	 
7.5	 0.029211723738093696	 0.5014613298173832	 
7.5	 -0.05259952101392407	 0.3322238246803502	 
7.5	 -0.20686050337980377	 0.22992187905332237	 
7.5	 -0.3908868542504226	 0.18024778657696025	 
7.5	 -0.570189110833183	 0.12607859774799923	 
7.5	 -0.7365044013263139	 0.041531421256191775	 
7.5	 -0.8959778840032568	 -0.059140602808212685	 
7.5	 -1.0572121893969122	 -0.16139964764838785	 
7.5	 -1.2030885474008632	 -0.2781055301923002	 
7.5	 -1.3124403363021795	 -0.4267527968495886	 
7.5	 -1.389906562740114	 -0.6007636525254464	 
7.5	 -1.447702148927647	 -0.7831840924121928	 
7.5	 -1.4759286585046696	 -0.9683090085639683	 
7.5	 -1.4611021144957694	 -1.1528542975710538	 
7.5	 -1.3770903897415905	 -1.3167449176503256	 
7.5	 -1.1912604119305368	 -1.331821270515773	 
7.5	 -1.0129210007864042	 -1.2868643894488727	 
7.5	 -0.8393844161889529	 -1.2150223296193285	 
7.5	 -0.6439991018226832	 -1.256025231422002	 
7.5	 -0.45612974021614844	 -1.2597406200829675	 
8.0	 0.40794627928162674	 -0.8315397015229522	 
8.0	 0.6456413516154734	 -0.9060523678789122	 
8.0	 0.8500647719334414	 -0.909597097560705	 
8.0	 1.0247082733708741	 -0.8532356940369731	 
8.0	 1.173063589063113	 -0.7480299607763584	 
8.0	 1.2986224521455014	 -0.6050417012475033	 
8.0	 1.4048765957533815	 -0.43533271891905023	 
8.0	 1.4953177530220962	 -0.24996481725964073	 
8.0	 1.5734376570869872	 -0.05999979973791761	 
8.0	 1.6422420347761362	 0.1254695780429277	 
8.0	 1.7014036935058099	 0.31085383760901525	 
8.0	 1.749186711999519	 0.5062053384270706	 
8.0	 1.7805907155873886	 0.7145240737828016	 
8.0	 1.782760655881342	 0.9217695338916154	 
8.0	 1.7416822323414947	 1.1113862426493895	 
8.0	 1.643935629744336	 1.2672579900898255	 
8.0	 1.4920839999588613	 1.385078405837814	 
8.0	 1.3060728669982287	 1.473384981709085	 
8.0	 1.106722739433497	 1.5413617369891282	 
8.0	 0.9112570410846587	 1.596890475219832	 
8.0	 0.7202650017456985	 1.6418310930818754	 
8.0	 0.5295308743193408	 1.676303990694565	 
8.0	 0.33484506263280267	 1.7004207965195923	 
8.0	 0.13522913699242187	 1.7100951320112268	 
8.0	 -0.06186967565758976	 1.6902938085981583	 
8.0	 -0.24761071679448493	 1.6246259316934881	 
8.0	 -0.4119157406660759	 1.5100880167339987	 
8.0	 -0.5432130979989452	 1.3598312426774881	 
8.0	 -0.6331353221774288	 1.1866843598816141	 
8.0	 -0.6883302243521958	 0.9976120931809013	 
8.0	 -0.7197226193080274	 0.7979088381050632	 
8.0	 -0.739154986994741	 0.5933510482044473	 
8.0	 -0.767492048895585	 0.39445745108890834	 
8.0	 -0.8307239948756174	 0.21444082502742035	 
8.0	 -0.9458982726341496	 0.06146124323063751	 
8.0	 -1.0857837207386178	 -0.08132748216159924	 
8.0	 -1.209879441125598	 -0.2381540051013131	 
8.0	 -1.2947316148865133	 -0.4177096883339443	 
8.0	 -1.3418516791283166	 -0.6060592273999584	 
8.0	 -1.3470049722596185	 -0.7986368822692165	 
8.0	 -1.2966097382910207	 -1.004341821488011	 
8.0	 -1.1835251024564188	 -1.1867659603530027	 
8.0	 -1.0222220090323393	 -1.1870902616605628	 
8.0	 -0.8351129543682562	 -1.076051194895559	 
8.0	 -0.6431659923108749	 -1.013692739940547	 
8.0	 -0.4587900609612052	 -0.964130907445586	 
8.0	 -0.2906165421133152	 -0.8757133341620039	 
8.0	 -0.12296855306051427	 -0.7659665350915388	 
8.0	 0.06509147010626574	 -0.6879897699016848	 
8.0	 0.25349790749960965	 -0.6930193213829965	 
8.5	 0.40825654636011477	 -0.596441844145895	 
8.5	 0.5316799991942698	 -0.49023349740029726	 
8.5	 0.6917903040865749	 -0.3907369417404304	 
8.5	 0.876419676655383	 -0.29357103284112407	 
8.5	 1.0734003325190455	 -0.19435462637720718	 
8.5	 1.2705644872959152	 -0.08870657802350927	 
8.5	 1.455744356604344	 0.02775425654514059	 
8.5	 1.6167721560626838	 0.15940902165391319	 
8.5	 1.7414801012892875	 0.310638861627979	 
8.5	 1.817700407902506	 0.4858249207925089	 
8.5	 1.8337200377879084	 0.683799055730521	 
8.5	 1.7823523820063234	 0.8717137798580935	 
8.5	 1.6771037166487102	 1.0383626584761492	 
8.5	 1.5441361495614387	 1.1951219041000467	 
8.5	 1.408050392019652	 1.3521417971739291	 
8.5	 1.2692029770794764	 1.4976415160827168	 
8.5	 1.1104142017772825	 1.6039957600885038	 
8.5	 0.923106557652795	 1.658118984411683	 
8.5	 0.7210132198042454	 1.6838712944534404	 
8.5	 0.5201995684504147	 1.708523004325284	 
8.5	 0.3239253759606486	 1.7327202876075596	 
8.5	 0.12699860394048998	 1.739537157295657	 
8.5	 -0.07578040288496748	 1.7118507842586939	 
8.5	 -0.27945588288079076	 1.6407111430912409	 
8.5	 -0.46231263082596363	 1.5306557534284018	 
8.5	 -0.6010677806728453	 1.3874837457635878	 
8.5	 -0.6730088087136122	 1.2169951901661145	 
8.5	 -0.6778965081191131	 1.0250271790084562	 
8.5	 -0.6448607938445546	 0.8174651870418939	 
8.5	 -0.6048915769860113	 0.6009039719860505	 
8.5	 -0.5876576509988094	 0.38967599260634433	 
8.5	 -0.622012078263313	 0.2028913921053396	 
8.5	 -0.733462345444841	 0.05768842789810706	 
8.5	 -0.9030481218555906	 -0.056039504618076136	 
8.5	 -1.0816423188193809	 -0.16689893945481857	 
8.5	 -1.2366282718512283	 -0.2935781713235399	 
8.5	 -1.3466212261688595	 -0.44800547152757936	 
8.5	 -1.4044987462450382	 -0.6330515068327869	 
8.5	 -1.4256262323531812	 -0.8372957885867922	 
8.5	 -1.4259709912793206	 -1.0475500616488884	 
8.5	 -1.3623686697038362	 -1.230120563517099	 
8.5	 -1.183055438899601	 -1.3295741942103736	 
8.5	 -0.9909087906977035	 -1.3084043247376984	 
8.5	 -0.8224937926353848	 -1.197756995196974	 
8.5	 -0.6579220961401065	 -1.0702884463622886	 
8.5	 -0.4797235718130864	 -0.9852962284891761	 
8.5	 -0.2845524300024735	 -0.941703500188156	 
8.5	 -0.08555904149839647	 -0.9039708988189215	 
8.5	 0.04431974943051939	 -0.7562338338327905	 
8.5	 0.2532349933787081	 -0.7182770185982066	 
9.0	 -1.1169861180586305	 -0.8732589735557443	 
9.0	 -0.9502945337327339	 -0.9429198238124232	 
9.0	 -0.7784112802752582	 -1.0084106940668645	 
9.0	 -0.6029500176587724	 -1.069171283017659	 
9.0	 -0.4255244058558453	 -1.1246412893633981	 
9.0	 -0.24774810483904589	 -1.1742604118026738	 
9.0	 -0.07120816413174534	 -1.2174698891656388	 
9.0	 0.10494383718705383	 -1.2538519178766854	 
9.0	 0.2859141185260501	 -1.2832409104330473	 
9.0	 0.4773136371902369	 -1.3054642300642272	 
9.0	 0.6772072297513086	 -1.3150843328662505	 
9.0	 0.8679311328491672	 -1.2956898751634178	 
9.0	 1.029855138787108	 -1.2294975306175064	 
9.0	 1.1460709175624222	 -1.1023798350845382	 
9.0	 1.2216708331190336	 -0.9297593315439557	 
9.0	 1.2723790999712363	 -0.7413204303395499	 
9.0	 1.3100395218955603	 -0.5574907404551775	 
9.0	 1.3375909993057125	 -0.37761872300802124	 
9.0	 1.356753157147902	 -0.1981668193376282	 
9.0	 1.3690104174939366	 -0.01643277478307696	 
9.0	 1.3750437296947167	 0.16743219688428532	 
9.0	 1.3753626207254308	 0.35266808917999504	 
9.0	 1.3700918196616192	 0.5383702872066194	 
9.0	 1.3552330806273423	 0.7220847474835782	 
9.0	 1.3242828235204738	 0.9004490725576466	 
9.0	 1.2705582721903232	 1.071763708316824	 
9.0	 1.1871650204375876	 1.2367919791265516	 
9.0	 1.0672452548249247	 1.3964247491653659	 
9.0	 0.912486375910542	 1.5404868759153267	 
9.0	 0.7424220997861235	 1.6356923331165825	 
9.0	 0.5788225395530536	 1.6458589914012103	 
9.0	 0.43663056213589213	 1.552467499050716	 
9.0	 0.30453332450109655	 1.4049246864420875	 
9.0	 0.16490729488081118	 1.268963775156311	 
9.0	 0.000535369810247818	 1.208866148840109	 
9.0	 -0.1860190203649519	 1.2182534237732092	 
9.0	 -0.3660884169748905	 1.197125649767079	 
9.0	 -0.5348836002106699	 1.1262926179985764	 
9.0	 -0.7048468190295303	 1.0451496545057866	 
9.0	 -0.8846937629978943	 0.9865656303081239	 
9.0	 -1.04879642700362	 0.9189421695539292	 
9.0	 -1.1675025300497512	 0.7988506211973969	 
9.0	 -1.2440493242452493	 0.6340272471297563	 
9.0	 -1.2866809973128797	 0.44000396935578506	 
9.0	 -1.3036417369754063	 0.2323127098802616	 
9.0	 -1.3031757309555947	 0.026485390707964823	 
9.0	 -1.2921306110978341	 -0.16404723719403896	 
9.0	 -1.2662487729860654	 -0.3425626700249553	 
9.0	 -1.2197983219009965	 -0.5187760177262432	 
9.0	 -1.1644826894603568	 -0.6954285516981615	 
9.5	 -0.924320544917479	 -1.1482548697561152	 
9.5	 -0.748028667593991	 -1.1011799342628623	 
9.5	 -0.544191158409423	 -1.0961232582249603	 
9.5	 -0.34039290221669466	 -1.078236684447619	 
9.5	 -0.1641055864538116	 -0.9929654689417245	 
9.5	 -0.020912053174957326	 -0.8424918196833012	 
9.5	 0.13132891427014698	 -0.7526234019451755	 
9.5	 0.31849062039620396	 -0.7918390316695016	 
9.5	 0.5170050868863821	 -0.8672357363133673	 
9.5	 0.710264468446332	 -0.8948374875788344	 
9.5	 0.9085573386107427	 -0.8623363553530933	 
9.5	 1.0393063033292886	 -0.7418844529497487	 
9.5	 1.068008165469682	 -0.5422757559461692	 
9.5	 1.0514132102708709	 -0.3212742557257453	 
9.5	 1.0469093112910621	 -0.12072859589682514	 
9.5	 1.106490752554949	 0.0532542051350765	 
9.5	 1.2411584391515578	 0.19877987689175974	 
9.5	 1.40900044162263	 0.31514755998669436	 
9.5	 1.5105964740687476	 0.46047920928349195	 
9.5	 1.5160242273256497	 0.6604713723447762	 
9.5	 1.475199385076473	 0.8789076849063968	 
9.5	 1.4353627286362618	 1.0817201638349743	 
9.5	 1.399944888544829	 1.2699941728344484	 
9.5	 1.342081177589853	 1.467566182604202	 
9.5	 1.24940737065729	 1.6637197329142284	 
9.5	 1.1211124053684343	 1.8210249588396863	 
9.5	 0.9566859243189463	 1.9014052017259309	 
9.5	 0.7640806846463868	 1.8844239423018143	 
9.5	 0.5748082059273193	 1.7987495048911046	 
9.5	 0.4174890328076472	 1.6758769707774208	 
9.5	 0.2936960163698501	 1.525338080509752	 
9.5	 0.19432139208412147	 1.3548857411009807	 
9.5	 0.08773717558996455	 1.1917699253766063	 
9.5	 -0.05636682899875356	 1.0624178653878333	 
9.5	 -0.22636146971150461	 0.9584313310896813	 
9.5	 -0.402859839400769	 0.86704442472421	 
9.5	 -0.5848517938884822	 0.7992947856435401	 
9.5	 -0.7748960395912631	 0.7633634663040766	 
9.5	 -0.9696595338088595	 0.7220020379950478	 
9.5	 -1.159735715008971	 0.6386592560160234	 
9.5	 -1.3249642810240612	 0.5151361461999664	 
9.5	 -1.4434960435786692	 0.3592582518361005	 
9.5	 -1.4965985345872828	 0.1789290237260113	 
9.5	 -1.4963463943282447	 -0.01717801333124809	 
9.5	 -1.4723845232861845	 -0.21995013718145773	 
9.5	 -1.4508546419995614	 -0.4206194845999967	 
9.5	 -1.4240054255904304	 -0.6136172286794163	 
9.5	 -1.3663975604467642	 -0.7955003449537613	 
9.5	 -1.2606575068350334	 -0.9690074997236162	 
9.5	 -1.0924832140496712	 -1.05205419805921	 
10.0	 -0.17958803075252003	 -0.9252838973072294	 
10.0	 -0.007867427829040687	 -0.8485751364439115	 
10.0	 0.16836215164461427	 -0.7771916473614343	 
10.0	 0.3455137458211856	 -0.7059795207852787	 
10.0	 0.5200003928534137	 -0.6297848474409269	 
10.0	 0.6882351308940395	 -0.5434537180538607	 
10.0	 0.8470836810736666	 -0.4424529345313776	 
10.0	 1.003577362107574	 -0.3361881928837331	 
10.0	 1.1739059668509422	 -0.24678536231198622	 
10.0	 1.3428816531984196	 -0.15926095479980026	 
10.0	 1.4615186501249018	 -0.018681404188957924	 
10.0	 1.5388424108949408	 0.1600976989149877	 
10.0	 1.600586960876249	 0.3402829937708531	 
10.0	 1.637784688057515	 0.5230375960458363	 
10.0	 1.6423629604670262	 0.7111833461744363	 
10.0	 1.6138005048913755	 0.90308731635214	 
10.0	 1.5488054476095034	 1.0893780312926116	 
10.0	 1.4276344591822825	 1.2242628278856407	 
10.0	 1.246643037561009	 1.2801585032886087	 
10.0	 1.0393657212417349	 1.2821610460063195	 
10.0	 0.8494963861948569	 1.2949242028097938	 
10.0	 0.7193409954646401	 1.4072527590159314	 
10.0	 0.6033783389916361	 1.568897616696344	 
10.0	 0.4386235187158154	 1.6249159697157916	 
10.0	 0.2731323204201025	 1.5069263403823736	 
10.0	 0.1680199880334382	 1.3182694825038814	 
10.0	 0.11818320206631841	 1.1297579728137532	 
10.0	 0.046761359958708434	 0.9666927252402644	 
10.0	 -0.10801286188075844	 0.8603905253605244	 
10.0	 -0.30073900909407975	 0.8568808858456699	 
10.0	 -0.4763473848495167	 0.8316152387050002	 
10.0	 -0.6181986279215588	 0.7070853070714888	 
10.0	 -0.7441969538443522	 0.5447747180654752	 
10.0	 -0.8685339553924051	 0.39731540007333965	 
10.0	 -0.9835965366255914	 0.2521659002713241	 
10.0	 -1.0882069555485188	 0.09382315420853317	 
10.0	 -1.203581688948231	 -0.06460128794177436	 
10.0	 -1.3173243046263763	 -0.2237878068102623	 
10.0	 -1.4062218977174907	 -0.38979564799704036	 
10.0	 -1.4471725969000564	 -0.5686326748121859	 
10.0	 -1.4336999843641869	 -0.7586107111780052	 
10.0	 -1.3929229869304778	 -0.944636475438783	 
10.0	 -1.3517495327513365	 -1.1292852589731444	 
10.0	 -1.3072557153789373	 -1.3141228582701543	 
10.0	 -1.1840360759982949	 -1.4514324521842934	 
10.0	 -1.007821398993179	 -1.3812558872509615	 
10.0	 -0.8363887503473374	 -1.2805000790164078	 
10.0	 -0.6736534929640394	 -1.193892826468392	 
10.0	 -0.5182065199196967	 -1.083182025657039	 
10.0	 -0.37279900215501305	 -0.9649762710539156	 
10.5	 -0.43087498850095035	 -1.0019219236950119	 
10.5	 -0.16807022007502678	 -1.0686676444564047	 
10.5	 0.01981811040711179	 -1.022051851395652	 
10.5	 0.15765574042952984	 -0.8998290710440181	 
10.5	 0.2703084074762916	 -0.7397538299327695	 
10.5	 0.38264184903146137	 -0.5795806545931721	 
10.5	 0.5193575009771119	 -0.4568144157259407	 
10.5	 0.6919549348529529	 -0.388899787617044	 
10.5	 0.8892739666730116	 -0.35885000860013005	 
10.5	 1.097815467403038	 -0.346121937706332	 
10.5	 1.297690174295776	 -0.3203233754935486	 
10.5	 1.4591674093483666	 -0.23590055189506703	 
10.5	 1.559603050810851	 -0.07133396913922767	 
10.5	 1.6016614255266226	 0.12035660266539094	 
10.5	 1.6033769561445768	 0.3121880144500472	 
10.5	 1.589100795302762	 0.5040226611389483	 
10.5	 1.5792852674676086	 0.6961308509354053	 
10.5	 1.5883024918964557	 0.8886710535847954	 
10.5	 1.5872591530015119	 1.080951993649393	 
10.5	 1.5289811205463455	 1.2698746908077674	 
10.5	 1.4106243257314888	 1.4362357365660232	 
10.5	 1.2513750904904766	 1.5528740051696948	 
10.5	 1.0697540987086345	 1.5971903294929921	 
10.5	 0.8766822996312379	 1.5892851141632331	 
10.5	 0.678970445149481	 1.5723521578737532	 
10.5	 0.4831102729807698	 1.576179675553713	 
10.5	 0.2943901191353438	 1.5716950854547906	 
10.5	 0.11485952124200534	 1.52756137233123	 
10.5	 -0.06436771613490307	 1.4635482135658355	 
10.5	 -0.2547425806124168	 1.4114115639317266	 
10.5	 -0.46304103308477984	 1.3962480415170448	 
10.5	 -0.6185703674720381	 1.3327623871108154	 
10.5	 -0.6592045604384917	 1.144512571174953	 
10.5	 -0.6466601002457181	 0.9255748837154169	 
10.5	 -0.6265119876935997	 0.7357371829568706	 
10.5	 -0.5965542795269219	 0.5485365975973514	 
10.5	 -0.5707918666336853	 0.35165608995915887	 
10.5	 -0.5960946318360377	 0.16827303781557504	 
10.5	 -0.6986378941931425	 0.01344344569951666	 
10.5	 -0.8490473385452459	 -0.12427864100064917	 
10.5	 -1.010586227090351	 -0.2596030808831869	 
10.5	 -1.1503899632351313	 -0.4038424510821249	 
10.5	 -1.2370835671139864	 -0.5670023910385718	 
10.5	 -1.24928598531689	 -0.7555014410668742	 
10.5	 -1.2545993034719585	 -0.944711066397244	 
10.5	 -1.2308450702836566	 -1.147102380517452	 
10.5	 -1.1153252456112341	 -1.3042253560991435	 
10.5	 -0.9285087347695695	 -1.2843682375527594	 
10.5	 -0.7529491456539953	 -1.2036335681707209	 
10.5	 -0.5766661727785488	 -1.1252110880189186	 
11.0	 0.04652031944211324	 -0.7776142824932732	 
11.0	 0.19871044293926635	 -0.67452401728861	 
11.0	 0.38108653441740376	 -0.6010048708689113	 
11.0	 0.5754841827103989	 -0.5389194715275656	 
11.0	 0.7637389766521252	 -0.4701304475579612	 
11.0	 0.9276865050764561	 -0.37650042725348676	 
11.0	 1.0497753970908248	 -0.24047208391225527	 
11.0	 1.1391467133864244	 -0.06974387299199834	 
11.0	 1.2394996205655966	 0.09515880793281599	 
11.0	 1.3603276499988188	 0.24353587940032073	 
11.0	 1.4788945888931668	 0.3931217848300494	 
11.0	 1.5851756360835583	 0.552034504670547	 
11.0	 1.676826944495968	 0.7224821704621519	 
11.0	 1.7450789944590066	 0.9050757187219471	 
11.0	 1.7647717182640326	 1.0965582870035075	 
11.0	 1.7120762048092322	 1.2908635871387448	 
11.0	 1.5939619716258613	 1.464346996331024	 
11.0	 1.4321055082079759	 1.584969824748184	 
11.0	 1.2481503083127983	 1.6215485910158496	 
11.0	 1.057842671051897	 1.586018204318425	 
11.0	 0.8685817136099185	 1.551345483420535	 
11.0	 0.6851554588284625	 1.578200367897859	 
11.0	 0.5024976446470667	 1.6429610373716184	 
11.0	 0.31252965448195874	 1.6958934864297905	 
11.0	 0.11587651581684331	 1.701386365061343	 
11.0	 -0.06825410924800498	 1.6539949901432378	 
11.0	 -0.22363805904102257	 1.5551492062035328	 
11.0	 -0.35581798957291366	 1.418415399059153	 
11.0	 -0.4758480133835624	 1.2604329815861306	 
11.0	 -0.5947816069186862	 1.0978407910589834	 
11.0	 -0.71769119296334	 0.9418667694207145	 
11.0	 -0.8290331983321255	 0.7850881320567952	 
11.0	 -0.9088254328336794	 0.6160665991910483	 
11.0	 -0.9520495053531782	 0.43006345198969603	 
11.0	 -1.0235166179298996	 0.25420297569160527	 
11.0	 -1.1300474383724877	 0.09242686913153964	 
11.0	 -1.2521052442308787	 -0.06231752945828555	 
11.0	 -1.3701505323383998	 -0.21708404192776892	 
11.0	 -1.4646437995283776	 -0.37892649012680646	 
11.0	 -1.5188542322565757	 -0.5548807580591024	 
11.0	 -1.5327324162015228	 -0.751876193081825	 
11.0	 -1.5068171005026096	 -0.9629668236515685	 
11.0	 -1.4097235224840394	 -1.1015117902854008	 
11.0	 -1.2284121457298924	 -1.1189091401510332	 
11.0	 -1.0180522806466	 -1.119049267249302	 
11.0	 -0.830461577608775	 -1.1534199097711242	 
11.0	 -0.658930426216546	 -1.0692791241799	 
11.0	 -0.47787169507468236	 -0.9995245499721332	 
11.0	 -0.2953058387732773	 -0.9468960553381014	 
11.0	 -0.11726139283695237	 -0.8770912764205361	 
11.5	 0.3132881527049607	 -0.7374382186501515	 
11.5	 0.5161700543972091	 -0.7207494307952221	 
11.5	 0.7048075081835893	 -0.6657245580950726	 
11.5	 0.8775280733822556	 -0.5776007876644622	 
11.5	 1.032659309311363	 -0.46161530661815	 
11.5	 1.1685287752890663	 -0.3230053020708955	 
11.5	 1.2834640306335205	 -0.1670079611374583	 
11.5	 1.377021270725429	 0.0011991167163874173	 
11.5	 1.4568115464565055	 0.17682898464970903	 
11.5	 1.5336905533604432	 0.3552520579175602	 
11.5	 1.6131594890229648	 0.5332575097903424	 
11.5	 1.6765464942032662	 0.7140269719501006	 
11.5	 1.70354033729159	 0.9021737059510107	 
11.5	 1.692553282341205	 1.1009654887830416	 
11.5	 1.6308068047418687	 1.2867892365212132	 
11.5	 1.4735219064936247	 1.3747628404775107	 
11.5	 1.267359081110954	 1.4007294714370457	 
11.5	 1.0753454634160187	 1.4336486217842055	 
11.5	 0.891339274671822	 1.4837726525521246	 
11.5	 0.705327052484032	 1.534925546080387	 
11.5	 0.5171518223860244	 1.571104566200531	 
11.5	 0.32031428855619076	 1.6123488331138403	 
11.5	 0.12244053057853482	 1.641130141297857	 
11.5	 -0.05594324083630442	 1.6036997129056063	 
11.5	 -0.2069584493612346	 1.4829252394288495	 
11.5	 -0.34990783208795817	 1.3412631850450187	 
11.5	 -0.4859537650773859	 1.2013423712006546	 
11.5	 -0.6008615515355904	 1.0501032084330442	 
11.5	 -0.6831058287294721	 0.8760970600647293	 
11.5	 -0.7595082594658504	 0.6975866038771946	 
11.5	 -0.8782145834767486	 0.5492750267208376	 
11.5	 -1.0320288208151187	 0.42234672400520046	 
11.5	 -1.1892917349734895	 0.2941855178477382	 
11.5	 -1.3282160106038894	 0.15522038018288029	 
11.5	 -1.427421419379241	 -0.003593254872539406	 
11.5	 -1.4721685871934904	 -0.18839948511535262	 
11.5	 -1.5008449078779582	 -0.38194404382093705	 
11.5	 -1.531151317047402	 -0.5730976172016569	 
11.5	 -1.5431870538652401	 -0.7649149042704373	 
11.5	 -1.5161610434006239	 -0.9579051485913024	 
11.5	 -1.4298596201227558	 -1.132190340371889	 
11.5	 -1.273167022348442	 -1.2363188898231432	 
11.5	 -1.0742144752008294	 -1.2385451625626156	 
11.5	 -0.8800533555208233	 -1.1914217319171903	 
11.5	 -0.7236746029417648	 -1.086440688232434	 
11.5	 -0.5852094046197124	 -0.9483108483574229	 
11.5	 -0.40312219847134895	 -0.8930387661597655	 
11.5	 -0.2116174037546912	 -0.8752390976182522	 
11.5	 -0.032895613575733146	 -0.8304518539560154	 
11.5	 0.11521277750024946	 -0.7259490294775593	 
12.0	 0.2771248861259608	 -0.6497814573233184	 
12.0	 0.4965611913810005	 -0.5895857334142459	 
12.0	 0.65344844697783	 -0.4676247566287375	 
12.0	 0.7718117119854667	 -0.3070576402177296	 
12.0	 0.8756760454729282	 -0.13104349743215743	 
12.0	 0.9890665065092319	 0.037258558477042875	 
12.0	 1.1350180296638401	 0.17560002454414297	 
12.0	 1.302450983689221	 0.29310731532371814	 
12.0	 1.4390168051774557	 0.43680544318527154	 
12.0	 1.5233685821435317	 0.6223915442660805	 
12.0	 1.5827967411209813	 0.8179739613832839	 
12.0	 1.649528447697963	 1.0087590388411525	 
12.0	 1.7367521380348574	 1.19836031812584	 
12.0	 1.7831457509573936	 1.3919543549517006	 
12.0	 1.7256295295511002	 1.5887285973787446	 
12.0	 1.5813305752013989	 1.7558916294041547	 
12.0	 1.3931104964859622	 1.8503916350575924	 
12.0	 1.1967473131682815	 1.845022959112673	 
12.0	 1.001135925476248	 1.772635311137147	 
12.0	 0.8087896974346332	 1.6801722390905227	 
12.0	 0.6202766683874921	 1.599045425335637	 
12.0	 0.4323731501283699	 1.5303926327824602	 
12.0	 0.2414270900302053	 1.4718520081929012	 
12.0	 0.04616710358175615	 1.4194774769384966	 
12.0	 -0.14913803319142574	 1.3656365872956338	 
12.0	 -0.3412151750019271	 1.3037223963833438	 
12.0	 -0.5318078049682115	 1.231543296696335	 
12.0	 -0.7172510709765736	 1.1444133270856263	 
12.0	 -0.8855589965959958	 1.0333088421560117	 
12.0	 -1.025534285206201	 0.8904372953488606	 
12.0	 -1.1367828948622494	 0.7201844152969418	 
12.0	 -1.2240859156311998	 0.5327697449499164	 
12.0	 -1.2923354335147625	 0.33836225856303226	 
12.0	 -1.3494976628645323	 0.14371902478229856	 
12.0	 -1.4075444882707988	 -0.04884869065384616	 
12.0	 -1.4787167377148485	 -0.237328116201048	 
12.0	 -1.5746952156959768	 -0.4198218145875033	 
12.0	 -1.6783107547011007	 -0.6003738682136739	 
12.0	 -1.7302137905861323	 -0.791715219081109	 
12.0	 -1.6825662146539093	 -0.9963797242819131	 
12.0	 -1.5516430282565508	 -1.16992796565474	 
12.0	 -1.3708776542382777	 -1.2563361485270277	 
12.0	 -1.1674665983567118	 -1.2515016119840325	 
12.0	 -0.9621289662511119	 -1.2171397021155885	 
12.0	 -0.8035394051050059	 -1.1033203824583577	 
12.0	 -0.6576922250423558	 -0.9578393204156465	 
12.0	 -0.4827736706051623	 -0.8575611796234398	 
12.0	 -0.30644164391721274	 -0.7535167203175474	 
12.0	 -0.11089505415651975	 -0.7226663268983327	 
12.0	 0.08643883011020846	 -0.700967312737058	 
12.5	 0.18073816841205959	 -0.9529808562228222	 
12.5	 0.3560828440810981	 -0.8528719809890312	 
12.5	 0.4763400571957072	 -0.7092265645742462	 
12.5	 0.5606830537951224	 -0.5377614737776488	 
12.5	 0.6282850799185786	 -0.3541935753984198	 
12.5	 0.6983193816053115	 -0.17423973623574118	 
12.5	 0.7899592048945558	 -0.01361682308879418	 
12.5	 0.9217874275371174	 0.11225304722044295	 
12.5	 1.0918766509408937	 0.1981878124308054	 
12.5	 1.273638429567493	 0.2523744135033221	 
12.5	 1.4541753984813304	 0.30092668800487254	 
12.5	 1.622396819077889	 0.3892267010549907	 
12.5	 1.6513727824100395	 0.5626437845105238	 
12.5	 1.5951863395796002	 0.7652636623624729	 
12.5	 1.5378218716782444	 0.9432724154571698	 
12.5	 1.4521165115000103	 1.1104415942951087	 
12.5	 1.3094829654406341	 1.2262184987669438	 
12.5	 1.1233685352489335	 1.2744880977689992	 
12.5	 0.9348506964029673	 1.3101609071501557	 
12.5	 0.7501060418418681	 1.3381556502831806	 
12.5	 0.5623674393762301	 1.3448845666475917	 
12.5	 0.3739157695027115	 1.343454682539661	 
12.5	 0.19236156497428825	 1.367204917704042	 
12.5	 0.003641284525180074	 1.4120906767581958	 
12.5	 -0.20252027573243594	 1.4546252669918913	 
12.5	 -0.3940156296522509	 1.4517112981480342	 
12.5	 -0.5305272186329469	 1.3575330279825082	 
12.5	 -0.6174814451215899	 1.1850012834136499	 
12.5	 -0.7169103662867836	 1.019697814926609	 
12.5	 -0.875160256051016	 0.9246707879210785	 
12.5	 -1.0559209330270705	 0.8473738630236067	 
12.5	 -1.2038905299827702	 0.7328575968259967	 
12.5	 -1.280962992135333	 0.5666421793541528	 
12.5	 -1.3182057453172014	 0.37505793447728003	 
12.5	 -1.3550672726842696	 0.18744083846866216	 
12.5	 -1.389450349193183	 0.004327785906437398	 
12.5	 -1.4120689280069294	 -0.17904727968500658	 
12.5	 -1.4233050259531508	 -0.36533352169826677	 
12.5	 -1.4307704130535053	 -0.5555970963117535	 
12.5	 -1.44017906868577	 -0.7502101413579784	 
12.5	 -1.430934616689866	 -0.9412156693714834	 
12.5	 -1.3644367540524411	 -1.1148708042259097	 
12.5	 -1.2242488202558832	 -1.24291947910299	 
12.5	 -1.0434670311129837	 -1.2829470320204823	 
12.5	 -0.8503856625495891	 -1.281274530509728	 
12.5	 -0.663424113508805	 -1.2712978881240231	 
12.5	 -0.47645590208695576	 -1.236794209632279	 
12.5	 -0.2925234262642288	 -1.1964399147754379	 
12.5	 -0.11447268839010565	 -1.1347980570988756	 
12.5	 0.024319348879384653	 -1.0178798015388504	 
13.0	 0.11466037518163018	 -0.8746749794284819	 
13.0	 0.2881169239314983	 -0.7921178445573057	 
13.0	 0.4403421103219965	 -0.6853507690958349	 
13.0	 0.5771556720551291	 -0.5610531760077422	 
13.0	 0.7043773468328995	 -0.4259044882566984	 
13.0	 0.8278268723573122	 -0.28658412880637624	 
13.0	 0.9533239863303711	 -0.14977152062044757	 
13.0	 1.0864684035006758	 -0.021814758204743163	 
13.0	 1.2271953016726183	 0.0994681843658424	 
13.0	 1.366999737133097	 0.22578131109636307	 
13.0	 1.4784245109197371	 0.3727684184691402	 
13.0	 1.5359483980116813	 0.549395476129848	 
13.0	 1.551728020000468	 0.7354312502177146	 
13.0	 1.5361855554336052	 0.9190611827675311	 
13.0	 1.4894066630156504	 1.1036294561813067	 
13.0	 1.4051585874996972	 1.2762879318040214	 
13.0	 1.260250846905775	 1.373226056487589	 
13.0	 1.0698085997273972	 1.399260678238378	 
13.0	 0.8801769082995609	 1.4220998850340525	 
13.0	 0.7010732231673993	 1.464507479852435	 
13.0	 0.5273310962964541	 1.5302134221111554	 
13.0	 0.3529315285801144	 1.5969786520551819	 
13.0	 0.17178448805200894	 1.60770594085346	 
13.0	 -0.009420568899005183	 1.5513318878798164	 
13.0	 -0.17600732712040237	 1.447368952927518	 
13.0	 -0.314734411791616	 1.315526147940806	 
13.0	 -0.43255705959063434	 1.1721340459850202	 
13.0	 -0.5505484334852332	 1.0311616085714874	 
13.0	 -0.6876954638671692	 0.9049161574458421	 
13.0	 -0.8358970677449509	 0.7873100777983812	 
13.0	 -0.9698237470811246	 0.6605562773702504	 
13.0	 -1.0660795369607272	 0.5081610490996609	 
13.0	 -1.1302032802176039	 0.3330225866169291	 
13.0	 -1.187987667085563	 0.15162342874233448	 
13.0	 -1.2546255258115937	 -0.025243141526187937	 
13.0	 -1.3231931467106768	 -0.198767535389665	 
13.0	 -1.3841238255586656	 -0.3715722524900804	 
13.0	 -1.4281410086687063	 -0.5463410448301291	 
13.0	 -1.4530666728343544	 -0.7272562029075422	 
13.0	 -1.4640642096194936	 -0.9200486544876015	 
13.0	 -1.45485249095414	 -1.1194669007343827	 
13.0	 -1.3790899274966792	 -1.2826793296002652	 
13.0	 -1.207841245440353	 -1.3610195074068558	 
13.0	 -1.0273181265141615	 -1.3197385444455518	 
13.0	 -0.8785323901107908	 -1.2047395730107233	 
13.0	 -0.7393718065965341	 -1.0828031693610907	 
13.0	 -0.5965515215273658	 -0.9631571922964719	 
13.0	 -0.4355241032275571	 -0.8695473842608017	 
13.0	 -0.253914613550034	 -0.844375612002952	 
13.0	 -0.07238686185532495	 -0.8932100219848159	 
13.5	 0.3452774548795685	 -0.777861293742456	 
13.5	 0.5252564320675396	 -0.6833877548612661	 
13.5	 0.6686511083480814	 -0.551432026891619	 
13.5	 0.788455747357237	 -0.3957149185727321	 
13.5	 0.8976646127310488	 -0.22995723864382334	 
13.5	 1.009271968105559	 -0.06787979584410984	 
13.5	 1.1362720771168102	 0.07679660108719065	 
13.5	 1.287709819044617	 0.19519785774080992	 
13.5	 1.4489438739770286	 0.30751776236714345	 
13.5	 1.596660386337363	 0.44324261257190223	 
13.5	 1.7093875136647565	 0.6082843856413378	 
13.5	 1.7672727672858173	 0.7897951924569949	 
13.5	 1.7635533109277879	 0.9789835166396136	 
13.5	 1.7149845088229763	 1.1753111025644427	 
13.5	 1.6392805954712584	 1.3764559879547433	 
13.5	 1.5245255829692193	 1.5279542562172304	 
13.5	 1.3447442757852892	 1.5518466182074253	 
13.5	 1.1387559692844071	 1.490485465299448	 
13.5	 0.9504460867942447	 1.4103207148392407	 
13.5	 0.7746482628266761	 1.3329097899175733	 
13.5	 0.5966011490398391	 1.2710273274983102	 
13.5	 0.40647374073807974	 1.230035423664022	 
13.5	 0.21631038014845458	 1.1824291904441193	 
13.5	 0.03315886473642403	 1.1136326399436158	 
13.5	 -0.15632683508854855	 1.0564752326977422	 
13.5	 -0.3514766308678394	 1.0386513681248362	 
13.5	 -0.5474766886407673	 1.071264843623831	 
13.5	 -0.736307642932859	 1.0659854936001123	 
13.5	 -0.9085385867937449	 0.9668040509544429	 
13.5	 -1.0555481808643457	 0.8273566529570268	 
13.5	 -1.1769834048598196	 0.6726395276071517	 
13.5	 -1.2772555026040329	 0.5058404485600787	 
13.5	 -1.360779159460409	 0.3298677784415661	 
13.5	 -1.429581097511348	 0.14687031157378652	 
13.5	 -1.482404100694517	 -0.0420477195640177	 
13.5	 -1.5177521803612564	 -0.23585803177112952	 
13.5	 -1.533968065228247	 -0.4330475162978441	 
13.5	 -1.5286277709857845	 -0.6297982777401473	 
13.5	 -1.4990797233575128	 -0.8216082937696008	 
13.5	 -1.442785230059033	 -1.005140688948123	 
13.5	 -1.3576171423179257	 -1.1813054898680508	 
13.5	 -1.2412625378083286	 -1.3502917052057064	 
13.5	 -1.071473496978797	 -1.373270072512248	 
13.5	 -0.8817528821139825	 -1.2667410808441568	 
13.5	 -0.7159130436333142	 -1.1724840032487949	 
13.5	 -0.5549245670536673	 -1.0666391388201508	 
13.5	 -0.38931147019071566	 -0.9580771161306827	 
13.5	 -0.20921059967656047	 -0.884363321166378	 
13.5	 -0.025068121175133407	 -0.8227177206619916	 
13.5	 0.154978067162885	 -0.7438934112943022	 
14.0	 0.6594368842399153	 -0.7008774155568365	 
14.0	 0.8386166992372406	 -0.6286564762267889	 
14.0	 1.0379177667142474	 -0.5573564014976458	 
14.0	 1.2256786860654436	 -0.466257358069068	 
14.0	 1.3704282739090716	 -0.334789968067495	 
14.0	 1.4594172752893368	 -0.15719326936708855	 
14.0	 1.5141498540540168	 0.045200397861164074	 
14.0	 1.559722947228156	 0.24825210850473148	 
14.0	 1.6117661835224022	 0.44053613685718823	 
14.0	 1.6664936502152623	 0.6366989671378224	 
14.0	 1.7157782719118593	 0.8505625636543738	 
14.0	 1.7381728910967753	 1.068611501408659	 
14.0	 1.7066872711560306	 1.2659540508197134	 
14.0	 1.595256071329147	 1.417814713729672	 
14.0	 1.4082123828397715	 1.5043682103260112	 
14.0	 1.1860937820957707	 1.5116849631415215	 
14.0	 0.968424133755104	 1.4394510976636674	 
14.0	 0.7732667497169718	 1.3783703731542636	 
14.0	 0.6090646794684191	 1.4518624827831534	 
14.0	 0.4670716499939051	 1.6313404694864293	 
14.0	 0.3195787622019	 1.720005797800067	 
14.0	 0.15339371634906576	 1.6092361267854192	 
14.0	 -0.003677672551536392	 1.437825843073837	 
14.0	 -0.11499651418313965	 1.2675341672593756	 
14.0	 -0.14335819201597028	 1.0699472335139675	 
14.0	 -0.26608356646194375	 0.9681570596782633	 
14.0	 -0.5154902698776095	 0.9510987895728308	 
14.0	 -0.7087982124127885	 0.8625131567644425	 
14.0	 -0.8193273892533728	 0.7025088871038253	 
14.0	 -0.8882941546321783	 0.5115937160089399	 
14.0	 -1.0003334946702613	 0.3436299331816966	 
14.0	 -1.1354705599294541	 0.18861711954565336	 
14.0	 -1.2616377786211215	 0.02934993298255341	 
14.0	 -1.3504560265497216	 -0.14939142523816804	 
14.0	 -1.406307560644139	 -0.34519084008621415	 
14.0	 -1.4505018320680494	 -0.546466752365197	 
14.0	 -1.4885257505242082	 -0.7463642669800781	 
14.0	 -1.4996420672173847	 -0.9459779145681712	 
14.0	 -1.466227922321674	 -1.148657868979098	 
14.0	 -1.3531378814765498	 -1.3097597807642214	 
14.0	 -1.1501695203036404	 -1.3511567690642994	 
14.0	 -0.9508397855090167	 -1.3056831792349792	 
14.0	 -0.7698047841578874	 -1.207293686264445	 
14.0	 -0.6058381566971066	 -1.0866561681442382	 
14.0	 -0.44662336432103267	 -0.9610210226981918	 
14.0	 -0.277033291592684	 -0.8459085175633697	 
14.0	 -0.08998056960979439	 -0.7699937251889871	 
14.0	 0.11314444019449585	 -0.7606052514045597	 
14.0	 0.3098233300706475	 -0.8224310545524386	 
14.0	 0.5061030330073416	 -0.8308994913134887	 
14.5	 0.49395470945369296	 -1.3870809347035777	 
14.5	 0.8586451582856842	 -1.4698772573792696	 
14.5	 1.0934253468694017	 -1.4541685357257625	 
14.5	 1.2292230170334404	 -1.3604019709975692	 
14.5	 1.2969659106063949	 -1.209024764449202	 
14.5	 1.3275817694168606	 -1.0204841173351749	 
14.5	 1.3519983352934322	 -0.8152272309100004	 
14.5	 1.4008971979980434	 -0.6136048354969265	 
14.5	 1.4727721115677146	 -0.42335273386689787	 
14.5	 1.5054678611289942	 -0.2279499103209605	 
14.5	 1.4965698257148459	 -0.024043478134719742	 
14.5	 1.5059594203365092	 0.17690647031538487	 
14.5	 1.532971825250786	 0.38173235839121955	 
14.5	 1.5202321989993504	 0.5910300432156922	 
14.5	 1.4388070468263552	 0.7666488725712225	 
14.5	 1.2838431392748912	 0.8900386738707005	 
14.5	 1.0908476004605279	 0.9836211403260491	 
14.5	 0.8943706253456988	 1.0660795377015968	 
14.5	 0.7035344392078818	 1.117022553368198	 
14.5	 0.5163566327045152	 1.1074431465672425	 
14.5	 0.30300593575596607	 1.0335596572997716	 
14.5	 0.08315389748997119	 0.9648720471173609	 
14.5	 -0.004364336853950214	 1.083566762723078	 
14.5	 -0.05894575853776582	 1.2815847062065837	 
14.5	 -0.256900438141302	 1.3459517027259964	 
14.5	 -0.4642887271812006	 1.4098352948000428	 
14.5	 -0.6487444869921355	 1.485978083850334	 
14.5	 -0.8319547073642412	 1.5245446594733696	 
14.5	 -1.025334061903517	 1.5052569766580877	 
14.5	 -1.226458387380208	 1.44746437858877	 
14.5	 -1.4318879465412788	 1.373227674631746	 
14.5	 -1.6169628547154986	 1.283352951298162	 
14.5	 -1.7122750823818078	 1.131645350237422	 
14.5	 -1.719272334543178	 0.9240729260377061	 
14.5	 -1.679940252249528	 0.6975928903078021	 
14.5	 -1.6219487766305214	 0.48949142312417604	 
14.5	 -1.5099230624997355	 0.33723217443473585	 
14.5	 -1.3300401401838187	 0.2444862609635227	 
14.5	 -1.1519374983433475	 0.1419712760879219	 
14.5	 -1.0066155095658877	 0.0013899590829630241	 
14.5	 -0.8893781148404344	 -0.16402998929157098	 
14.5	 -0.8064062685716691	 -0.34980040400283197	 
14.5	 -0.7098723032589785	 -0.5255792929132511	 
14.5	 -0.5688749789769401	 -0.672096468800954	 
14.5	 -0.4043078947479937	 -0.7895145684143965	 
14.5	 -0.21683655611918687	 -0.869857281521116	 
14.5	 -0.05500905428799653	 -0.9850975336055737	 
14.5	 0.04213889780362162	 -1.1670866741367343	 
14.5	 0.10779295164911923	 -1.3588188816308617	 
14.5	 0.2942940135083185	 -1.4160900010132755	 
15.0	 0.45197406283196995	 -0.7087558909477383	 
15.0	 0.7154848717143905	 -0.6895487909146828	 
15.0	 0.8593727977208918	 -0.5707919327087944	 
15.0	 0.9355126751308867	 -0.3938074404750242	 
15.0	 0.9957793382237872	 -0.1999174383583239	 
15.0	 1.0917020391758387	 -0.0301642613566776	 
15.0	 1.2388246840870831	 0.10354410360635134	 
15.0	 1.3859790229134041	 0.24319500347117165	 
15.0	 1.4932858458619103	 0.41272219144907435	 
15.0	 1.5541601830843228	 0.5972003874289329	 
15.0	 1.583997478396419	 0.7948405618929809	 
15.0	 1.605010574097866	 1.010755116294289	 
15.0	 1.5861505262962852	 1.2117063382079518	 
15.0	 1.4657422671073228	 1.3419577405639556	 
15.0	 1.2624346042626022	 1.397560154324793	 
15.0	 1.0512309735619463	 1.4124536731529438	 
15.0	 0.8551222497219576	 1.4103155710358806	 
15.0	 0.6556417178729854	 1.4063776264222363	 
15.0	 0.4589878644621	 1.437375076316484	 
15.0	 0.29802319254834003	 1.5494981277410662	 
15.0	 0.13640643117304277	 1.6721152367765901	 
15.0	 -0.055376248668009595	 1.7373165140413795	 
15.0	 -0.2584589046549751	 1.741627331613687	 
15.0	 -0.452676957861793	 1.6897394180964416	 
15.0	 -0.6308094113330945	 1.592177324602405	 
15.0	 -0.7885342384167113	 1.4607719778116361	 
15.0	 -0.9218501966827471	 1.3070150193631385	 
15.0	 -1.0309469129904516	 1.1379655185930881	 
15.0	 -1.1189545458012449	 0.9575724218450089	 
15.0	 -1.189064087247165	 0.7697203332878437	 
15.0	 -1.2446614710989576	 0.5782613051025827	 
15.0	 -1.294382845619179	 0.38617069160313877	 
15.0	 -1.3525794342099573	 0.1954695252956395	 
15.0	 -1.4331679965482014	 0.00804880837932027	 
15.0	 -1.5315965618482843	 -0.1762942254766214	 
15.0	 -1.6237546335980517	 -0.3599796593667577	 
15.0	 -1.684590944305008	 -0.5455342299900645	 
15.0	 -1.6892846435913713	 -0.7353962165676854	 
15.0	 -1.6289549202442313	 -0.9258844932458087	 
15.0	 -1.520456148526241	 -1.1029853936666723	 
15.0	 -1.3680112390805794	 -1.2324689924840728	 
15.0	 -1.16957156212306	 -1.2539285003190226	 
15.0	 -1.0092860815066078	 -1.1435216613790622	 
15.0	 -0.8646356274526876	 -1.001267017326207	 
15.0	 -0.687203820506548	 -0.9097351763480519	 
15.0	 -0.5023447086757853	 -0.8407991939936943	 
15.0	 -0.30773699449685843	 -0.8233065351499355	 
15.0	 -0.13255539029504962	 -0.7233163456670425	 
15.0	 0.0647691972349343	 -0.6988709306112981	 
15.0	 0.26317420895881904	 -0.694270657986136	 
15.5	 0.4215213102420072	 -0.5654401379665557	 
15.5	 0.5422538629426846	 -0.4037794755740792	 
15.5	 0.6701697439005787	 -0.24692545024282164	 
15.5	 0.8041076629533151	 -0.09466954978006206	 
15.5	 0.9429063299385214	 0.053196738006919875	 
15.5	 1.085404454693823	 0.1968819253108447	 
15.5	 1.23046158203835	 0.3365854730605049	 
15.5	 1.3809706979652372	 0.4707546092585721	 
15.5	 1.5457225409914732	 0.5958574853180431	 
15.5	 1.6962231738169626	 0.7322375431370748	 
15.5	 1.7787928047839623	 0.9137969526652446	 
15.5	 1.7674299328332619	 1.1218181855600227	 
15.5	 1.6625200747795223	 1.3015106233688432	 
15.5	 1.494323474377435	 1.4199588384896273	 
15.5	 1.2996266191246706	 1.4620300810950195	 
15.5	 1.0948050747916085	 1.460904851722923	 
15.5	 0.8897767413442956	 1.4648770010259673	 
15.5	 0.6923987498056813	 1.508096703869323	 
15.5	 0.5065379891650109	 1.59728443863568	 
15.5	 0.3319411969847598	 1.7126050738013472	 
15.5	 0.15407679359038465	 1.7390955199830074	 
15.5	 -0.02052227799691151	 1.638502514417021	 
15.5	 -0.1657334389893863	 1.4531388017067088	 
15.5	 -0.254928877997765	 1.2273949947759588	 
15.5	 -0.2942689845476153	 1.0163337296298343	 
15.5	 -0.42331532650495657	 0.9106243591434917	 
15.5	 -0.6424332144366637	 0.8768653786363013	 
15.5	 -0.8539964169302903	 0.8111452232368984	 
15.5	 -1.026022846318858	 0.6892153563151859	 
15.5	 -1.160010798532786	 0.5271612797499469	 
15.5	 -1.25770714919181	 0.3413679610079875	 
15.5	 -1.3212496448513045	 0.1479111567829662	 
15.5	 -1.3633876152511175	 -0.04552800356654426	 
15.5	 -1.408469597470189	 -0.24044430923261018	 
15.5	 -1.481429583708012	 -0.4387980313750001	 
15.5	 -1.5923334000633256	 -0.640924150021761	 
15.5	 -1.7023168914241409	 -0.8418089381715568	 
15.5	 -1.7624652275619066	 -1.0353399944455917	 
15.5	 -1.72386357824807	 -1.2154049174650665	 
15.5	 -1.5642431737970528	 -1.354101780466858	 
15.5	 -1.388740001065454	 -1.3273004830303374	 
15.5	 -1.2315819066829825	 -1.174149529974774	 
15.5	 -1.054405701959061	 -1.0541054321707055	 
15.5	 -0.861226834690464	 -1.0206558743115288	 
15.5	 -0.6604143855361191	 -1.05396019930481	 
15.5	 -0.48124662447305466	 -0.9995983490930025	 
15.5	 -0.3344916800094313	 -0.8534903499972116	 
15.5	 -0.1452845955895338	 -0.778943334385379	 
15.5	 0.04251235546757693	 -0.7050504508060438	 
15.5	 0.22766173131838802	 -0.6237580922088944	 
16.0	 0.13416624385735776	 -0.9827226231692855	 
16.0	 0.27156324467915893	 -0.8493045577604984	 
16.0	 0.4014551793753794	 -0.7077122158281705	 
16.0	 0.5321342773643492	 -0.5667916394913908	 
16.0	 0.6718927680643981	 -0.43538887086924793	 
16.0	 0.8283657962484118	 -0.3216956928292409	 
16.0	 0.9905683520227183	 -0.21536379825030083	 
16.0	 1.1268440099530719	 -0.0854649463104651	 
16.0	 1.2238768850291495	 0.08029257024179716	 
16.0	 1.307798492297911	 0.2542725134930216	 
16.0	 1.3994802801001807	 0.4232772728112893	 
16.0	 1.4880286049052236	 0.6008723553441814	 
16.0	 1.5082071489083464	 0.7791892863938946	 
16.0	 1.4477903235978877	 0.9617985936081676	 
16.0	 1.374179048879446	 1.1697790196744635	 
16.0	 1.2955114017350204	 1.3647405850742709	 
16.0	 1.1760883976683791	 1.4671235520216608	 
16.0	 0.997382790640566	 1.4422011441817617	 
16.0	 0.7942801941003577	 1.3906012304653053	 
16.0	 0.6018714805851736	 1.4071883859934318	 
16.0	 0.41999323081142653	 1.4745505560470449	 
16.0	 0.24068947425999734	 1.5512551094862677	 
16.0	 0.058705525833814845	 1.6130888013700933	 
16.0	 -0.12954909455067581	 1.6463774354732204	 
16.0	 -0.3238342316595606	 1.6418014712638176	 
16.0	 -0.5148543245211751	 1.6000405775768645	 
16.0	 -0.6920024404657812	 1.5232312687561984	 
16.0	 -0.8484417920830836	 1.4149418558219102	 
16.0	 -0.9875645555088127	 1.2826253266430918	 
16.0	 -1.1144810177303774	 1.1343871599711701	 
16.0	 -1.2342983462312118	 0.9783302029264579	 
16.0	 -1.3489511061133905	 0.8198808774037917	 
16.0	 -1.4512251544910975	 0.656747703747155	 
16.0	 -1.532267120649375	 0.4852563404776934	 
16.0	 -1.5847514364601034	 0.30256586872640245	 
16.0	 -1.6114194903156314	 0.11132693590961709	 
16.0	 -1.619086483980302	 -0.08358752856663836	 
16.0	 -1.6145791124976303	 -0.27729832566517154	 
16.0	 -1.603248322457745	 -0.46595948482507854	 
