0.5	 -0.7171436246880079	 -0.8919910652852545	 
0.5	 -0.5353738645662578	 -0.9521071629204138	 
0.5	 -0.34265503833517996	 -0.9583195513619245	 
0.5	 -0.14581274789889098	 -0.9397572241111013	 
0.5	 0.04832740483849282	 -0.9255491746692598	 
0.5	 0.23293981797285487	 -0.9448243965377148	 
0.5	 0.4036471574637556	 -1.0184227879319319	 
0.5	 0.5725027068273243	 -1.111555140239495	 
0.5	 0.7565223157968975	 -1.16921791334437	 
0.5	 0.950576427676923	 -1.1693048468839036	 
0.5	 1.1347109732098097	 -1.112007862807466	 
0.5	 1.2944503552351856	 -1.0033345620359073	 
0.5	 1.4240098070234541	 -0.857446623821732	 
0.5	 1.5185231358353226	 -0.6890041697427336	 
0.5	 1.5785599962530747	 -0.5077657545475398	 
0.5	 1.6106739555756204	 -0.3180941692067959	 
0.5	 1.6217260165370946	 -0.12407498657917773	 
0.5	 1.618577181871635	 0.07020622047663669	 
0.5	 1.6078664257547404	 0.2608807935790956	 
0.5	 1.5924001085372865	 0.44782440989019523	 
0.5	 1.5717492483852238	 0.634073567696339	 
0.5	 1.5453833649897233	 0.8227639258996637	 
0.5	 1.512771976057181	 1.017031139314295	 
0.5	 1.4714181435231433	 1.2159605882359628	 
0.5	 1.4111945833193964	 1.402921562904519	 
0.5	 1.3201235421370754	 1.5574719744667358	 
0.5	 1.1889348566981846	 1.66319689880232	 
0.5	 1.0224215272538508	 1.724598417523862	 
0.5	 0.8299282129544792	 1.7529485737176385	 
0.5	 0.6208018886448878	 1.759522854744268	 
0.5	 0.404389529169891	 1.755596747964368	 
0.5	 0.189923582705779	 1.751946696543983	 
0.5	 -0.015983409377011027	 1.7479330315890387	 
0.5	 -0.20933094419562476	 1.731534257946229	 
0.5	 -0.3862314718676193	 1.6902366934472948	 
0.5	 -0.5428084189579383	 1.6115578045290107	 
0.5	 -0.6777439097135588	 1.4902760466067075	 
0.5	 -0.7955470686160317	 1.3377055466517358	 
0.5	 -0.9015341029656418	 1.1674507449822604	 
0.5	 -1.0006184607022657	 0.9927882841868794	 
0.5	 -1.087545630593781	 0.8187193097247937	 
0.5	 -1.146363717138376	 0.641538581504438	 
0.5	 -1.1634941135443906	 0.457463405049704	 
0.5	 -1.156736624841582	 0.26637576713374533	 
0.5	 -1.161342244068273	 0.07075822161890867	 
0.5	 -1.1506896722162752	 -0.11501001096573545	 
0.5	 -1.0584942032890354	 -0.27249099557325984	 
0.5	 -0.9126948996774391	 -0.41079430208684364	 
0.5	 -0.7594153751052288	 -0.5443724523674491	 
0.5	 -0.6663809578863159	 -0.6954595787478266	 
1.0	 -0.8534761402029255	 -0.6689126328162909	 
1.0	 -0.6119923171016961	 -0.5669327587359194	 
1.0	 -0.4278715238419958	 -0.5899307466015945	 
1.0	 -0.2786808458580083	 -0.6908912392063162	 
1.0	 -0.14198736858391628	 -0.8227988793430836	 
1.0	 0.004641822546096908	 -0.9386383098048972	 
1.0	 0.17717553218961649	 -1.0053296410962838	 
1.0	 0.36446429986933904	 -1.0482551252300214	 
1.0	 0.5515147465810012	 -1.0980768837794084	 
1.0	 0.7366742751434597	 -1.144415416667531	 
1.0	 0.9216957903679874	 -1.1664145335450766	 
1.0	 1.108167121288097	 -1.1434148547333673	 
1.0	 1.2872613516587534	 -1.067174055527457	 
1.0	 1.4337083449545285	 -0.9490543588811351	 
1.0	 1.5263126721856328	 -0.8010761197717366	 
1.0	 1.5708361343661492	 -0.6300347932518598	 
1.0	 1.5812499353021658	 -0.44113467281840935	 
1.0	 1.571527234488082	 -0.23957967291318455	 
1.0	 1.5556411914182988	 -0.030573707977984615	 
1.0	 1.5472574370414265	 0.18070443475464798	 
1.0	 1.5498307278557162	 0.3899102671196967	 
1.0	 1.5544806949967866	 0.593707166011882	 
1.0	 1.551589827971913	 0.7888187378955049	 
1.0	 1.5315406162883698	 0.9719685892348642	 
1.0	 1.4847155494534316	 1.1398803264942585	 
1.0	 1.4014973657430132	 1.2892775972056898	 
1.0	 1.2764033416635	 1.4175665946476101	 
1.0	 1.1185877569614913	 1.5245698458570565	 
1.0	 0.9404423889264476	 1.610644336631358	 
1.0	 0.7543333272265857	 1.6761470316742206	 
1.0	 0.5685397196613358	 1.7214315396604352	 
1.0	 0.38281330678533837	 1.7468444669079595	 
1.0	 0.1958383950224488	 1.7527315432016553	 
1.0	 0.006299290796522181	 1.7394384983263849	 
1.0	 -0.1870879319139814	 1.7073053176914919	 
1.0	 -0.38213817614473533	 1.656044699810737	 
1.0	 -0.5701217415596893	 1.5841859137571974	 
1.0	 -0.7415832155069971	 1.4901270015041232	 
1.0	 -0.8870671853348105	 1.3722660050247664	 
1.0	 -0.9971182384370506	 1.2290009663140218	 
1.0	 -1.066329028108006	 1.0606443073442198	 
1.0	 -1.1053755664059315	 0.8751144675650302	 
1.0	 -1.128927661738166	 0.6822186016676276	 
1.0	 -1.1513088849297142	 0.4915220420091595	 
1.0	 -1.1771767501320403	 0.3058390676097816	 
1.0	 -1.2004700059685958	 0.12049766186462607	 
1.0	 -1.2145226104325377	 -0.06948781114402965	 
1.0	 -1.2078006612131293	 -0.2613087378921588	 
1.0	 -1.1597448380436985	 -0.43770531799477713	 
1.0	 -1.0488162835112842	 -0.5798493500900879	 
1.5	 -0.9306174698825671	 -0.6292942456885632	 
1.5	 -0.7500075520365529	 -0.655436550940978	 
1.5	 -0.5652340338320297	 -0.6933752818594274	 
1.5	 -0.38378936164685934	 -0.7485083834710031	 
1.5	 -0.21316598185890245	 -0.8262338008027957	 
1.5	 -0.06085634084602065	 -0.9319494788818969	 
1.5	 0.06827630170701811	 -1.0677224478745992	 
1.5	 0.19419170945618233	 -1.2041714663000016	 
1.5	 0.3480474623937943	 -1.2973617973021532	 
1.5	 0.5318833089509237	 -1.3358738898767892	 
1.5	 0.7285095924682777	 -1.3297452649657695	 
1.5	 0.919774002565652	 -1.2851596967664654	 
1.5	 1.0862064683084134	 -1.1994000312941553	 
1.5	 1.2084884957165565	 -1.068818434300488	 
1.5	 1.2842340130562748	 -0.900130099645368	 
1.5	 1.3360955148419336	 -0.7153652152637638	 
1.5	 1.3809872564748582	 -0.5310162818321101	 
1.5	 1.418348726108116	 -0.3483212632751112	 
1.5	 1.4452311054090052	 -0.16643325975110526	 
1.5	 1.4586855760448247	 0.015494628581570871	 
1.5	 1.4565944144437784	 0.1982316099625695	 
1.5	 1.4422988696892494	 0.3820365821942035	 
1.5	 1.4213429664926853	 0.5669625253237222	 
1.5	 1.3992768452194722	 0.7530618477006872	 
1.5	 1.3801475708658195	 0.9400470656445866	 
1.5	 1.3517371481648437	 1.1239526601178964	 
1.5	 1.2919046847006943	 1.2985604761710223	 
1.5	 1.18744392694708	 1.4563727922256657	 
1.5	 1.0478229862386175	 1.5867764050355304	 
1.5	 0.8859888869651571	 1.6786862299442107	 
1.5	 0.712283273773226	 1.7263289967432704	 
1.5	 0.5297449182449375	 1.7388204381631571	 
1.5	 0.3401426817921086	 1.7278653633280698	 
1.5	 0.14524542582655608	 1.7051685813622095	 
1.5	 -0.05227550976338932	 1.6800806508751973	 
1.5	 -0.24346561372987974	 1.6455615352533028	 
1.5	 -0.4166987479055449	 1.5876018582101883	 
1.5	 -0.5603867438332741	 1.492220373179525	 
1.5	 -0.671183505201018	 1.3546995178554908	 
1.5	 -0.7632829351796655	 1.1900358278289505	 
1.5	 -0.8531259529519007	 1.015751374320063	 
1.5	 -0.953619842031706	 0.8468364292868057	 
1.5	 -1.057551335559564	 0.6838651789991143	 
1.5	 -1.1505958511999577	 0.5223166542091231	 
1.5	 -1.218420636436961	 0.3576640318519163	 
1.5	 -1.2473063799766555	 0.18539269195599006	 
1.5	 -1.2442287010855633	 0.0013996956722564582	 
1.5	 -1.2388709821267263	 -0.19647937944443483	 
1.5	 -1.1853988922739498	 -0.3657686923689097	 
1.5	 -1.0256201763684492	 -0.4677406066467907	 
2.0	 -0.8792791082208762	 -0.43544478195351266	 
2.0	 -0.7072847540576923	 -0.4966660629490135	 
2.0	 -0.5116170792025091	 -0.5212624080573711	 
2.0	 -0.30812568533587503	 -0.5354066168275291	 
2.0	 -0.11266017413833868	 -0.5652714888084305	 
2.0	 0.05893722022425213	 -0.6370179800059695	 
2.0	 0.19986877582897153	 -0.7622676699255997	 
2.0	 0.32998509648329705	 -0.9098040025830572	 
2.0	 0.47204489693588725	 -1.0433246613707536	 
2.0	 0.6225937091248727	 -1.1632140046321082	 
2.0	 0.76005065938726	 -1.2953879135037807	 
2.0	 0.8916616764202443	 -1.435585990122545	 
2.0	 1.0659216597578485	 -1.530674009885399	 
2.0	 1.244872188715213	 -1.5141610666526046	 
2.0	 1.3630826926580726	 -1.3677384215123687	 
2.0	 1.435711610684043	 -1.1594211523069662	 
2.0	 1.4821544485584914	 -0.9522896397755279	 
2.0	 1.5100645958297267	 -0.7567565678327317	 
2.0	 1.5239099444403243	 -0.568946495575503	 
2.0	 1.528158326779486	 -0.3849837149820527	 
2.0	 1.5272775752364138	 -0.20099251803059442	 
2.0	 1.5242508236354424	 -0.013795704628497699	 
2.0	 1.515629063284932	 0.17675778744944046	 
2.0	 1.4962218364815816	 0.3699997188060931	 
2.0	 1.460838655260884	 0.5652618358073063	 
2.0	 1.404171602080711	 0.7593324969057531	 
2.0	 1.3204080663663473	 0.9380689971461625	 
2.0	 1.203599879238144	 1.0843925965360732	 
2.0	 1.0499832059348357	 1.1847076948115547	 
2.0	 0.8676107939711565	 1.2442616045991168	 
2.0	 0.6685128547342315	 1.274644166637196	 
2.0	 0.4647226014780981	 1.2874500084896703	 
2.0	 0.26700166057210906	 1.2962897157184254	 
2.0	 0.07955106512929008	 1.32517495666317	 
2.0	 -0.09674173922184208	 1.3954037040486218	 
2.0	 -0.26999039579802153	 1.4829846276885312	 
2.0	 -0.452188356194646	 1.5438139217501787	 
2.0	 -0.6457833138297918	 1.5528970918682623	 
2.0	 -0.8394942030697217	 1.5128101807770393	 
2.0	 -1.020620627789926	 1.428239671641983	 
2.0	 -1.1697485728457138	 1.3034795681597338	 
2.0	 -1.2629780918871418	 1.1427873492756866	 
2.0	 -1.3000600784848453	 0.9554470035670403	 
2.0	 -1.300046566596052	 0.7548187374423896	 
2.0	 -1.2825417839578892	 0.5543777631074108	 
2.0	 -1.26349329075414	 0.3627695193974058	 
2.0	 -1.2473022108344982	 0.17338876405195688	 
2.0	 -1.2354150214234465	 -0.022899063185891202	 
2.0	 -1.187951535077303	 -0.206501209153939	 
2.0	 -1.043972660900079	 -0.3351839032712408	 
2.5	 -0.1279024643891355	 -0.9653242149091023	 
2.5	 0.08190887502275211	 -1.0167311856240793	 
2.5	 0.2670823244306168	 -1.0840915237469855	 
2.5	 0.44039203416828937	 -1.162852977027465	 
2.5	 0.6146121545696003	 -1.2484632932151591	 
2.5	 0.8025168359683802	 -1.3363702200597127	 
2.5	 1.0151024183916773	 -1.4208948388040397	 
2.5	 1.233681234674222	 -1.4775463380152807	 
2.5	 1.4150278294324665	 -1.4662833697217432	 
2.5	 1.522562362844739	 -1.35440031277883	 
2.5	 1.568444805355035	 -1.1607057493359025	 
2.5	 1.584593827145175	 -0.9248916763437041	 
2.5	 1.6026803889706887	 -0.686461697747762	 
2.5	 1.6345550247755196	 -0.4687572999977686	 
2.5	 1.660401992266735	 -0.26929842280978317	 
2.5	 1.657568092536777	 -0.08329126625990387	 
2.5	 1.6057010870525257	 0.09398145420115889	 
2.5	 1.5095869752974276	 0.2664010844770947	 
2.5	 1.3894966492831518	 0.43733404098135853	 
2.5	 1.2659280497626382	 0.6101391899237235	 
2.5	 1.1587483960203695	 0.7880170630151336	 
2.5	 1.0687024523388817	 0.9693677460002914	 
2.5	 0.9744309274981435	 1.1470423862650923	 
2.5	 0.8549701090667589	 1.3132015399097359	 
2.5	 0.7059655236338281	 1.4561093964775245	 
2.5	 0.532778787281219	 1.5617508450503295	 
2.5	 0.3411332995925419	 1.6198749645127721	 
2.5	 0.13784567940195863	 1.6375537495365697	 
2.5	 -0.06995552987407169	 1.6268018842570002	 
2.5	 -0.2751599024135957	 1.5996101390214494	 
2.5	 -0.4739931463069601	 1.5635028382097482	 
2.5	 -0.6698883051101325	 1.5163550609155605	 
2.5	 -0.8668234443975299	 1.454631614586073	 
2.5	 -1.0563447548985825	 1.3700001142159624	 
2.5	 -1.2153552376200922	 1.2484776836154308	 
2.5	 -1.3252500323898058	 1.081197211186251	 
2.5	 -1.3934463574999831	 0.8858377207137306	 
2.5	 -1.4343346298084063	 0.6862694033801353	 
2.5	 -1.4532927967844704	 0.48843485617907595	 
2.5	 -1.4507298591040567	 0.288393462409232	 
2.5	 -1.4270029014766659	 0.0821013447365511	 
2.5	 -1.3810139196493596	 -0.13177117075876033	 
2.5	 -1.2769305347580997	 -0.28971990403180425	 
2.5	 -1.0833736823270717	 -0.32389423774525794	 
2.5	 -0.863016670626276	 -0.31171894489030155	 
2.5	 -0.6625367145816456	 -0.3148535499565785	 
2.5	 -0.45028332608865	 -0.2985249959131969	 
2.5	 -0.28245571008257486	 -0.3519330731863072	 
2.5	 -0.20632557547965238	 -0.5394205331260508	 
2.5	 -0.17322232024640036	 -0.7757197128781381	 
3.0	 0.0038356680064086405	 -0.9794969437040463	 
3.0	 0.21167832960333938	 -1.02017413714871	 
3.0	 0.4009556141952103	 -1.0701974660020794	 
3.0	 0.5828027190777938	 -1.1258343719664023	 
3.0	 0.768354841546863	 -1.183352296743929	 
3.0	 0.9687471788981901	 -1.2390186820369076	 
3.0	 1.1902819584509567	 -1.2856120758795477	 
3.0	 1.3943802786393251	 -1.283511593423203	 
3.0	 1.5215755661400248	 -1.1791657788485805	 
3.0	 1.571314345152604	 -0.9811130863523276	 
3.0	 1.5925342457007845	 -0.7499866576591746	 
3.0	 1.6190557493324895	 -0.5314288023511593	 
3.0	 1.6417199861151492	 -0.3282213109867199	 
3.0	 1.6445239470992818	 -0.1363207582839036	 
3.0	 1.6114655984522208	 0.048315813813959316	 
3.0	 1.5316183770298286	 0.2272994616688716	 
3.0	 1.4109633015345722	 0.3941400073990103	 
3.0	 1.2589977024302936	 0.5406624393295415	 
3.0	 1.0852189101808354	 0.6586917457856317	 
3.0	 0.9016822521853816	 0.7482976690419995	 
3.0	 0.731908064940948	 0.8466583600499072	 
3.0	 0.5904655505716226	 0.9816885862941013	 
3.0	 0.4679227762322814	 1.1424279200859753	 
3.0	 0.35205132981731485	 1.3133863749273356	 
3.0	 0.23062279922111273	 1.479073964319988	 
3.0	 0.0916216418082274	 1.6242275035341636	 
3.0	 -0.07074975492549251	 1.740208701248405	 
3.0	 -0.25523376087290417	 1.825896274097707	 
3.0	 -0.46018374801426865	 1.8805723737144924	 
3.0	 -0.6795457219354156	 1.9020085756023768	 
3.0	 -0.8955182853477883	 1.8839501627425315	 
3.0	 -1.0883641001716762	 1.8194788958027561	 
3.0	 -1.2383553296841272	 1.701685153180939	 
3.0	 -1.3338862079027756	 1.5310260310164	 
3.0	 -1.3862790348202612	 1.3287543801013681	 
3.0	 -1.4107215939082627	 1.11939785655108	 
3.0	 -1.417603910881841	 0.9158129065505052	 
3.0	 -1.4116511487452958	 0.7170754135139612	 
3.0	 -1.3972385822028053	 0.5214339586833824	 
3.0	 -1.3772342658725294	 0.3250047963989304	 
3.0	 -1.3521098102247782	 0.12051383185902192	 
3.0	 -1.3113632466742906	 -0.0849439440493083	 
3.0	 -1.2014842028405015	 -0.22498585796191795	 
3.0	 -1.0144709923411013	 -0.2839197188218862	 
3.0	 -0.7917112315876368	 -0.3037157066499597	 
3.0	 -0.5755141700191239	 -0.32769408523828664	 
3.0	 -0.3841375332323143	 -0.3811193197004905	 
3.0	 -0.2069555864515765	 -0.46917565827300545	 
3.0	 -0.0451655402822393	 -0.6104777925301966	 
3.0	 0.05141530064488129	 -0.7929121381429259	 
3.5	 -0.6805964944342465	 -0.5629703112637138	 
3.5	 -0.4536409896496147	 -0.5420284013718426	 
3.5	 -0.29402914180796424	 -0.6248191198840658	 
3.5	 -0.17545069655181783	 -0.7717231396550551	 
3.5	 -0.07159539952369845	 -0.9431211335394819	 
3.5	 0.04384700363387098	 -1.0993937743920184	 
3.5	 0.1957723205197056	 -1.2030494877813604	 
3.5	 0.38381668697775606	 -1.2545948316220314	 
3.5	 0.5860075124343965	 -1.2860107485798349	 
3.5	 0.7838414071551842	 -1.2986518493382164	 
3.5	 0.9631794937042496	 -1.2610099339385838	 
3.5	 1.118767520882593	 -1.1584083216419834	 
3.5	 1.2671808343144695	 -1.022331259109409	 
3.5	 1.4206090268915064	 -0.8854524590784916	 
3.5	 1.5358668946503122	 -0.7379973004273584	 
3.5	 1.5608609790194523	 -0.55792194897914	 
3.5	 1.5270906545931422	 -0.3572125128210341	 
3.5	 1.4879925100596592	 -0.15707149317921046	 
3.5	 1.454107622095364	 0.03703233679853846	 
3.5	 1.4192736184641057	 0.22575730562881782	 
3.5	 1.3772906245632803	 0.4097754983172718	 
3.5	 1.3219587657902852	 0.5897589998695444	 
3.5	 1.2472963770115173	 0.7660324271597097	 
3.5	 1.1503561042789459	 0.9340886798907724	 
3.5	 1.030512964000483	 1.0860697895769367	 
3.5	 0.8894227233912585	 1.2182884818799333	 
3.5	 0.7309422288364111	 1.3312548577146461	 
3.5	 0.5590208571413198	 1.4256425592169704	 
3.5	 0.3774670060057372	 1.4999555052903728	 
3.5	 0.18980059868465837	 1.5482578810070355	 
3.5	 -0.0005195100908957285	 1.5642245253239888	 
3.5	 -0.1917292616720259	 1.5516373208925494	 
3.5	 -0.3847803293317229	 1.5304736215985908	 
3.5	 -0.580539632872307	 1.5203416773630904	 
3.5	 -0.7729734972984847	 1.502556437183185	 
3.5	 -0.9493038272286743	 1.4259467371944026	 
3.5	 -1.094046236276901	 1.2861410542298768	 
3.5	 -1.1900506779849438	 1.1115924065938494	 
3.5	 -1.226423469341459	 0.9276385903102932	 
3.5	 -1.2279387241504782	 0.7383794773050799	 
3.5	 -1.2319308877883413	 0.5404360539995897	 
3.5	 -1.2731111528395043	 0.33095287492753805	 
3.5	 -1.348575460768941	 0.11466115482825395	 
3.5	 -1.4273795189060385	 -0.0980524267636379	 
3.5	 -1.4779087265813016	 -0.29666599517671605	 
3.5	 -1.4685484831252336	 -0.4706576757395602	 
3.5	 -1.3676955632379868	 -0.6094872858910415	 
3.5	 -1.1930730763244435	 -0.6347345536406263	 
3.5	 -1.0143548948100833	 -0.5235795913456592	 
3.5	 -0.8409985695306983	 -0.44258258385699567	 
4.0	 -0.04583850637334671	 -0.8283829623941202	 
4.0	 0.14693671443651934	 -0.790246990706762	 
4.0	 0.33759221538312684	 -0.8940209205139686	 
4.0	 0.5264691299016566	 -1.063128992854383	 
4.0	 0.7139085914272896	 -1.2209954487666472	 
4.0	 0.9002517333952064	 -1.291044529289404	 
4.0	 1.0887799448501978	 -1.2270059072861061	 
4.0	 1.2994802640048282	 -1.1707870295649199	 
4.0	 1.4895710472645436	 -1.126047809939228	 
4.0	 1.5885515830812276	 -0.9502579534856056	 
4.0	 1.6369300386918677	 -0.7136029628090036	 
4.0	 1.6713514926140565	 -0.4865685037930838	 
4.0	 1.6860272115800095	 -0.2746664820337992	 
4.0	 1.6691406546631837	 -0.07417915079557202	 
4.0	 1.6088752809370375	 0.11861123665717446	 
4.0	 1.4968442925101197	 0.30106126580079673	 
4.0	 1.3406923787017915	 0.4407938440110858	 
4.0	 1.152419880673299	 0.5063754533585431	 
4.0	 0.9424491977482695	 0.5131725425777885	 
4.0	 0.720723598610759	 0.4907573001596913	 
4.0	 0.5039336252010149	 0.4779132494170214	 
4.0	 0.3603838529252709	 0.5797322946500094	 
4.0	 0.2959941481492893	 0.7914675858857325	 
4.0	 0.27922192491444886	 1.0481009649448507	 
4.0	 0.2786678495774691	 1.2940552530591993	 
4.0	 0.26376922734265	 1.5127108299536078	 
4.0	 0.20417689598793076	 1.6973910845160334	 
4.0	 0.07045522074886308	 1.8410857329706447	 
4.0	 -0.12319386231367141	 1.9212680595832903	 
4.0	 -0.32967196843289204	 1.9213426153769864	 
4.0	 -0.538107717367072	 1.862177057248373	 
4.0	 -0.7405378075551674	 1.7674162765890469	 
4.0	 -0.9289784496968204	 1.6591728114774251	 
4.0	 -1.095120143266054	 1.5351980604812745	 
4.0	 -1.2309551148505367	 1.377008800516293	 
4.0	 -1.3322831647215656	 1.1878099593998925	 
4.0	 -1.3964882754219905	 0.9800402715214732	 
4.0	 -1.42095957216215	 0.7661684466070262	 
4.0	 -1.405693676389304	 0.556910094081515	 
4.0	 -1.367990753388222	 0.3513471161066421	 
4.0	 -1.3316591673628777	 0.1440008778414544	 
4.0	 -1.3033644727112366	 -0.06496644673197816	 
4.0	 -1.269454100618083	 -0.26869897676763455	 
4.0	 -1.2186228341295302	 -0.46790731560672455	 
4.0	 -1.1399354152944456	 -0.6700000536366943	 
4.0	 -0.9391742598087498	 -0.6841445560362246	 
4.0	 -0.7569960364631914	 -0.5777523153864261	 
4.0	 -0.562772039842701	 -0.5125244680293157	 
4.0	 -0.3448763919385811	 -0.5400079353625818	 
4.0	 -0.15497081903824736	 -0.6492979162310561	 
4.5	 -0.4949692435125616	 -0.6908265913457193	 
4.5	 -0.2685026627348017	 -0.6431817341132929	 
4.5	 -0.07730725137106707	 -0.6724037375806265	 
4.5	 0.08883568697794711	 -0.7568108934692769	 
4.5	 0.2401448487115461	 -0.8747214935008005	 
4.5	 0.3868389302290349	 -1.0044538293967549	 
4.5	 0.5390777836172111	 -1.1246808613429524	 
4.5	 0.7056020337947992	 -1.2226295643259857	 
4.5	 0.8935650986383079	 -1.2942145380783119	 
4.5	 1.0968517423073127	 -1.32636426254417	 
4.5	 1.2849879421928199	 -1.2886895376446843	 
4.5	 1.427732115198347	 -1.1597486815429823	 
4.5	 1.5117333993880193	 -0.9795412740499896	 
4.5	 1.5394124459341676	 -0.7850844819382211	 
4.5	 1.5236830762607738	 -0.5864916939490499	 
4.5	 1.4779669894523944	 -0.3925718311943859	 
4.5	 1.4174029381459337	 -0.20787230608480425	 
4.5	 1.3634986437383028	 -0.02113355998321436	 
4.5	 1.332993156571954	 0.17858428050867856	 
4.5	 1.3171873324696592	 0.3859934275387491	 
4.5	 1.3009058905768278	 0.591674803507465	 
4.5	 1.2689735486264124	 0.7862093299142516	 
4.5	 1.2062150243513645	 0.9601779282585361	 
4.5	 1.097570386298649	 1.1042132564055227	 
4.5	 0.94068784650222	 1.2146477426593516	 
4.5	 0.7572517842540114	 1.298594354255173	 
4.5	 0.5699801802214862	 1.363691515717005	 
4.5	 0.38290382286690616	 1.4099118806515567	 
4.5	 0.1920195417846112	 1.4431050425123744	 
4.5	 0.004003143138125657	 1.499394012268295	 
4.5	 -0.17577773984380665	 1.595497298020705	 
4.5	 -0.35075423626167995	 1.6804365463022295	 
4.5	 -0.5255751242121706	 1.6937750282767607	 
4.5	 -0.6987601683201898	 1.6202231442110755	 
4.5	 -0.8627979853506009	 1.4889175323514552	 
4.5	 -1.0099225020654463	 1.3308709114082733	 
4.5	 -1.1343047559008235	 1.1718332719858737	 
4.5	 -1.2393022507731468	 1.0125968797694311	 
4.5	 -1.3306953000498387	 0.8467892752919678	 
4.5	 -1.4094769173168158	 0.6716747108165984	 
4.5	 -1.4727757105935755	 0.48745372851256713	 
4.5	 -1.517609980129933	 0.29441068566249634	 
4.5	 -1.5409972664855887	 0.09283088765039045	 
4.5	 -1.5363437473345383	 -0.11249334067104431	 
4.5	 -1.4850963320839072	 -0.30184437986747314	 
4.5	 -1.3670043412388961	 -0.45252181508324735	 
4.5	 -1.1907794107510803	 -0.545661139125677	 
4.5	 -0.9987899566307656	 -0.5685216549535698	 
4.5	 -0.7878586151242497	 -0.538127339768819	 
4.5	 -0.5945866611887696	 -0.5419952570620181	 
5.0	 -0.43418934784249114	 -0.6589045128547025	 
5.0	 -0.13297507130247385	 -0.5035455455506693	 
5.0	 0.085341290946255	 -0.5100432975527018	 
5.0	 0.2421577314642475	 -0.633295207680113	 
5.0	 0.3588722428120557	 -0.8281987147522153	 
5.0	 0.45688281755023197	 -1.0496512575883217	 
5.0	 0.5575874482393284	 -1.2525502750077444	 
5.0	 0.682384127439897	 -1.3917932058297966	 
5.0	 0.8489770622695975	 -1.4275398640822445	 
5.0	 1.0411768890010042	 -1.368236757673338	 
5.0	 1.2245747676117478	 -1.2482868886953664	 
5.0	 1.367851672269715	 -1.1002130779958508	 
5.0	 1.4690755469622785	 -0.9373698627995074	 
5.0	 1.541541441641744	 -0.7629359511526057	 
5.0	 1.5926570641449007	 -0.5794178568746323	 
5.0	 1.624514458729216	 -0.38881089872968594	 
5.0	 1.6390235403068865	 -0.1930928805245395	 
5.0	 1.6380942237901115	 0.005758393934032421	 
5.0	 1.6236364240910879	 0.20576512083925555	 
5.0	 1.5975600561220142	 0.40494949638435707	 
5.0	 1.5617445098902467	 0.6013307202684585	 
5.0	 1.5152897777168044	 0.7926551510852765	 
5.0	 1.4523306201030597	 0.9761817327109705	 
5.0	 1.3664874159091362	 1.1491189144644474	 
5.0	 1.2520873126509782	 1.308454673705257	 
5.0	 1.11092962663463	 1.4488460925555458	 
5.0	 0.9493031514544801	 1.563549789426882	 
5.0	 0.7735579370901317	 1.6458032741934665	 
5.0	 0.5893564651680403	 1.6911674328067432	 
5.0	 0.39869682141946067	 1.7075855852285424	 
5.0	 0.20236122452479127	 1.707109612273056	 
5.0	 0.0011311339278280259	 1.701793938952581	 
5.0	 -0.20305392329845173	 1.6991686495618161	 
5.0	 -0.4040682438717812	 1.6904092675758067	 
5.0	 -0.5948405502469344	 1.662997145221208	 
5.0	 -0.7682995648786858	 1.6044136347246745	 
5.0	 -0.9186926991317603	 1.505144878112363	 
5.0	 -1.0461667422134373	 1.369119452719415	 
5.0	 -1.152517542693921	 1.2040235141203208	 
5.0	 -1.2395410256823922	 1.0175433922927415	 
5.0	 -1.3090331162880309	 0.8173654172143384	 
5.0	 -1.3627897396200175	 0.6111759188627727	 
5.0	 -1.4020669417483174	 0.406642345233968	 
5.0	 -1.4115492971961416	 0.21085256593609725	 
5.0	 -1.3571777420587618	 0.030382815386201505	 
5.0	 -1.2288286373343311	 -0.1205422563667238	 
5.0	 -1.051754101612303	 -0.2169321185661226	 
5.0	 -0.864180058017035	 -0.2747196076637888	 
5.0	 -0.7184484147985687	 -0.3963457579560152	 
5.0	 -0.5599086424398239	 -0.5073967170506414	 
5.5	 -0.506863791662746	 -0.8013907664378211	 
5.5	 -0.3262849542636491	 -0.8709093848942233	 
5.5	 -0.1328051864686957	 -0.897119640781514	 
5.5	 0.06657998443914953	 -0.9014796852857541	 
5.5	 0.264875031176922	 -0.9054476695930047	 
5.5	 0.45508442646165714	 -0.930481744889327	 
5.5	 0.6321282711197904	 -0.9946087719749135	 
5.5	 0.8192732404633306	 -1.0649151632696372	 
5.5	 1.037207189053937	 -1.0917339177312044	 
5.5	 1.2588017610384328	 -1.0688141995011995	 
5.5	 1.4512530254414164	 -0.9951164777416973	 
5.5	 1.5817570512874861	 -0.8696012216147745	 
5.5	 1.626001007722478	 -0.6946271941136735	 
5.5	 1.608219195959099	 -0.4919826099008121	 
5.5	 1.568726560547958	 -0.2893434306890376	 
5.5	 1.5279617342410192	 -0.09690234051145563	 
5.5	 1.4894912755603615	 0.08998042046340056	 
5.5	 1.4563474847227391	 0.27641428498420334	 
5.5	 1.4314501090001694	 0.4674221734858362	 
5.5	 1.4123483524918146	 0.6638990103096859	 
5.5	 1.3889775254207344	 0.8608874022260362	 
5.5	 1.3506945088378803	 1.052985354167707	 
5.5	 1.2868561837942034	 1.2347908710675197	 
5.5	 1.186988082189786	 1.4008699421920994	 
5.5	 1.0496222383740559	 1.544078816373953	 
5.5	 0.8866460673010169	 1.6547384370525	 
5.5	 0.7107224726591065	 1.723491986774853	 
5.5	 0.5277148642712739	 1.7527226502490327	 
5.5	 0.33681070242559313	 1.7563403027744624	 
5.5	 0.1369166774871567	 1.7487395968365906	 
5.5	 -0.07305732460573884	 1.744308631656124	 
5.5	 -0.2904076741577591	 1.749655554128342	 
5.5	 -0.501294479473088	 1.7485510205334516	 
5.5	 -0.6898449251299482	 1.7205967050901068	 
5.5	 -0.8401861957065614	 1.6453942820169591	 
5.5	 -0.942989937299765	 1.50966274472016	 
5.5	 -1.015871284992297	 1.329423025442549	 
5.5	 -1.0833782220824646	 1.1282357590424228	 
5.5	 -1.168527851747178	 0.9287727826807523	 
5.5	 -1.270616229816738	 0.7399339314921396	 
5.5	 -1.3702531759179288	 0.5597701569552656	 
5.5	 -1.4475425867453728	 0.3860386810374153	 
5.5	 -1.4825883589936937	 0.2164967257058748	 
5.5	 -1.4569325233356207	 0.048908809090600226	 
5.5	 -1.3748958870234824	 -0.11884498588272191	 
5.5	 -1.2590020499037105	 -0.28879222707902397	 
5.5	 -1.1318098351974344	 -0.4620937453821813	 
5.5	 -0.9899207636323666	 -0.5925133631396048	 
5.5	 -0.8027203809822562	 -0.6009665631402799	 
5.5	 -0.6132476681844867	 -0.6410201785136574	 
6.0	 -0.6647306880234362	 -0.784610100436571	 
6.0	 -0.43880959443380463	 -0.69302621516562	 
6.0	 -0.24909129704860225	 -0.6839235254374407	 
6.0	 -0.08471147566719556	 -0.7363678615593564	 
6.0	 0.06519418991104893	 -0.8294250538386917	 
6.0	 0.2114900198867642	 -0.9421609325827702	 
6.0	 0.36504033446058337	 -1.0536413280989156	 
6.0	 0.5364280346842032	 -1.1430528731460525	 
6.0	 0.7252438361456712	 -1.1943007242845303	 
6.0	 0.9167690515386174	 -1.1974325161437676	 
6.0	 1.0953296627801918	 -1.1429416621418886	 
6.0	 1.2462606582761815	 -1.0298223264262354	 
6.0	 1.3573237471009767	 -0.8766710207157279	 
6.0	 1.4242871807835107	 -0.7010713669915531	 
6.0	 1.456146961904227	 -0.514093712625763	 
6.0	 1.4631125563416263	 -0.3259718163401443	 
6.0	 1.4526777812288811	 -0.14144094316735656	 
6.0	 1.4292882534854814	 0.04093546716207742	 
6.0	 1.3972278182362814	 0.22292152139926857	 
6.0	 1.360780320606134	 0.4062813262953294	 
6.0	 1.3242296057198935	 0.5927789886013711	 
6.0	 1.2918478766755133	 0.7841707569227672	 
6.0	 1.262536031172223	 0.9785873513391271	 
6.0	 1.2213135925881753	 1.1647898294659114	 
6.0	 1.150987545896131	 1.3300458277653167	 
6.0	 1.0367805345297227	 1.4631956673026407	 
6.0	 0.8828758782980788	 1.5654237832980176	 
6.0	 0.702408687033576	 1.6437425632950524	 
6.0	 0.5085298835037044	 1.7051504224940426	 
6.0	 0.3112244475926818	 1.7525135667859955	 
6.0	 0.114936080746525	 1.7814656892870815	 
6.0	 -0.07645086107720839	 1.7869104217321534	 
6.0	 -0.2590520219209617	 1.763751395856063	 
6.0	 -0.4289830458271784	 1.7068922433936633	 
6.0	 -0.5828159390718078	 1.612465788866591	 
6.0	 -0.7207979675332421	 1.4865040164139984	 
6.0	 -0.8449499343197326	 1.339815859295672	 
6.0	 -0.9572978661088307	 1.183210652699466	 
6.0	 -1.0590845040801673	 1.0236707819667081	 
6.0	 -1.1500155169320194	 0.8606688555920242	 
6.0	 -1.2296177460867725	 0.6928037738016618	 
6.0	 -1.2974180227747338	 0.5186744415149286	 
6.0	 -1.3514392021970154	 0.3375722869218535	 
6.0	 -1.3840263264788544	 0.15140315333977594	 
6.0	 -1.3861848076996495	 -0.037310267664462334	 
6.0	 -1.348905037623509	 -0.2259082317515831	 
6.0	 -1.2614586642677925	 -0.39604832807332824	 
6.0	 -1.111508182507633	 -0.5021826800121827	 
6.0	 -0.9226718173435894	 -0.5555943847556764	 
6.0	 -0.7536879333923743	 -0.625778543815533	 
6.5	 -1.1507387978859738	 -0.08611597410258767	 
6.5	 -1.153979421067426	 -0.30465589082125827	 
6.5	 -1.1183041995355172	 -0.5019508083066704	 
6.5	 -1.048289467342179	 -0.6777330757867315	 
6.5	 -0.9485115585393404	 -0.8317350424893482	 
6.5	 -0.8235468071789331	 -0.9636890576424281	 
6.5	 -0.6779715473128858	 -1.0733274704738778	 
6.5	 -0.516362112993129	 -1.1603826302116051	 
6.5	 -0.343294838271593	 -1.224586886083516	 
6.5	 -0.1633460572002081	 -1.2656725873175185	 
6.5	 0.01890789616909616	 -1.2833720831415194	 
6.5	 0.1988906877843888	 -1.2774177227834258	 
6.5	 0.3720630421496489	 -1.2475737108347285	 
6.5	 0.5398693715810455	 -1.1987478023074354	 
6.5	 0.7162845699700303	 -1.1466188963304853	 
6.5	 0.9104932844365637	 -1.103256398684067	 
6.5	 1.1032036112841486	 -1.0585247880538333	 
6.5	 1.2671637318164535	 -0.9960817053174057	 
6.5	 1.3751832943391713	 -0.8996192382600042	 
6.5	 1.4138874693487844	 -0.760589968909482	 
6.5	 1.4010799452300804	 -0.5879601646415687	 
6.5	 1.3588385242755137	 -0.39309696019804363	 
6.5	 1.3092410087775368	 -0.18736749032068428	 
6.5	 1.273621992364377	 0.018065912220276557	 
6.5	 1.2570275905204236	 0.21652944203314026	 
6.5	 1.2486506635340733	 0.40571788908286194	 
6.5	 1.2370279276343688	 0.5835068533860571	 
6.5	 1.2106960990503512	 0.7477719349593422	 
6.5	 1.1581918940110616	 0.896388733819333	 
6.5	 1.069915444253242	 1.0275924842872255	 
6.5	 0.947940443576373	 1.1418713875383975	 
6.5	 0.7988513905573262	 1.2405842182368074	 
6.5	 0.6292424775874126	 1.3250916219271691	 
6.5	 0.44570789705794356	 1.3967542441541974	 
6.5	 0.25484184136023036	 1.4569327304626074	 
6.5	 0.0629839618982397	 1.5066897295177835	 
6.5	 -0.12636917811193188	 1.5437594224699556	 
6.5	 -0.3115016680932509	 1.5637913402322783	 
6.5	 -0.4907249573197559	 1.5624029829226915	 
6.5	 -0.6623504950654864	 1.5352118506591352	 
6.5	 -0.8246897306044813	 1.4778354435595482	 
6.5	 -0.9756927128290173	 1.3873139583535732	 
6.5	 -1.111630058617094	 1.267298880404922	 
6.5	 -1.2282849120027146	 1.1233606912888483	 
6.5	 -1.32144036464603	 0.9610700787566488	 
6.5	 -1.3868795082071907	 0.7859977305596202	 
6.5	 -1.4203854343463487	 0.6037143344490586	 
6.5	 -1.4177412347236544	 0.41979057817626064	 
6.5	 -1.3747300009992598	 0.2397971494925235	 
6.5	 -1.2871348248333163	 0.06930473614914162	 
7.0	 -1.057550925890064	 -0.851721109783601	 
7.0	 -0.867362336638098	 -0.8760951747300463	 
7.0	 -0.6783130059586631	 -0.8472368877667913	 
7.0	 -0.4904391501326035	 -0.8111781968775351	 
7.0	 -0.30374784688594947	 -0.8127013051979104	 
7.0	 -0.1173610977414026	 -0.8585796312789502	 
7.0	 0.06973446067824203	 -0.9137633733483497	 
7.0	 0.25613798715968117	 -0.9468081100007668	 
7.0	 0.4401244788532784	 -0.928922211178905	 
7.0	 0.6224923205979137	 -0.8715278379959248	 
7.0	 0.8063978118944817	 -0.8240102914971734	 
7.0	 0.9915922759702003	 -0.7863300140855242	 
7.0	 1.174916866926985	 -0.7240996135722392	 
7.0	 1.3394939757922613	 -0.6198648232011221	 
7.0	 1.4539128674203943	 -0.47540061979687664	 
7.0	 1.5112530124179755	 -0.2974035474152635	 
7.0	 1.54593212523627	 -0.09904755929997248	 
7.0	 1.5808512714233873	 0.10809864182428915	 
7.0	 1.609380317850746	 0.31671047427976773	 
7.0	 1.6215411721324156	 0.5199445134356717	 
7.0	 1.6073557418824636	 0.7109573346612079	 
7.0	 1.5568459347149577	 0.8829055133255825	 
7.0	 1.4600368116709832	 1.02894640420876	 
7.0	 1.3138318627298928	 1.1439374558202466	 
7.0	 1.1365877058769704	 1.2280385380115886	 
7.0	 0.9498839059643946	 1.2827972985653888	 
7.0	 0.7626354419554023	 1.3145309929384212	 
7.0	 0.5747298329091641	 1.3329567068238637	 
7.0	 0.3858639516105655	 1.3478658686110154	 
7.0	 0.19678118656246357	 1.3694275162830045	 
7.0	 0.010737834869901708	 1.4087174094137649	 
7.0	 -0.16864037835971535	 1.476944606633829	 
7.0	 -0.33921232284415703	 1.5778450008566567	 
7.0	 -0.506739906093824	 1.6753721079517188	 
7.0	 -0.6795925495521481	 1.7203272833326777	 
7.0	 -0.8596919751267387	 1.6815831287492264	 
7.0	 -1.031857408375246	 1.5759562339695135	 
7.0	 -1.1781051110346805	 1.4281208290197653	 
7.0	 -1.2810483630108134	 1.2622417286882828	 
7.0	 -1.3374229823640371	 1.0904334677039718	 
7.0	 -1.3583080936644667	 0.9125719266297829	 
7.0	 -1.3554239966523165	 0.7279858931277844	 
7.0	 -1.3404909910678011	 0.5360041548600458	 
7.0	 -1.3252293766511345	 0.3359554994886338	 
7.0	 -1.321359453142531	 0.12716871467561788	 
7.0	 -1.3393353106670716	 -0.09047583763966272	 
7.0	 -1.3689403500273545	 -0.30809342500332876	 
7.0	 -1.3831148146591636	 -0.5094622577787712	 
7.0	 -1.3543083211331308	 -0.6781468240867736	 
7.0	 -1.2549704860198876	 -0.7977116120481226	 
7.5	 0.017602880546757183	 -0.9725223891921374	 
7.5	 0.1919571377651822	 -1.072595246498896	 
7.5	 0.3798138046366093	 -1.0992918839420769	 
7.5	 0.5735585310684824	 -1.0934041170040079	 
7.5	 0.7655769669682464	 -1.095723761167018	 
7.5	 0.9507826824166238	 -1.1358498496470522	 
7.5	 1.1386934401787145	 -1.1787189509903224	 
7.5	 1.3410130822247355	 -1.1668066510993147	 
7.5	 1.4858329081156418	 -1.0623955427608345	 
7.5	 1.5008631039546996	 -0.8742694286319688	 
7.5	 1.4866100797909463	 -0.6597027499635962	 
7.5	 1.5119129811410754	 -0.4583265976191453	 
7.5	 1.554621404992528	 -0.26934172185083904	 
7.5	 1.583368625748651	 -0.08785368761456123	 
7.5	 1.5686360886054938	 0.09122626200359704	 
7.5	 1.5155931762989647	 0.27663407113022875	 
7.5	 1.4588296491285173	 0.47935205917945367	 
7.5	 1.404317884046292	 0.6895186055806948	 
7.5	 1.3297858560869502	 0.8773361343165226	 
7.5	 1.2118410434753282	 1.0122161808053163	 
7.5	 1.0354643662709295	 1.0750944091196644	 
7.5	 0.8808968312256024	 1.1775710716321064	 
7.5	 0.7610886417804772	 1.335708532868382	 
7.5	 0.6284981188962251	 1.48104476014273	 
7.5	 0.4625092556906939	 1.5799590835767525	 
7.5	 0.2736440516464375	 1.6391449320460958	 
7.5	 0.07414013048782486	 1.6675169378104373	 
7.5	 -0.12390506496030776	 1.674090439910135	 
7.5	 -0.31567844568621495	 1.6731138999029307	 
7.5	 -0.5064756244487394	 1.6816626250052542	 
7.5	 -0.6988286985575457	 1.6870797246635993	 
7.5	 -0.8938141915349901	 1.6650454620299537	 
7.5	 -1.0830935978201282	 1.5986519846811937	 
7.5	 -1.238777644212665	 1.486439304241343	 
7.5	 -1.3352946144803186	 1.3303806301655714	 
7.5	 -1.3784454665159604	 1.142415699674694	 
7.5	 -1.3867491419592415	 0.9385245220310375	 
7.5	 -1.378759194532806	 0.7346967287449264	 
7.5	 -1.3682210797156014	 0.5413239682639794	 
7.5	 -1.3534911672280423	 0.35088947538558285	 
7.5	 -1.3265403828474984	 0.15804328349892105	 
7.5	 -1.2697068282238608	 -0.02587379776505018	 
7.5	 -1.1747057287138798	 -0.19279443666484725	 
7.5	 -1.0920057469657445	 -0.3677679245839019	 
7.5	 -0.9944039126987724	 -0.53031423424352	 
7.5	 -0.845702680257369	 -0.6573692113799101	 
7.5	 -0.6725689150953094	 -0.731258163857044	 
7.5	 -0.47705260777996883	 -0.7193342001090788	 
7.5	 -0.28832163783820336	 -0.7371055788740043	 
7.5	 -0.12388025061090613	 -0.8465063205536849	 
8.0	 -0.0061200060528356455	 -0.9754524101902035	 
8.0	 0.1808058891072532	 -1.0316699698102143	 
8.0	 0.37013953315223225	 -1.0860524303752281	 
8.0	 0.5620601413640276	 -1.129612547990764	 
8.0	 0.7567469290245652	 -1.153363078762341	 
8.0	 0.9543400719634758	 -1.1483140166391392	 
8.0	 1.1489084964855283	 -1.1050457967682146	 
8.0	 1.3219255438224526	 -1.0132487175022824	 
8.0	 1.4568476835545836	 -0.8701855340616507	 
8.0	 1.5495988720767422	 -0.6984435849475056	 
8.0	 1.6056258774716692	 -0.5131576089582544	 
8.0	 1.6361717660823225	 -0.3186560719485941	 
8.0	 1.6526560760675557	 -0.11893843623961652	 
8.0	 1.6664659396838517	 0.08200001736526473	 
8.0	 1.6819712594884977	 0.2810694810751544	 
8.0	 1.6878126692143145	 0.47720978401254244	 
8.0	 1.6704911848430375	 0.6696368423333746	 
8.0	 1.6181394113455996	 0.8571484547773881	 
8.0	 1.5306144525339913	 1.0355378538644038	 
8.0	 1.4129004730142916	 1.1992843913353528	 
8.0	 1.2700032039162987	 1.342861892208913	 
8.0	 1.1069271273180756	 1.4608042845585625	 
8.0	 0.928635108157006	 1.5496480694609425	 
8.0	 0.7400396528317781	 1.6083529478672274	 
8.0	 0.5460500160450632	 1.6360246181505402	 
8.0	 0.3506789335527383	 1.634863649839866	 
8.0	 0.15501456120365892	 1.6171665485619648	 
8.0	 -0.04045032178234174	 1.5972851183426204	 
8.0	 -0.2352734588128714	 1.5889951988656947	 
8.0	 -0.4302571651906394	 1.5918843528222817	 
8.0	 -0.6274959919493345	 1.590808462837178	 
8.0	 -0.8265916856397559	 1.5706009646562806	 
8.0	 -1.0172423750012713	 1.5186644215084042	 
8.0	 -1.1867885235410287	 1.4231697135162678	 
8.0	 -1.325666318577996	 1.2826150704400496	 
8.0	 -1.4294091878090802	 1.1125031406408847	 
8.0	 -1.4954368958799966	 0.927914195785143	 
8.0	 -1.5276575361159752	 0.7346938554457034	 
8.0	 -1.531843055256978	 0.5360349700944215	 
8.0	 -1.5137655628013276	 0.33513015855384687	 
8.0	 -1.4791476053696926	 0.13519519572415425	 
8.0	 -1.4232334849748998	 -0.055658643939173025	 
8.0	 -1.3181130900697917	 -0.2183920473319611	 
8.0	 -1.154463937268109	 -0.3312245235154992	 
8.0	 -0.9626139714151181	 -0.3743969699324881	 
8.0	 -0.7667293680741992	 -0.3883099135268368	 
8.0	 -0.5826914534214767	 -0.45018072098151757	 
8.0	 -0.41937446742497486	 -0.5601349405283066	 
8.0	 -0.2755717829165469	 -0.6928935091987687	 
8.0	 -0.13312097464505185	 -0.8270345770800489	 
8.5	 0.1519377753033301	 -0.9781655964968885	 
8.5	 0.3353015260879589	 -1.0916309680205467	 
8.5	 0.5288393582865741	 -1.1198897688365255	 
8.5	 0.7325307601707295	 -1.11427434493572	 
8.5	 0.9459266406873298	 -1.1243287373377282	 
8.5	 1.1512716949359885	 -1.1273844782511269	 
8.5	 1.3139280715874933	 -1.0237851914350062	 
8.5	 1.4437132086973514	 -0.8490975628017391	 
8.5	 1.5555207167192806	 -0.6718523251093141	 
8.5	 1.6285840898359405	 -0.4886679233108859	 
8.5	 1.6495652349819403	 -0.2915023945223238	 
8.5	 1.635751378327258	 -0.0846633872787642	 
8.5	 1.6091724278920243	 0.12562897094902686	 
8.5	 1.591531088931051	 0.33323869824841573	 
8.5	 1.5858865382515366	 0.5368243018524855	 
8.5	 1.5669566686626568	 0.7423266290941599	 
8.5	 1.5096849483412884	 0.9458302936173786	 
8.5	 1.396930149747927	 1.1117462140169316	 
8.5	 1.2280917742607083	 1.2220102464103606	 
8.5	 1.0411728017139843	 1.3188588781583344	 
8.5	 0.870708969126586	 1.4413259817573378	 
8.5	 0.7110555283596559	 1.5749757589882192	 
8.5	 0.5460227972313193	 1.6913398744739172	 
8.5	 0.3601291522716006	 1.7629267837645592	 
8.5	 0.1544356750462697	 1.785066114566071	 
8.5	 -0.05340091767936024	 1.7760963363441515	 
8.5	 -0.2548948861204359	 1.754219339397608	 
8.5	 -0.4602503408588892	 1.7354618845392868	 
8.5	 -0.6766546125023589	 1.7282046975212186	 
8.5	 -0.8839015603706496	 1.700968647675083	 
8.5	 -1.0528026626590385	 1.6092573122701885	 
8.5	 -1.174075225202063	 1.442949589172478	 
8.5	 -1.2736807871941467	 1.253269172026153	 
8.5	 -1.3570430382910446	 1.063315296578656	 
8.5	 -1.4105528147309143	 0.869016268380843	 
8.5	 -1.4233035810750292	 0.6665068305391904	 
8.5	 -1.4139732971267902	 0.4604146497162725	 
8.5	 -1.4013550823543417	 0.2558650744515634	 
8.5	 -1.3822765955348741	 0.05231860970125063	 
8.5	 -1.3517606458917468	 -0.15098642883309182	 
8.5	 -1.2985505500423131	 -0.34941651497577036	 
8.5	 -1.2047815171773246	 -0.5317388831266474	 
8.5	 -1.0593977353123796	 -0.6780240119621629	 
8.5	 -0.8626377506032152	 -0.7093938210644307	 
8.5	 -0.6551314827051661	 -0.6797838139716882	 
8.5	 -0.47400488590914946	 -0.5914272341289516	 
8.5	 -0.28846316138524236	 -0.5072178840659489	 
8.5	 -0.08328847509984152	 -0.4757510329999105	 
8.5	 0.07828211596287919	 -0.547181579363883	 
8.5	 0.10065866551678894	 -0.7845235709051862	 
