6.0	 -0.7246377533018797	 1.3500492692700274	 
6.0	 -0.837591929122544	 1.1814642062707952	 
6.0	 -0.9206664921964895	 0.977779334034093	 
6.0	 -1.0390502857144484	 0.8200888305408849	 
6.0	 -1.2126745802743017	 0.7178711572758937	 
6.0	 -1.4113388135276113	 0.6012935941231374	 
6.0	 -1.602301976612715	 0.4214135412200696	 
6.0	 -1.7530091195985502	 0.20411513345110094	 
6.0	 -1.8309399415160525	 -0.010782830262040886	 
6.0	 -1.8035741413961606	 -0.18346155099762917	 
6.0	 -1.6464710879679065	 -0.28048812668308143	 
6.0	 -1.4166406177944602	 -0.332805342042258	 
6.0	 -1.218266266467407	 -0.4086404732750779	 
6.0	 -1.1436553298711636	 -0.569846636465411	 
6.0	 -1.1278875448088022	 -0.7920440662669164	 
6.0	 -1.024197360861522	 -0.9945868087749404	 
6.0	 -0.8389459020144701	 -1.1124724819352008	 
6.0	 -0.632963852860421	 -1.1015163100713052	 
6.0	 -0.4241030505877624	 -1.0939379088220644	 
6.0	 -0.22058826289985517	 -1.0566394128417345	 
6.5	 0.37734499400648824	 -0.9901879445587102	 
6.5	 0.5593986669590149	 -0.9306834131159442	 
6.5	 0.7548809895595516	 -0.8534372305849462	 
6.5	 0.9509920443286248	 -0.7567803955075189	 
6.5	 1.1349319137867617	 -0.6390439064254659	 
6.5	 1.2939006804544895	 -0.49855876188059056	 
6.5	 1.4150988311546016	 -0.33365611459688943	 
6.5	 1.4911339385412916	 -0.144729129853384	 
6.5	 1.5335739099945096	 0.06059843198307048	 
6.5	 1.558140251606667	 0.2731188200263828	 
6.5	 1.5805543534626834	 0.4836243479176955	 
6.5	 1.6102362776172423	 0.6864123379074507	 
6.5	 1.6333687065948248	 0.8887055170052411	 
6.5	 1.6307791016641837	 1.1007053647179081	 
6.5	 1.583974729081746	 1.3297264125701733	 
6.5	 1.4854786098203856	 1.5363022601626184	 
6.5	 1.3367548699688043	 1.643054632615111	 
6.5	 1.14892279964792	 1.6029268531960783	 
6.5	 0.960765028748693	 1.4613391185334705	 
6.5	 0.811505628168681	 1.2800077490965884	 
6.5	 0.6838947645261301	 1.1128915600530527	 
6.5	 0.5231506262768338	 1.0086449924645489	 
6.5	 0.3110258626264492	 0.997983616466695	 
6.5	 0.1062892055485131	 1.0746456963575732	 
6.5	 -0.053338721984118556	 1.2127167147216094	 
6.5	 -0.20979272208384778	 1.347066331996724	 
6.5	 -0.40750076981189276	 1.413138040815517	 
6.5	 -0.6184339155773092	 1.3947309799828314	 
6.5	 -0.8001449153343169	 1.3024208180673575	 
6.5	 -0.9605684849705125	 1.1650859748217988	 
6.5	 -1.1171538362257212	 1.015036539671394	 
6.5	 -1.2787354163328994	 0.8742681491019689	 
6.5	 -1.4256478890385442	 0.7306536640643484	 
6.5	 -1.5347474512469623	 0.5663955468919114	 
6.5	 -1.6084410768735848	 0.37830607186111287	 
6.5	 -1.6645345261390303	 0.17200246551942716	 
6.5	 -1.7209643419987644	 -0.046764165232633846	 
6.5	 -1.780522947704749	 -0.2698826028782632	 
6.5	 -1.813180363425392	 -0.48412647606625425	 
6.5	 -1.784611497740825	 -0.6756000487905955	 
6.5	 -1.6660770146937511	 -0.8307055205077374	 
6.5	 -1.4762524922150437	 -0.9383741280427572	 
6.5	 -1.2577269077297162	 -0.9888126115586537	 
6.5	 -1.0463098888694908	 -0.9807038008676657	 
6.5	 -0.8414824965777069	 -0.9569054520144742	 
6.5	 -0.6334922954777418	 -0.9588146160332962	 
6.5	 -0.4256273613147266	 -0.9480297911512436	 
6.5	 -0.22192557570302965	 -0.9045983512584861	 
6.5	 -0.014150449704069748	 -0.8807339635684237	 
6.5	 0.18008978721535818	 -0.9501728070628802	 
7.0	 -0.2105050394399002	 -1.1937819105961962	 
7.0	 -0.011640103879411303	 -1.0736904046083375	 
7.0	 0.18103009326515376	 -1.0632759772239113	 
7.0	 0.3692377466239622	 -1.119399847460726	 
7.0	 0.5547150508271812	 -1.198923234336588	 
7.0	 0.7391942005049779	 -1.258707356869305	 
7.0	 0.924178400966549	 -1.2585679023042182	 
7.0	 1.1079860012470903	 -1.1994122412496246	 
7.0	 1.286601200263697	 -1.1122528113551717	 
7.0	 1.455265927287654	 -1.0178834072039047	 
7.0	 1.6071049628371323	 -0.9035571084505504	 
7.0	 1.732605764078407	 -0.7553714016687012	 
7.0	 1.8125334545589247	 -0.5824059159351298	 
7.0	 1.8345266973434768	 -0.3973448446514134	 
7.0	 1.8121769077499903	 -0.20562072302649073	 
7.0	 1.7634529457695074	 -0.011442930067476695	 
7.0	 1.705835566326776	 0.18095910269754656	 
7.0	 1.643291610817944	 0.36680075992224737	 
7.0	 1.5648659522912376	 0.540684396189794	 
7.0	 1.4588328802486845	 0.6971807086723072	 
7.0	 1.3161483633432702	 0.8291973206437004	 
7.0	 1.1441590327944486	 0.9194769991239694	 
7.0	 0.9562385686480743	 0.9498825979520364	 
7.0	 0.7636344039189454	 0.940891853512019	 
7.0	 0.5740941280069841	 0.9357725329078764	 
7.0	 0.3773341487453197	 0.9392686374555013	 
7.0	 0.1825230286033967	 0.9683393947446646	 
7.0	 0.03979755558158817	 1.0854772064867746	 
7.0	 -0.08640336184166593	 1.2302612095834897	 
7.0	 -0.2734186730897127	 1.2694496121121293	 
7.0	 -0.46433375718114556	 1.2652339555929515	 
7.0	 -0.6551317668880985	 1.3001761883509664	 
7.0	 -0.838431969148241	 1.279674392790319	 
7.0	 -1.0234306128393844	 1.2194176599006288	 
7.0	 -1.2048801224588008	 1.1761176853823665	 
7.0	 -1.3414838459913812	 1.0537813163104286	 
7.0	 -1.4334753903211301	 0.8712927468815755	 
7.0	 -1.4859926276632658	 0.6616823345723022	 
7.0	 -1.5043161936291027	 0.45669348535724424	 
7.0	 -1.4961925081984555	 0.265841604315812	 
7.0	 -1.471450266256167	 0.07987127088487445	 
7.0	 -1.439824468588203	 -0.11091519953122927	 
7.0	 -1.3977749276689986	 -0.30394306801330667	 
7.0	 -1.3186927653636462	 -0.4753114393235315	 
7.0	 -1.180805547189372	 -0.6032987777087873	 
7.0	 -1.0054676036126142	 -0.6922571956761132	 
7.0	 -0.8293555366180004	 -0.7686113562250692	 
7.0	 -0.6817362423138499	 -0.8821069236438426	 
7.0	 -0.5473324142806402	 -1.0321199569529338	 
7.0	 -0.3847681545291667	 -1.1213088035370662	 
7.5	 0.486525958192787	 -1.172917971751452	 
7.5	 0.6684013320202961	 -1.165870359569398	 
7.5	 0.8685098164680067	 -1.1277089254274102	 
7.5	 1.0674330749157162	 -1.0571747110507823	 
7.5	 1.2457527707432223	 -0.9530087581648089	 
7.5	 1.3840505673303218	 -0.8139521084947838	 
7.5	 1.4655568045589737	 -0.6398925217865992	 
7.5	 1.5019650076090936	 -0.44304060939831197	 
7.5	 1.5212012069386671	 -0.2424424464609592	 
7.5	 1.5321429950672933	 -0.04547191325300641	 
7.5	 1.5270564350851716	 0.15063812943534902	 
7.5	 1.4976842730307518	 0.3488213217188993	 
7.5	 1.436805913032072	 0.5431696573845869	 
7.5	 1.3387408643296268	 0.7146395893415584	 
7.5	 1.199097667718486	 0.8452240710994948	 
7.5	 1.027049477001543	 0.9414158398004919	 
7.5	 0.8405362514580683	 1.0255417924831969	 
7.5	 0.6537113518476649	 1.1056560126379724	 
7.5	 0.4658127099192027	 1.1350779589909115	 
7.5	 0.2694114966563171	 1.0978241079944557	 
7.5	 0.0637266830649242	 1.0707501379827187	 
7.5	 -0.10442602685494208	 1.1544914735956942	 
7.5	 -0.22746196950836953	 1.3362622952586918	 
7.5	 -0.3573055955263371	 1.4668851258088877	 
7.5	 -0.5365202668986041	 1.4382878166990232	 
7.5	 -0.7409147442545615	 1.3984260851227837	 
7.5	 -0.9353242245475777	 1.4574246907497508	 
7.5	 -1.1109142534228416	 1.4445551767969156	 
7.5	 -1.268801856506583	 1.3105332562370076	 
7.5	 -1.414858169108353	 1.1413615225779654	 
7.5	 -1.5485209462638962	 0.9738299431681182	 
7.5	 -1.6644875714752554	 0.8061980446757484	 
7.5	 -1.7573516407345782	 0.6358817535439508	 
7.5	 -1.8217067500340143	 0.4602969962158214	 
7.5	 -1.8521619303122414	 0.2768718322224105	 
7.5	 -1.8461542091476262	 0.08525734997918814	 
7.5	 -1.807224912688498	 -0.11009690093695995	 
7.5	 -1.7397104046964313	 -0.3041164085451504	 
7.5	 -1.6477626633135278	 -0.4913248703276869	 
7.5	 -1.525282415843384	 -0.6439077147134528	 
7.5	 -1.3568861713219094	 -0.7153152186875701	 
7.5	 -1.156208379359699	 -0.7295924784242417	 
7.5	 -0.9461881885429342	 -0.7333215491046643	 
7.5	 -0.7497385436791005	 -0.7730299925564869	 
7.5	 -0.5756578362165906	 -0.8654718925553724	 
7.5	 -0.39690845402669983	 -0.9510727982335366	 
7.5	 -0.2027040242686095	 -0.988457523600354	 
7.5	 -0.006293666935698998	 -0.9860132089305621	 
7.5	 0.19319869670842676	 -0.9870812402500173	 
7.5	 0.4025190786627951	 -1.0174126455432764	 
8.0	 0.25102775211209816	 -1.0863489989880428	 
8.0	 0.4053811907425621	 -1.035818761705198	 
8.0	 0.6052285848199201	 -1.028608474730195	 
8.0	 0.8306324723890257	 -1.0430695078672647	 
8.0	 1.061655391494731	 -1.057553230920636	 
8.0	 1.27835988018189	 -1.0504110136945395	 
8.0	 1.460808476495355	 -0.9999942259932053	 
8.0	 1.5894874441153684	 -0.8851798070330091	 
8.0	 1.663171284908606	 -0.7075285692494081	 
8.0	 1.705498976687861	 -0.49944205529313707	 
8.0	 1.7405197028836292	 -0.2938283987106172	 
8.0	 1.7728124461906134	 -0.09941436551925638	 
8.0	 1.7924616368843287	 0.09307504948167443	 
8.0	 1.7892166180121551	 0.29329634540042476	 
8.0	 1.7547660251493424	 0.5019889516814321	 
8.0	 1.6850081112293718	 0.700536037327797	 
8.0	 1.576392985834611	 0.8677832768120978	 
8.0	 1.4254816914690862	 0.9827745643837663	 
8.0	 1.2379088620414083	 1.0407668826756304	 
8.0	 1.0349739626743537	 1.0650078171217454	 
8.0	 0.8362462899558101	 1.078800669916014	 
8.0	 0.6420493967452826	 1.0895047570553422	 
8.0	 0.4457171058954535	 1.098688807260699	 
8.0	 0.24109166801576076	 1.1085647897171138	 
8.0	 0.041989105024103246	 1.1464482657221944	 
8.0	 -0.1127443186300604	 1.270514103771322	 
8.0	 -0.22868751715638616	 1.449177167430434	 
8.0	 -0.3798670307204845	 1.515985902282829	 
8.0	 -0.5847552804792148	 1.4750424583263997	 
8.0	 -0.7841221162688743	 1.4781421510716828	 
8.0	 -0.9350329206966441	 1.3853760437022833	 
8.0	 -1.0465053907076096	 1.2023331893965017	 
8.0	 -1.1432588352661233	 1.0083560691425846	 
8.0	 -1.2375023068569715	 0.8353491566648998	 
8.0	 -1.329197677828984	 0.6687948453603499	 
8.0	 -1.416103268421544	 0.49620400652778796	 
8.0	 -1.4917513628095813	 0.3149912815198184	 
8.0	 -1.5490255394259844	 0.124091561967017	 
8.0	 -1.5808093767036426	 -0.07756026050003727	 
8.0	 -1.5799666791458404	 -0.29088670985658155	 
8.0	 -1.5373593634958573	 -0.5023752453627803	 
8.0	 -1.4401556112566631	 -0.6718788124467177	 
8.0	 -1.2777840409888555	 -0.7607046725372923	 
8.0	 -1.0747486045517467	 -0.7872485950905749	 
8.0	 -0.8740112128564356	 -0.8040256246061751	 
8.0	 -0.6802321917437575	 -0.8262553106140926	 
8.0	 -0.48501199291011715	 -0.8523408453114164	 
8.0	 -0.28725416402362675	 -0.8733763720768953	 
8.0	 -0.09823889998349335	 -0.9300074765018661	 
8.0	 0.09094907444481978	 -0.9753860565466966	 
8.5	 0.035950241061489696	 -1.130420536692958	 
8.5	 0.203484284608632	 -1.0499800648456823	 
8.5	 0.41067354212269663	 -1.0646738788904193	 
8.5	 0.6388559117624637	 -1.1349894033161614	 
8.5	 0.8693692916867122	 -1.2214140626118994	 
8.5	 1.0835515800542226	 -1.2844352812666262	 
8.5	 1.2627406750237733	 -1.2845404837693317	 
8.5	 1.3891168642725922	 -1.1839452112817856	 
8.5	 1.469675679210072	 -0.9957721393655816	 
8.5	 1.5391618726269956	 -0.7902688902886869	 
8.5	 1.6110846865685768	 -0.602709820859144	 
8.5	 1.6680074438222101	 -0.41654684635128647	 
8.5	 1.6965083077405787	 -0.21911711097819514	 
8.5	 1.6975822657680353	 -0.015331203949286491	 
8.5	 1.6742575987673272	 0.18742179443655738	 
8.5	 1.6292598231452524	 0.38219940503577693	 
8.5	 1.5610322294918104	 0.5683757653338574	 
8.5	 1.464844062028297	 0.7500069784415546	 
8.5	 1.3370939235569215	 0.9236665420097193	 
8.5	 1.1792946085755285	 1.0536815329868994	 
8.5	 0.9945626063822823	 1.096756274284755	 
8.5	 0.7963335644286362	 1.0488071224908164	 
8.5	 0.6089978296553984	 0.9598750763534991	 
8.5	 0.4190982439106097	 0.9036349366441242	 
8.5	 0.215198953300459	 0.9508299724299271	 
8.5	 0.08624736432006536	 1.1128925890541035	 
8.5	 0.04540735439793185	 1.331170574247878	 
8.5	 -0.06373789891052874	 1.4479382310141238	 
8.5	 -0.27902716929203036	 1.4226438443863578	 
8.5	 -0.4796330544019449	 1.3782054750193216	 
8.5	 -0.6707575109601485	 1.3523161551889218	 
8.5	 -0.8760678776866688	 1.3664343999676942	 
8.5	 -1.0598132226670631	 1.3298028335605294	 
8.5	 -1.1742399135692738	 1.1523931249172805	 
8.5	 -1.273890939610344	 0.9667855191235986	 
8.5	 -1.3626672831080027	 0.7853059582780096	 
8.5	 -1.43748577473352	 0.6039949357870453	 
8.5	 -1.4952632451581684	 0.41889294505723496	 
8.5	 -1.5329108913899805	 0.22627701429428115	 
8.5	 -1.54724867149746	 0.026254926812758442	 
8.5	 -1.5350175957642889	 -0.17795182431698653	 
8.5	 -1.4898822367995552	 -0.3779669550516909	 
8.5	 -1.3972302718425094	 -0.5517598033428175	 
8.5	 -1.2525293150396064	 -0.6868625829690062	 
8.5	 -1.0803225436765764	 -0.8008451968880685	 
8.5	 -0.8998630416465024	 -0.8925349762052169	 
8.5	 -0.7029567355294941	 -0.9042593806653668	 
8.5	 -0.5026026433852299	 -0.91040635242923	 
8.5	 -0.31111213797705567	 -0.9737987123935251	 
8.5	 -0.11548908225588884	 -0.9976854530394854	 
9.0	 0.4347531571685614	 -1.3713408098780326	 
9.0	 0.5999032310760001	 -1.348923914817891	 
9.0	 0.8074582285375298	 -1.3424658420581277	 
9.0	 1.035458202856247	 -1.335544321349409	 
9.0	 1.261943207335246	 -1.3117370824423962	 
9.0	 1.4649532952776232	 -1.2546218550877546	 
9.0	 1.6225285199864734	 -1.1477763690361473	 
9.0	 1.7165578645763553	 -0.9792162409356275	 
9.0	 1.761663624070057	 -0.7746922198350186	 
9.0	 1.7799008046206364	 -0.5670512815547357	 
9.0	 1.7730728122146255	 -0.36250439394686823	 
9.0	 1.7402281800944435	 -0.1636419781907576	 
9.0	 1.6804154415025083	 0.026945544534256155	 
9.0	 1.5939925464784868	 0.20745122210290215	 
9.0	 1.4872314959491537	 0.37960668220954974	 
9.0	 1.3669560890086563	 0.5449659726880668	 
9.0	 1.225230051718969	 0.6895429043102909	 
9.0	 1.0437997777236714	 0.7883278048049517	 
9.0	 0.8338279464488904	 0.8080650168764076	 
9.0	 0.668863054685439	 0.7041951909070971	 
9.0	 0.5110832579717972	 0.5795487550607	 
9.0	 0.3183413506214457	 0.6135938857712091	 
9.0	 0.21316765614211614	 0.7834369900978295	 
9.0	 0.11499906069884627	 0.9705044884384569	 
9.0	 -0.04793211612761042	 1.089200613515475	 
9.0	 -0.23086070897567784	 1.1776393167287613	 
9.0	 -0.421908663971725	 1.2382629966963303	 
9.0	 -0.6228535116746291	 1.2578456908802294	 
9.0	 -0.8239740745482274	 1.2552600672713345	 
9.0	 -1.0245824830074541	 1.2568172409622227	 
9.0	 -1.2226251376287174	 1.2179450303992443	 
9.0	 -1.3598004204709992	 1.069385544569206	 
9.0	 -1.4882569677280693	 0.9188275422694613	 
9.0	 -1.5738298257056984	 0.7419296350597254	 
9.0	 -1.6200678202008503	 0.5437542207113015	 
9.0	 -1.63329275056744	 0.33211367637147593	 
9.0	 -1.6198264161593834	 0.11482037918753665	 
9.0	 -1.5859906163305955	 -0.10031329369323261	 
9.0	 -1.5365942014019243	 -0.3046703710163985	 
9.0	 -1.4267746227150138	 -0.46377477469579975	 
9.0	 -1.2479046715718791	 -0.5699812192838245	 
9.0	 -1.0614784652140885	 -0.6592598063944434	 
9.0	 -0.8856184180096044	 -0.7527648795114613	 
9.0	 -0.7138786951529245	 -0.8624479325093336	 
9.0	 -0.5396627187804061	 -0.9779937987811949	 
9.0	 -0.35649894372980856	 -1.0600582382157844	 
9.0	 -0.15888008304551796	 -1.0733949414579522	 
9.0	 0.04046309869542146	 -1.0973268999360222	 
9.0	 0.2418206590697432	 -1.106004265195033	 
9.0	 0.4242985480267757	 -1.1730180741148497	 
9.5	 0.4692674335335677	 -1.0783292798650217	 
9.5	 0.7100319525299154	 -1.2811538677044765	 
9.5	 0.9131589251877991	 -1.364958813912075	 
9.5	 1.0852394056690031	 -1.3527107882484586	 
9.5	 1.2328644481353137	 -1.2673764604742699	 
9.5	 1.3626251067485142	 -1.1319225003501496	 
9.5	 1.4811124356703915	 -0.9693155776367408	 
9.5	 1.5930258459286315	 -0.8002833378860369	 
9.5	 1.688241024297735	 -0.628007475795492	 
9.5	 1.7496456803562608	 -0.4473976736087619	 
9.5	 1.7657297767973317	 -0.25575504470498356	 
9.5	 1.7438588929319085	 -0.05854209156979822	 
9.5	 1.6953399166669796	 0.13707456906091314	 
9.5	 1.6290488789478075	 0.325064612629784	 
9.5	 1.5458233061512245	 0.5031552741610572	 
9.5	 1.444841389831026	 0.6698494366132808	 
9.5	 1.3252922615032527	 0.8236434823083195	 
9.5	 1.1873151078935382	 0.9624692611127827	 
9.5	 1.032721430610553	 1.083265304354069	 
9.5	 0.8638000980908509	 1.183289707248069	 
9.5	 0.6837684769274994	 1.261070964938978	 
9.5	 0.4960098402510048	 1.3155897542165187	 
9.5	 0.3037026740115999	 1.3508329422277818	 
9.5	 0.1097491990264319	 1.3756511513858922	 
9.5	 -0.08465866158171344	 1.3942120701613967	 
9.5	 -0.28000686706304156	 1.405062386640938	 
9.5	 -0.4749045470485665	 1.3947598239908032	 
9.5	 -0.6685186816932996	 1.3672549793443698	 
9.5	 -0.8639390100543118	 1.3697256172429733	 
9.5	 -1.0593920308529505	 1.3706970544403474	 
9.5	 -1.2458013164319615	 1.3064956326416326	 
9.5	 -1.381562165084813	 1.1750500552521574	 
9.5	 -1.4517844579999666	 0.998226789782772	 
9.5	 -1.4780487040627948	 0.7946887694494894	 
9.5	 -1.48313543901765	 0.5829894399252509	 
9.5	 -1.487026019981055	 0.38018813784004474	 
9.5	 -1.4832107762521833	 0.18920390609607893	 
9.5	 -1.4559476179645576	 0.004904174742946823	 
9.5	 -1.4080689972991287	 -0.1788308245620437	 
9.5	 -1.3464903014941847	 -0.3683183623649561	 
9.5	 -1.2780263546573778	 -0.5696905285210905	 
9.5	 -1.183355142552957	 -0.740950066194805	 
9.5	 -1.0048953327167853	 -0.7696388483604563	 
9.5	 -0.7958867687736166	 -0.7472687094461721	 
9.5	 -0.6032623590324564	 -0.7496743448060967	 
9.5	 -0.408219386452287	 -0.7410166314195139	 
9.5	 -0.21196213607589373	 -0.7587909278166854	 
9.5	 -0.04085730447580151	 -0.8551867172439181	 
9.5	 0.0989977873570705	 -0.9769029447762216	 
9.5	 0.2984061983263742	 -0.9843246127560349	 
10.0	 0.45496475009288323	 -1.124588745308662	 
10.0	 0.6363471589601597	 -1.125235951699986	 
10.0	 0.8336102563034099	 -1.1065621178235239	 
10.0	 1.0354095042826386	 -1.0655584841134873	 
10.0	 1.2304003650578488	 -0.999216291004088	 
10.0	 1.4072383007890443	 -0.9045267789295369	 
10.0	 1.55457877363623	 -0.778481188324047	 
10.0	 1.6622379584106803	 -0.6190781672668016	 
10.0	 1.7310565267729956	 -0.4338847633851605	 
10.0	 1.7679676476401442	 -0.23575583460674784	 
10.0	 1.7793062962954371	 -0.03682969793787717	 
10.0	 1.7649556337365226	 0.15827730856626285	 
10.0	 1.721161425304168	 0.3491895785821373	 
10.0	 1.6441285679004496	 0.5355791530869567	 
10.0	 1.5306237570203418	 0.7150449016599258	 
10.0	 1.3836767030155785	 0.8620736686270575	 
10.0	 1.2102340980648432	 0.9366976969807804	 
10.0	 1.018387531253938	 0.9191346695669884	 
10.0	 0.8217664822875147	 0.8937633899219942	 
10.0	 0.6365244038406981	 0.954590209550959	 
10.0	 0.48004700839187286	 1.071983917329399	 
10.0	 0.3454422621582638	 1.2124856884510695	 
10.0	 0.21251921462835693	 1.3631477416888138	 
10.0	 0.06654202657889127	 1.507087872650941	 
10.0	 -0.09642797159209872	 1.6194551850682302	 
10.0	 -0.279046900626334	 1.6745556319497346	 
10.0	 -0.4755632021004233	 1.659963719491114	 
10.0	 -0.6624197967474392	 1.592038192562533	 
10.0	 -0.8292878499991322	 1.4895921669953944	 
10.0	 -0.9848185699205562	 1.369647487896083	 
10.0	 -1.1312322908781587	 1.239352561764963	 
10.0	 -1.2591958350282602	 1.0910331499874728	 
10.0	 -1.361924495070248	 0.9220562374531922	 
10.0	 -1.4372091983223456	 0.7379570932166991	 
10.0	 -1.4831449614608012	 0.5448138374329804	 
10.0	 -1.498629214009964	 0.34838960229596644	 
10.0	 -1.4882125969441682	 0.1522283462260523	 
10.0	 -1.4588681299965502	 -0.04108414061835689	 
10.0	 -1.4155831202350706	 -0.2302848476757443	 
10.0	 -1.3585971971047859	 -0.4172497682677119	 
10.0	 -1.2873978588344712	 -0.60422598878016	 
10.0	 -1.1892709370710624	 -0.776348303725124	 
10.0	 -1.0297396474878255	 -0.8841471997682618	 
10.0	 -0.833302362422419	 -0.9121784648279906	 
10.0	 -0.6394891191454964	 -0.9131538639271666	 
10.0	 -0.4474750057691239	 -0.9320518082330204	 
10.0	 -0.24736805556840186	 -0.9122308803486157	 
10.0	 -0.04445546503095311	 -0.8501299777225854	 
10.0	 0.11348270097658233	 -0.9437826254792938	 
10.0	 0.3039549091279994	 -0.9989021470025189	 
10.5	 0.72468882504909	 -1.1624219874206614	 
10.5	 1.0249631819201463	 -1.2332850563135154	 
10.5	 1.247938453584227	 -1.2191932963478624	 
10.5	 1.4058081041958226	 -1.134078058415752	 
10.5	 1.5107655979094257	 -0.9918706934092303	 
10.5	 1.5750043988795268	 -0.8065025522203456	 
10.5	 1.6107179712606174	 -0.591904985741146	 
10.5	 1.630099779207189	 -0.36200934486367836	 
10.5	 1.6453432868737328	 -0.1307469804799913	 
10.5	 1.668380084618845	 0.08824477842783349	 
10.5	 1.6972964967912538	 0.2968735394846445	 
10.5	 1.7099167567020426	 0.5192417393389448	 
10.5	 1.688565379784993	 0.7562855375579285	 
10.5	 1.6229334156738544	 0.9789612765619905	 
10.5	 1.5031466509340843	 1.156456036135137	 
10.5	 1.3199214759801234	 1.2581005779021488	 
10.5	 1.0993408569010357	 1.2618296282325743	 
10.5	 0.9173421638226397	 1.1615959157522358	 
10.5	 0.7826631224799581	 0.9918055447966676	 
10.5	 0.6495773737576905	 0.8166375282204879	 
10.5	 0.47249845135745844	 0.701358501988859	 
10.5	 0.2592449863440631	 0.7117808278170021	 
10.5	 0.07622717613197556	 0.8377564961596781	 
10.5	 -0.07368402537098157	 0.9845971053371179	 
10.5	 -0.2746049553312181	 1.0621385282027596	 
10.5	 -0.43879821896250315	 1.1992207117530502	 
10.5	 -0.6141941379423348	 1.3161718763423196	 
10.5	 -0.8208308270685497	 1.393016825034517	 
10.5	 -1.03834889278087	 1.432786173012965	 
10.5	 -1.2338864169552761	 1.384902714077614	 
10.5	 -1.3858157164463072	 1.2352030846627176	 
10.5	 -1.4903043686598931	 1.0290334367123972	 
10.5	 -1.5459620622255241	 0.8132557524500165	 
10.5	 -1.5623794390309818	 0.6021902540514733	 
10.5	 -1.5552949030637806	 0.3910458968152807	 
10.5	 -1.534112856200021	 0.17848595559416397	 
10.5	 -1.5028381696166178	 -0.03370668959885835	 
10.5	 -1.4650591592128943	 -0.24377927511448855	 
10.5	 -1.4203348506023703	 -0.45204254486801587	 
10.5	 -1.3645389839428912	 -0.660121138422358	 
10.5	 -1.2783468224886085	 -0.8566004134775458	 
10.5	 -1.1262449002500536	 -1.0123676291055483	 
10.5	 -0.9270502898036646	 -1.0737677713748235	 
10.5	 -0.7231678165797223	 -1.0196078349003586	 
10.5	 -0.5025710731352518	 -0.9402887852746323	 
10.5	 -0.27085063535353215	 -0.9010004045447754	 
10.5	 -0.05535686823472257	 -0.9322398743080554	 
10.5	 0.11640461949557815	 -1.0619867340710178	 
10.5	 0.3071933564008005	 -1.1146552916261767	 
10.5	 0.5088483532190627	 -1.1726732686552446	 
11.0	 0.5593194238489821	 -1.1185743831025137	 
11.0	 0.8032165759605029	 -1.2474906102701404	 
11.0	 0.9898179873888777	 -1.2165128172406312	 
11.0	 1.1339798862335586	 -1.0741235850818316	 
11.0	 1.250558500593998	 -0.8688054948615848	 
11.0	 1.3543271530456202	 -0.6488201788805303	 
11.0	 1.4525507268566824	 -0.4424187764350347	 
11.0	 1.5391031475863957	 -0.24216462878579448	 
11.0	 1.6064970337033242	 -0.036988425392397856	 
11.0	 1.649322664530668	 0.17906417386015122	 
11.0	 1.6658716963461115	 0.40283512983916825	 
11.0	 1.6548178987402542	 0.630225682846163	 
11.0	 1.614835041303697	 0.8571370731826468	 
11.0	 1.5445634816077454	 1.0794067841943662	 
11.0	 1.4376337167349766	 1.2833124623686238	 
11.0	 1.2773772664914682	 1.4354792024313145	 
11.0	 1.057809845853252	 1.5053383880785574	 
11.0	 0.8242776560793985	 1.4847570643870456	 
11.0	 0.6343431345384805	 1.3723091941782999	 
11.0	 0.506947218464089	 1.1834958389128285	 
11.0	 0.41077816545568324	 0.964176552153972	 
11.0	 0.2718604434274148	 0.812687478676444	 
11.0	 0.050026708920823566	 0.8047046009529057	 
11.0	 -0.17425315044644304	 0.9182024448546486	 
11.0	 -0.30995369435607484	 1.1129082322925636	 
11.0	 -0.3841954063679861	 1.3279469403837685	 
11.0	 -0.5006226242674233	 1.4897041398238762	 
11.0	 -0.7026338616286616	 1.56090723559171	 
11.0	 -0.9502091041164533	 1.5538027196008675	 
11.0	 -1.1974025537591213	 1.4841551416648269	 
11.0	 -1.4054142032514882	 1.3662440560999523	 
11.0	 -1.5597261210874729	 1.2093028613939305	 
11.0	 -1.6519190888027084	 1.0214606764066445	 
11.0	 -1.6897302893581865	 0.8102757024695072	 
11.0	 -1.6944468345827601	 0.5828273281080054	 
11.0	 -1.6877752182013177	 0.3461801221814603	 
11.0	 -1.6890512523366799	 0.10748258321764227	 
11.0	 -1.6881234233559288	 -0.1250728451422014	 
11.0	 -1.6548586549167972	 -0.34258630838738524	 
11.0	 -1.5588003283882872	 -0.5360809344632037	 
11.0	 -1.386773359278176	 -0.6767963497718608	 
11.0	 -1.1675738554568305	 -0.7161986195686632	 
11.0	 -0.9367367531758231	 -0.6650639714262756	 
11.0	 -0.7243233234745362	 -0.5695908272985847	 
11.0	 -0.5328400567790574	 -0.5905230975319868	 
11.0	 -0.357416098001197	 -0.7547997739617047	 
11.0	 -0.19209860194422096	 -0.9609885006697828	 
11.0	 -0.013759056868060799	 -0.9934146790756397	 
11.0	 0.19599044996570072	 -0.9092288633765411	 
11.0	 0.4151356113399139	 -0.918505588407824	 
11.5	 0.2721348045313657	 -1.1413118537645641	 
11.5	 0.4977829317621661	 -1.1258115055239903	 
11.5	 0.6954329318395953	 -1.0226083907310517	 
11.5	 0.8933451967719257	 -0.9259066778460336	 
11.5	 1.1113572218977037	 -0.89838649741504	 
11.5	 1.3238359160175823	 -0.8377445542717651	 
11.5	 1.4932105729120289	 -0.6914596311684374	 
11.5	 1.59501480232944	 -0.4958339930479316	 
11.5	 1.640355911534712	 -0.2735997519817102	 
11.5	 1.6481256113482845	 -0.04382320982853079	 
11.5	 1.6370447597842088	 0.17514954178740658	 
11.5	 1.6212482788645584	 0.38430389374023494	 
11.5	 1.6098878724254222	 0.6056314165185104	 
11.5	 1.6107825774938898	 0.8605190196167901	 
11.5	 1.6015018139348902	 1.1239377616881638	 
11.5	 1.5260494875846868	 1.3193548465031963	 
11.5	 1.3352588758814496	 1.3709652376109955	 
11.5	 1.142414910646517	 1.2697101571848195	 
11.5	 1.04653746722873	 1.0747482187965165	 
11.5	 0.9487904908645743	 0.8568956640596631	 
11.5	 0.7775488310980948	 0.709223536531005	 
11.5	 0.570643883328632	 0.7533965751907392	 
11.5	 0.40643114714988177	 0.9223072632575798	 
11.5	 0.29191149216071693	 1.118929958167737	 
11.5	 0.17138977615438666	 1.2878781343009775	 
11.5	 0.0012902414837334796	 1.3954127099615916	 
11.5	 -0.20337587827739018	 1.4964180206008983	 
11.5	 -0.4106118620439118	 1.650721527645696	 
11.5	 -0.5718439374095026	 1.6643479143438276	 
11.5	 -0.6658434648158572	 1.436421124873125	 
11.5	 -0.7285884768397789	 1.219350256203661	 
11.5	 -0.7858303720732092	 1.0088943113213673	 
11.5	 -0.8673482144651835	 0.7879615746430384	 
11.5	 -1.0169067850016429	 0.6459763024205081	 
11.5	 -1.2386688268290837	 0.6088734202988278	 
11.5	 -1.447766077357245	 0.5405925844745717	 
11.5	 -1.5730724090115553	 0.35711633564992973	 
11.5	 -1.620682044302298	 0.15242474033080186	 
11.5	 -1.6207187960474503	 -0.059159876674388066	 
11.5	 -1.605510228033791	 -0.28790280786560474	 
11.5	 -1.6047514743989788	 -0.5414500788292945	 
11.5	 -1.5380312456144347	 -0.7179338391103744	 
11.5	 -1.303454314514343	 -0.7021560770111395	 
11.5	 -1.049700225472852	 -0.6544775189059588	 
11.5	 -0.8825557264782949	 -0.7348994498743671	 
11.5	 -0.7845497318365917	 -0.9405361864494535	 
11.5	 -0.5810225121281777	 -1.0073761258945888	 
11.5	 -0.35522279452245237	 -0.9599570392954482	 
11.5	 -0.14606446922094374	 -1.010850649821638	 
11.5	 0.05697905729047835	 -1.1035701659269246	 
12.0	 0.3395579301920128	 -1.131822154735058	 
12.0	 0.543242783863294	 -1.0796731786421512	 
12.0	 0.7446136578674499	 -1.0146086184649645	 
12.0	 0.9386248491998967	 -0.9308957829594321	 
12.0	 1.120230654856051	 -0.8228019808814879	 
12.0	 1.2838830124663805	 -0.6848561295829896	 
12.0	 1.4142805096016442	 -0.5166662996926977	 
12.0	 1.4890334296692902	 -0.3227236913114656	 
12.0	 1.5158003911062372	 -0.11245441453045	 
12.0	 1.5278838355169657	 0.10068926407581999	 
12.0	 1.5508562738110752	 0.3067389319156242	 
12.0	 1.5775606870434116	 0.5095706468138154	 
12.0	 1.5929957666002208	 0.7163785721940112	 
12.0	 1.5821602038677487	 0.9343568714798305	 
12.0	 1.5300972137603794	 1.1676245387152262	 
12.0	 1.4227051592382576	 1.3612368505058112	 
12.0	 1.2489175630088347	 1.4109862001242164	 
12.0	 1.0487048778931372	 1.3001049480981632	 
12.0	 0.8946744043359179	 1.1032881708134854	 
12.0	 0.7709423854397206	 0.9150511109017477	 
12.0	 0.6328395128633536	 0.8349613178211879	 
12.0	 0.45349129686227574	 0.9115039383347905	 
12.0	 0.25722147809676427	 1.0462881436717424	 
12.0	 0.07441136338459486	 1.1562247000352264	 
12.0	 -0.07721336662948584	 1.2966338908189958	 
12.0	 -0.2106194059483791	 1.4707636486538354	 
12.0	 -0.36026150821586433	 1.6187659202283768	 
12.0	 -0.5566209523233326	 1.6822011293762735	 
12.0	 -0.768510410099358	 1.6433532125293713	 
12.0	 -0.9395932992643757	 1.5184740349727457	 
12.0	 -1.0630482900126987	 1.3359489662233324	 
12.0	 -1.140085518651148	 1.1259873138570728	 
12.0	 -1.1800335254736056	 0.9151524424994377	 
12.0	 -1.2262949851999614	 0.7146429258061938	 
12.0	 -1.3109573275795268	 0.5274674841029227	 
12.0	 -1.4207495607455916	 0.34735621499775793	 
12.0	 -1.5362542629534959	 0.16678189200677784	 
12.0	 -1.6380540124585825	 -0.021782711353942524	 
12.0	 -1.7067313875161902	 -0.225864821568325	 
12.0	 -1.7071112471180006	 -0.43662684076598296	 
12.0	 -1.574193860769829	 -0.5939406733944138	 
12.0	 -1.369996318618141	 -0.6903288889735756	 
12.0	 -1.1659785109136074	 -0.7442818212344808	 
12.0	 -0.9634400140555744	 -0.795582601889428	 
12.0	 -0.7606212862339087	 -0.8545006684498884	 
12.0	 -0.5583102720878029	 -0.9112607286968424	 
12.0	 -0.34892686967436126	 -0.9636107930056182	 
12.0	 -0.14185930632593027	 -0.9609699917492068	 
12.0	 0.06223309213981327	 -0.8906375711422245	 
12.0	 0.2572626084680232	 -0.9388842609975763	 
12.5	 0.5454330895961336	 -1.0419136478971192	 
12.5	 0.7493927360921548	 -0.9818711790745727	 
12.5	 0.93137896189534	 -0.880051018356387	 
12.5	 1.0898535325467997	 -0.7444967841868486	 
12.5	 1.2232782135876439	 -0.5832520950102434	 
12.5	 1.330156594107834	 -0.40434546558684176	 
12.5	 1.4129802797976674	 -0.2143652234083616	 
12.5	 1.4814674172145006	 -0.01728998462491227	 
12.5	 1.5456514538564219	 0.18320298763892165	 
12.5	 1.6014658642393824	 0.3842600868800017	 
12.5	 1.6289880436282593	 0.5842663783568888	 
12.5	 1.6183001651086526	 0.78550329742594	 
12.5	 1.5676850292319022	 0.9931259175178015	 
12.5	 1.4756199963130692	 1.2099460953192849	 
12.5	 1.3404639095081392	 1.3458017791159531	 
12.5	 1.16996956905271	 1.266937322063099	 
12.5	 1.0018132124390124	 1.0735914372060262	 
12.5	 0.8549994000834296	 0.9043970320135453	 
12.5	 0.7002515797621883	 0.8753945266206404	 
12.5	 0.5229981012885951	 0.9880836063791694	 
12.5	 0.3307922901747523	 1.1228485664015404	 
12.5	 0.14345062369415756	 1.2088530847357153	 
12.5	 -0.0037173638366494195	 1.3372503447399622	 
12.5	 -0.1423500265832906	 1.5028122442890464	 
12.5	 -0.31264449153196494	 1.6725836481767766	 
12.5	 -0.5017825824443696	 1.7804959646599856	 
12.5	 -0.6627870334444333	 1.7417849236646212	 
12.5	 -0.7736693391112887	 1.5538882274524621	 
12.5	 -0.8403479320014804	 1.2995029110734029	 
12.5	 -0.8851159146665124	 1.0404858743287617	 
12.5	 -0.94222752339741	 0.8189094401954821	 
12.5	 -1.0462650591044131	 0.6763032891382249	 
12.5	 -1.2296289115111365	 0.6507470908858566	 
12.5	 -1.4223575694916917	 0.6187770007557944	 
12.5	 -1.5083359226298068	 0.41819780011784247	 
12.5	 -1.5437019931331075	 0.20432861596714696	 
12.5	 -1.5725703209381208	 0.005077331975098356	 
12.5	 -1.6061528556722537	 -0.20058137093042455	 
12.5	 -1.616911245885461	 -0.41072505355791356	 
12.5	 -1.5731130868027474	 -0.6209193789105235	 
12.5	 -1.4537151909032406	 -0.8044435290113117	 
12.5	 -1.2707785928567903	 -0.8722599009443743	 
12.5	 -1.0575354058477744	 -0.8569644103817392	 
12.5	 -0.8547677305274076	 -0.9001726869124334	 
12.5	 -0.6497312302930863	 -0.942092838814125	 
12.5	 -0.4530741538116037	 -0.9980390767217765	 
12.5	 -0.2610905528818084	 -1.0742937277683415	 
12.5	 -0.051047063902756123	 -1.0760316436277908	 
12.5	 0.16100334096862082	 -1.091705325803097	 
12.5	 0.3506073506515238	 -1.0287039528237845	 
13.0	 -0.1856395226383347	 -1.423028574314327	 
13.0	 0.06861819443240326	 -1.419263433384806	 
13.0	 0.2711454451902669	 -1.3593783891674824	 
13.0	 0.4251222143152679	 -1.2474742705534276	 
13.0	 0.5337284864874184	 -1.0876519064337116	 
13.0	 0.6001442463867295	 -0.884012125699405	 
13.0	 0.6275494786932132	 -0.6406557572415791	 
13.0	 0.6244110778766954	 -0.3678741799116086	 
13.0	 0.6603581066653323	 -0.14757479654017347	 
13.0	 0.833256974647786	 -0.09526273205233243	 
13.0	 1.0492400365065035	 -0.09555850820946933	 
13.0	 1.2492192721293696	 -0.02037254256934265	 
13.0	 1.3934331679133078	 0.14039266735374858	 
13.0	 1.4705038334537466	 0.33991267370747497	 
13.0	 1.4917004172254669	 0.5550314789843791	 
13.0	 1.4767023207455767	 0.7704999604888438	 
13.0	 1.429498877380964	 0.9807321415797374	 
13.0	 1.349224062163829	 1.1811939106255824	 
13.0	 1.2230454663566372	 1.356807742315771	 
13.0	 1.0379618542501166	 1.4856292243707065	 
13.0	 0.8229290572451358	 1.53994237512467	 
13.0	 0.6223153318091665	 1.4910363275100111	 
13.0	 0.46006809033594737	 1.3341035136345023	 
13.0	 0.33513715907869046	 1.116878909161028	 
13.0	 0.22266572895137746	 0.9976412590289987	 
13.0	 0.09801511095147053	 1.0855197331464703	 
13.0	 -0.04891878507382261	 1.2900219896285274	 
13.0	 -0.2257968478119689	 1.487100197707142	 
13.0	 -0.430880496099154	 1.5702122187127903	 
13.0	 -0.6236290458666651	 1.5171791787021007	 
13.0	 -0.785794609429384	 1.3644356575903183	 
13.0	 -0.9162140541989524	 1.1660635993082888	 
13.0	 -1.0251203560423479	 0.9699880154948929	 
13.0	 -1.1542593755492199	 0.8065773170669649	 
13.0	 -1.337210403390381	 0.6927905422608003	 
13.0	 -1.4911525938834302	 0.5572837138928617	 
13.0	 -1.554534347990149	 0.35302081391221835	 
13.0	 -1.5689940628859806	 0.12168055573402634	 
13.0	 -1.5776454149628074	 -0.09691883834938153	 
13.0	 -1.5932200581709788	 -0.3075932404449353	 
13.0	 -1.6155100501891806	 -0.5298480360900948	 
13.0	 -1.6143879443259332	 -0.7551732055617539	 
13.0	 -1.5350428227408535	 -0.9519125014951373	 
13.0	 -1.3487077767436968	 -1.0754835985185485	 
13.0	 -1.159389254766998	 -1.0307129501661545	 
13.0	 -0.9787607726466035	 -0.889777844941407	 
13.0	 -0.7573881971648974	 -0.8241707361511932	 
13.0	 -0.5699668062663589	 -0.898063754953	 
13.0	 -0.4434115139801612	 -1.0778664478753808	 
13.0	 -0.3064732847235527	 -1.2452910292052866	 
13.5	 0.10018877168734912	 -1.1004234371248858	 
13.5	 0.3063511444722882	 -1.1984605517337017	 
13.5	 0.5227888142893148	 -1.2273469310620655	 
13.5	 0.7464238125462006	 -1.2229399660003626	 
13.5	 0.9715805922143435	 -1.2083620015100536	 
13.5	 1.1781357432219994	 -1.1364639503709915	 
13.5	 1.348061078246483	 -0.9852326357058605	 
13.5	 1.4711717634572246	 -0.7871423708933777	 
13.5	 1.5408409419255218	 -0.5743110973318177	 
13.5	 1.5737486550907704	 -0.3547587384887272	 
13.5	 1.5856259320188724	 -0.13112606541415983	 
13.5	 1.5886549953904088	 0.09209740288024133	 
13.5	 1.5921875539459331	 0.31170790752172317	 
13.5	 1.5902049539310614	 0.531483672446635	 
13.5	 1.5714960421385884	 0.7575616129968026	 
13.5	 1.5220313363819669	 0.9878378115454599	 
13.5	 1.4075159935242303	 1.1606751845433467	 
13.5	 1.2107822093415777	 1.2436224100174367	 
13.5	 0.9651191011868319	 1.3108016906272806	 
13.5	 0.7127214161781517	 1.3858339205726955	 
13.5	 0.501438242155671	 1.3802339037540294	 
13.5	 0.374249285880943	 1.206112187597678	 
13.5	 0.28498112705874595	 0.9752337055917167	 
13.5	 0.12270147265855082	 0.9494353064920491	 
13.5	 -0.05978064200445194	 1.1264853997393893	 
13.5	 -0.17277959109954033	 1.3345600992031972	 
13.5	 -0.2814318239937835	 1.5076666746227556	 
13.5	 -0.4525940989240787	 1.5993017021374933	 
13.5	 -0.6889057379682725	 1.64781708942404	 
13.5	 -0.9602713653576445	 1.711492513498728	 
13.5	 -1.2109918899100278	 1.754680388093868	 
13.5	 -1.3766877780468472	 1.7096881763065945	 
13.5	 -1.412344542708535	 1.5281133950903953	 
13.5	 -1.38757621322138	 1.275854791112315	 
13.5	 -1.3891751282680287	 1.0375927100942832	 
13.5	 -1.4189381198682183	 0.8189150917405789	 
13.5	 -1.4604635667020518	 0.6084744363568542	 
13.5	 -1.4974846028284574	 0.39507822450659125	 
13.5	 -1.5193456620647892	 0.1739874133486401	 
13.5	 -1.5229037004841084	 -0.05089699422247952	 
13.5	 -1.5055149217752615	 -0.27506362766324943	 
13.5	 -1.4397205999730514	 -0.4879064724210023	 
13.5	 -1.264575891877311	 -0.6406532366479507	 
13.5	 -1.0590166151132938	 -0.6101683350426093	 
13.5	 -0.8438470099355595	 -0.4547699705543593	 
13.5	 -0.6393915851640104	 -0.3551408840489408	 
13.5	 -0.4926974015978265	 -0.46725996904236583	 
13.5	 -0.32212495854538536	 -0.6180324379424614	 
13.5	 -0.16794485433395048	 -0.7722003398303969	 
13.5	 0.015005639145143648	 -0.9003381239812996	 
14.0	 0.49056311879470677	 -1.1052280425858818	 
14.0	 0.7043853616540355	 -1.2557187855439365	 
14.0	 0.9144367186909896	 -1.292318707044647	 
14.0	 1.111459378674619	 -1.2377707236195925	 
14.0	 1.2861955303739754	 -1.114817751800356	 
14.0	 1.4293873625581086	 -0.9462027081185176	 
14.0	 1.5322895243292294	 -0.7542678533477551	 
14.0	 1.5982788664603171	 -0.5518779734532622	 
14.0	 1.6430438781929464	 -0.34227227262834786	 
14.0	 1.682802231092965	 -0.1282596209908161	 
14.0	 1.72386672842233	 0.08737670246227322	 
14.0	 1.7468944641248418	 0.30191970516339883	 
14.0	 1.728443236343197	 0.5126629858593912	 
14.0	 1.649810216830092	 0.7148179648001574	 
14.0	 1.5169575550579837	 0.8927598441060951	 
14.0	 1.3438457315400536	 1.0273498693550904	 
14.0	 1.1441852556837364	 1.1042269252054662	 
14.0	 0.9302203589211714	 1.1366069205941958	 
14.0	 0.7136705143084301	 1.1475751580664433	 
14.0	 0.5035611525097101	 1.1564063702224836	 
14.0	 0.2915810086454246	 1.1577669988964439	 
14.0	 0.06512160462803185	 1.1399208677090202	 
14.0	 -0.0990384884882154	 1.2073990073304977	 
14.0	 -0.1548291350247173	 1.423217594585432	 
14.0	 -0.1951804649237398	 1.6680042836192484	 
14.0	 -0.3159071559944586	 1.8176090586160925	 
14.0	 -0.5318506251792664	 1.826844740156186	 
14.0	 -0.7689334043197138	 1.7372353334945374	 
14.0	 -0.9532150513731824	 1.5925003325933365	 
14.0	 -1.0640365268628869	 1.4108800149302092	 
14.0	 -1.1162181429556022	 1.1957751454889056	 
14.0	 -1.1763086411749868	 0.9912018771625053	 
14.0	 -1.3433430865349645	 0.8692385162934557	 
14.0	 -1.5490375592550478	 0.7817459341136962	 
14.0	 -1.6695519282383326	 0.640432971204294	 
14.0	 -1.6888151261201723	 0.43312504587075434	 
14.0	 -1.6529893216272014	 0.19160367163386005	 
14.0	 -1.608535816629219	 -0.05193948761604529	 
14.0	 -1.5695662997529634	 -0.2739111656883087	 
14.0	 -1.49676459268939	 -0.46491900954411425	 
14.0	 -1.3502757283529658	 -0.6155524635953726	 
14.0	 -1.146139966626161	 -0.6995231233604041	 
14.0	 -0.9335646783925338	 -0.6892773981462552	 
14.0	 -0.7238961387411624	 -0.6377385944769777	 
14.0	 -0.5110872681850234	 -0.6236306416263097	 
14.0	 -0.2956080444512903	 -0.652562699989458	 
14.0	 -0.10222890598125466	 -0.7348168209219454	 
14.0	 0.058442859538819815	 -0.8754834514899894	 
14.0	 0.23571464914601759	 -0.9974547833890255	 
14.0	 0.4467086811820248	 -0.9626722526104645	 
14.5	 0.4802761156877527	 -1.2033880910357744	 
14.5	 0.6651479935793103	 -1.1736069351743437	 
14.5	 0.8819378617526565	 -1.1677617265477647	 
14.5	 1.0981107641571355	 -1.1482658407116422	 
14.5	 1.2811317447420931	 -1.077532653221583	 
14.5	 1.4040946535016559	 -0.9272417453023991	 
14.5	 1.476119450273682	 -0.7283791528458597	 
14.5	 1.5161105082139485	 -0.5250612683413421	 
14.5	 1.5272452732717097	 -0.3248833495321866	 
14.5	 1.5095235487202447	 -0.12724176258219183	 
14.5	 1.4695682265669447	 0.06918364962177977	 
14.5	 1.420027601184838	 0.2663649063709526	 
14.5	 1.3737641707303343	 0.46629593781459344	 
14.5	 1.3309694986818057	 0.6666100956532807	 
14.5	 1.252032882978798	 0.8512426847489346	 
14.5	 1.104668577556581	 0.9937988628793888	 
14.5	 0.9115328951366649	 1.042347918264488	 
14.5	 0.7132489828303795	 0.9651954003004598	 
14.5	 0.5466772161679231	 0.7766099776138009	 
14.5	 0.4092917682138853	 0.6311536548033603	 
14.5	 0.2851879472406709	 0.7071272825792434	 
14.5	 0.1474328826787008	 0.8803254677688096	 
14.5	 0.0034407297563417358	 1.0153759186275666	 
14.5	 -0.10542725766294965	 1.1970807408572093	 
14.5	 -0.20875072820220514	 1.3799510315694479	 
14.5	 -0.35744462005042754	 1.4768902358002909	 
14.5	 -0.5620625310591428	 1.4858108818948317	 
14.5	 -0.7767557641818406	 1.5191439890291885	 
14.5	 -0.9759383389445929	 1.5698170298302117	 
14.5	 -1.1549944958104386	 1.5235462508295348	 
14.5	 -1.2996913313808551	 1.3691888078646666	 
14.5	 -1.3936687270117767	 1.1852607518382894	 
14.5	 -1.4466326488180907	 0.9896095655632903	 
14.5	 -1.47340217444653	 0.7874121026156194	 
14.5	 -1.4886187204219106	 0.5837853013852776	 
14.5	 -1.5001134847601028	 0.38154939345371147	 
14.5	 -1.5069262949660038	 0.18055977153816033	 
14.5	 -1.5079867692444728	 -0.02055966458997849	 
14.5	 -1.5031884132317312	 -0.22729278290499885	 
14.5	 -1.4754689940094008	 -0.43127901929907747	 
14.5	 -1.3962562551425788	 -0.6140174260157109	 
14.5	 -1.2519692657549781	 -0.7577232547257419	 
14.5	 -1.069976299178951	 -0.8480941250313003	 
14.5	 -0.8725844718193583	 -0.8930418788210466	 
14.5	 -0.6706981669707442	 -0.9209883599600869	 
14.5	 -0.47183347811055326	 -0.9553729605695255	 
14.5	 -0.27608934982296346	 -1.002895556115559	 
14.5	 -0.08099572018564258	 -1.0585089683144207	 
14.5	 0.11248080613155707	 -1.122193603013482	 
14.5	 0.2876625320418995	 -1.2227224741216	 
15.0	 0.23245933113405237	 -0.977352797320271	 
15.0	 0.5965915809972474	 -0.709914151451189	 
15.0	 0.7788141585467735	 -0.8701617723441596	 
15.0	 0.8847200777119416	 -1.1700532328658424	 
15.0	 1.0196524115023058	 -1.3223109973430016	 
15.0	 1.2318564095025948	 -1.2143933739596604	 
15.0	 1.4401033312374458	 -1.0827992799284263	 
15.0	 1.5508683072727862	 -0.9131740711212192	 
15.0	 1.5676485196751988	 -0.6765668821076359	 
15.0	 1.5740113033648886	 -0.4368264618720098	 
15.0	 1.5989239529199675	 -0.2126426922988991	 
15.0	 1.6170601867680685	 0.01910302886749356	 
15.0	 1.615116099457548	 0.2557214267241579	 
15.0	 1.5834455777649434	 0.4875129441818463	 
15.0	 1.5124025084684765	 0.7047780241480837	 
15.0	 1.3934486809184128	 0.8983398009220762	 
15.0	 1.2451072140752686	 1.0717892473432957	 
15.0	 1.1040227609140079	 1.24210903847959	 
15.0	 0.9747964689120828	 1.427550935195405	 
15.0	 0.8548816682759042	 1.6459660748308607	 
15.0	 0.7347385648147218	 1.8787360671977709	 
15.0	 0.593515514193787	 2.048250602789306	 
15.0	 0.4115469226193343	 2.0751796430805967	 
15.0	 0.21198794596416753	 1.95078836001006	 
15.0	 0.056719371400327366	 1.7301858356106536	 
15.0	 -0.008133668748924447	 1.4701931417618426	 
15.0	 -0.035345400938041685	 1.224242563982657	 
15.0	 -0.11306518939786675	 1.0445542587563368	 
15.0	 -0.3105707966347136	 0.9791374104191	 
15.0	 -0.5518025389825857	 1.0431376400555408	 
15.0	 -0.756644877096141	 1.145938017081897	 
15.0	 -0.976470238375754	 1.100569373832696	 
15.0	 -1.21014066387686	 1.1142735579224656	 
15.0	 -1.3912333774272834	 1.0154181710978911	 
15.0	 -1.4905342155527934	 0.7863796934693055	 
15.0	 -1.5144853873659652	 0.5511050606858959	 
15.0	 -1.511112388213151	 0.32914505989711224	 
15.0	 -1.5250312830828991	 0.10782406319778569	 
15.0	 -1.5429314238938063	 -0.11725806939488007	 
15.0	 -1.5390029459514387	 -0.348712134427168	 
15.0	 -1.4874331987942142	 -0.5883041306897173	 
15.0	 -1.3622315669885534	 -0.7838312933028583	 
15.0	 -1.148574905881654	 -0.8227841717223167	 
15.0	 -0.9168335697674782	 -0.7744741103659124	 
15.0	 -0.7142437913667997	 -0.675765052190692	 
15.0	 -0.5370086873923039	 -0.5350043784499607	 
15.0	 -0.3317906851289863	 -0.3982191004754098	 
15.0	 -0.1290328694829444	 -0.4242329469350122	 
15.0	 0.04698522992632416	 -0.5812028237380182	 
15.0	 0.1930641764548727	 -0.7546622357820867	 
15.5	 0.45456641280709714	 -1.0235370916101802	 
15.5	 0.6488444176935061	 -1.086261421932504	 
15.5	 0.8413809558633223	 -1.0821354863870993	 
15.5	 1.024880891462669	 -1.0225773735626302	 
15.5	 1.1920490886376685	 -0.9190051720477584	 
15.5	 1.3355904115344432	 -0.7828369704311479	 
15.5	 1.4486086186077891	 -0.6253414956255926	 
15.5	 1.535466206254427	 -0.453571761432397	 
15.5	 1.6119252714313352	 -0.2700220919874199	 
15.5	 1.6746762481470958	 -0.07937152474087111	 
15.5	 1.7038654251788636	 0.11166209627360857	 
15.5	 1.679442055998989	 0.296335684334137	 
15.5	 1.5977304860720385	 0.4698741274381138	 
15.5	 1.4790883665902508	 0.6303906599882771	 
15.5	 1.3458005040482721	 0.7766331287303718	 
15.5	 1.220505034927128	 0.9220966775912585	 
15.5	 1.1245588213916768	 1.0966194586864288	 
15.5	 1.0424228874888093	 1.2826184263385012	 
15.5	 0.9231472612409864	 1.4158931289265657	 
15.5	 0.740342765544133	 1.468119689386684	 
15.5	 0.5430871039968704	 1.5194931663114606	 
15.5	 0.3585988499830511	 1.5948464575357426	 
15.5	 0.1797079967265988	 1.6465790681953847	 
15.5	 -0.0010266453988958509	 1.6306479265430658	 
15.5	 -0.18223190978010279	 1.5548054941499763	 
15.5	 -0.35828329918381896	 1.451786197325347	 
15.5	 -0.5278521003081046	 1.3548265624678788	 
15.5	 -0.7077400952842322	 1.2953034233717355	 
15.5	 -0.8978653022734369	 1.254831505358101	 
15.5	 -1.0796665830684908	 1.1821333785165975	 
15.5	 -1.2252143736200496	 1.063118867831052	 
15.5	 -1.325372313379509	 0.9050556236859192	 
15.5	 -1.3966358119069313	 0.7207304628618207	 
15.5	 -1.4568446098806493	 0.5232159947867762	 
15.5	 -1.5188960731697179	 0.3239369419629254	 
15.5	 -1.5735413583449047	 0.1269340363678645	 
15.5	 -1.6053311535653148	 -0.06581935059628258	 
15.5	 -1.598815847075214	 -0.2523499475250196	 
15.5	 -1.5389430105987159	 -0.43057469018001726	 
15.5	 -1.4356376698439561	 -0.5923536761274942	 
15.5	 -1.310156740453128	 -0.7387873528292584	 
15.5	 -1.1630105214229445	 -0.8807047062875552	 
15.5	 -0.9955840143790462	 -0.9755645310341302	 
15.5	 -0.8117687094777538	 -0.9617716981064756	 
15.5	 -0.6287096497261031	 -0.872902993871919	 
15.5	 -0.4523477284379287	 -0.791362234192595	 
15.5	 -0.2637704371894698	 -0.7996834561443875	 
15.5	 -0.09866463406016941	 -0.9090013352603561	 
15.5	 0.0830501234215668	 -0.943752717742667	 
15.5	 0.27549550089915414	 -0.946965696963374	 
16.0	 -0.33565368625484415	 -0.7275418131081364	 
16.0	 -0.37120574041547655	 -0.9709705322975022	 
16.0	 -0.28799850908210284	 -1.182277553903977	 
16.0	 -0.12396523511881066	 -1.340396422130403	 
16.0	 0.08296083861031231	 -1.4242606811796223	 
16.0	 0.2950320726102657	 -1.4131682662181129	 
16.0	 0.4887373006098199	 -1.3143672634376304	 
16.0	 0.6649097930520168	 -1.181093913892229	 
16.0	 0.8324257991713983	 -1.0457597340181073	 
16.0	 1.0055043881719175	 -0.9173124152509332	 
16.0	 1.2014647864022205	 -0.8253175941372661	 
16.0	 1.4333535863951046	 -0.826314950695544	 
16.0	 1.5487577019485612	 -0.705987214606843	 
16.0	 1.5445747199228546	 -0.4495482930100775	 
16.0	 1.5394245294525448	 -0.223629232715744	 
16.0	 1.5358748447771506	 -0.02079633485962154	 
16.0	 1.528573901698753	 0.17799529260196642	 
16.0	 1.5077176790890479	 0.38602075827308574	 
16.0	 1.4572470665584103	 0.608449054916433	 
16.0	 1.3627279924660218	 0.8372640455104619	 
16.0	 1.220623050716393	 0.9990041779811125	 
16.0	 1.032161788875891	 1.010751873961028	 
16.0	 0.81416744552047	 0.9382219660646945	 
16.0	 0.5954027562240582	 0.9263943949849117	 
16.0	 0.4067775673512733	 1.01081404032898	 
16.0	 0.25259690909489174	 1.1678755849864506	 
16.0	 0.12497806786745566	 1.362292215384667	 
16.0	 0.009748818692033404	 1.5573498367638414	 
16.0	 -0.13631760543380853	 1.7099008523489347	 
16.0	 -0.3449451348929154	 1.7722215428410868	 
16.0	 -0.5426079826693352	 1.692580806120345	 
16.0	 -0.6785907827938172	 1.5139963669543752	 
16.0	 -0.7529919318053861	 1.3102741189788611	 
16.0	 -0.810473642677258	 1.1026993683562105	 
16.0	 -0.8969935478460201	 0.9042755997463187	 
16.0	 -1.022051447322394	 0.7251387037501299	 
16.0	 -1.1790992371834312	 0.5734456535342752	 
16.0	 -1.3341846453807686	 0.42514415645425396	 
16.0	 -1.4421354445685663	 0.23865074819507365	 
