10.5	 1.0676469071291814	 1.047881557593912	 
10.5	 0.9194856645802941	 1.1423771245556085	 
10.5	 0.7419444235999226	 1.1910430119024351	 
10.5	 0.5539406136762668	 1.2284103768600643	 
10.5	 0.37539958008612095	 1.2912020251449214	 
10.5	 0.21459780207394685	 1.391197252858062	 
10.5	 0.058465433329162285	 1.494466848915612	 
10.5	 -0.10804719297642855	 1.5629248293370595	 
10.5	 -0.29033996811228563	 1.5817748683895236	 
10.5	 -0.48239333424520725	 1.5637813919201295	 
10.5	 -0.6775303056095882	 1.5231714008802146	 
10.5	 -0.8692253163003708	 1.4676035501856133	 
10.5	 -1.0511715242766486	 1.3952486110573084	 
10.5	 -1.2170791515558805	 1.3035371437579117	 
10.5	 -1.360658420155522	 1.1898997085500365	 
10.5	 -1.475626926363093	 1.0517743421525787	 
10.5	 -1.5581075693214812	 0.8890377147342082	 
10.5	 -1.6100778288558355	 0.7075022048315921	 
10.5	 -1.634388960382795	 0.5138660745948678	 
10.5	 -1.6336357304159657	 0.3148510699619992	 
10.5	 -1.6080169136095335	 0.1173983107455735	 
10.5	 -1.5564246486253845	 -0.0714314493627504	 
10.5	 -1.4777378973559385	 -0.2445762502235712	 
10.5	 -1.3708356216936146	 -0.3949741316974873	 
10.5	 -1.2349414634957991	 -0.5161777309702035	 
10.5	 -1.0792387099660259	 -0.6194986849109115	 
10.5	 -0.9226750207558695	 -0.7327656464433606	 
10.5	 -0.766229698231288	 -0.8405149558574162	 
10.5	 -0.5982702899727702	 -0.8972973427117849	 
10.5	 -0.41443516935406044	 -0.8883744192010483	 
10.5	 -0.22384196565189685	 -0.8551327767178305	 
10.5	 -0.03701139540449626	 -0.844801186959828	 
10.5	 0.13553582484992754	 -0.9046084216247364	 
11.0	 0.07323368678115527	 -1.160356774657777	 
11.0	 0.1989031346949425	 -1.0786504735475528	 
11.0	 0.3661169287063538	 -1.0124199656589778	 
11.0	 0.557830660099825	 -0.9526630264399673	 
11.0	 0.7569999201597916	 -0.8903774313384331	 
11.0	 0.9465803001706892	 -0.8165609558022884	 
11.0	 1.1095273914169532	 -0.7222113752794469	 
11.0	 1.2287967851830195	 -0.5983264652178215	 
11.0	 1.2908565259273383	 -0.4382747303825286	 
11.0	 1.3071754311628367	 -0.25229894053144597	 
11.0	 1.3000622344369008	 -0.057958286749855474	 
11.0	 1.2861967965861987	 0.13087390015679204	 
11.0	 1.2634256448719865	 0.3126595332111127	 
11.0	 1.2256919198685015	 0.4884171215023092	 
11.0	 1.167552565249726	 0.6591643148672123	 
11.0	 1.09117748990962	 0.8259081058839517	 
11.0	 1.0038848695312104	 0.9896482801607803	 
11.0	 0.9091067146934868	 1.1486705526488874	 
11.0	 0.7939675202364486	 1.2901497095400494	 
11.0	 0.6469265664805945	 1.4011546446531131	 
11.0	 0.47625016409168885	 1.478598038576021	 
11.0	 0.29465563139072104	 1.5216046562613152	 
11.0	 0.1125144032028674	 1.5310320591126259	 
11.0	 -0.06891756306811203	 1.514470993260782	 
11.0	 -0.25059806886479646	 1.481147406874288	 
11.0	 -0.43348491562976676	 1.440287248121648	 
11.0	 -0.6179826688977879	 1.3995018323036537	 
11.0	 -0.8006906137268479	 1.355296668243454	 
11.0	 -0.9766074338823362	 1.2995058697613973	 
11.0	 -1.1407262576848447	 1.2239473369729077	 
11.0	 -1.2880827804247281	 1.120622359191913	 
11.0	 -1.4151967559641903	 0.987925922853799	 
11.0	 -1.5204224461886215	 0.8321565357842801	 
11.0	 -1.6022277587740574	 0.6601023204228679	 
11.0	 -1.659080601396532	 0.47855139920907364	 
11.0	 -1.6895409598214826	 0.29409344469994647	 
11.0	 -1.693648168519238	 0.1101297859659266	 
11.0	 -1.6726346687705453	 -0.07250967297957177	 
11.0	 -1.62776690041198	 -0.25306830298636795	 
11.0	 -1.5603113230807792	 -0.43078934057208024	 
11.0	 -1.4718654916998741	 -0.6026697963223254	 
11.0	 -1.3651993982897945	 -0.7577526001514928	 
11.0	 -1.243342428397814	 -0.883320897127918	 
11.0	 -1.106639328447955	 -0.9691485901411254	 
11.0	 -0.9403062532785698	 -1.0190456055778818	 
11.0	 -0.7242646964908465	 -1.0417341572057017	 
11.0	 -0.4501931770311769	 -1.0466744035348723	 
11.0	 -0.16704526884397708	 -1.0468943443500278	 
11.0	 0.058818329032711086	 -1.0565063233858674	 
11.0	 0.16103288983053934	 -1.0896229352769355	 
11.5	 -0.17217077798436245	 -0.9887463219595939	 
11.5	 0.005492423255295363	 -1.036901428364099	 
11.5	 0.19073166119463705	 -1.0684255708690833	 
11.5	 0.37929261465387	 -1.0795283770908468	 
11.5	 0.5669209624532014	 -1.0664194746456903	 
11.5	 0.7493623834128389	 -1.025308491149915	 
11.5	 0.9223605434510557	 -0.952552076144079	 
11.5	 1.0815970639248518	 -0.8490386005772715	 
11.5	 1.2226812611921556	 -0.7209375769768138	 
11.5	 1.3412183715430401	 -0.5747165251484836	 
11.5	 1.433193305664684	 -0.4165705030965842	 
11.5	 1.5009811081926805	 -0.24810888324715377	 
11.5	 1.552265879850801	 -0.06713115514516625	 
11.5	 1.594711290177507	 0.12853239464071387	 
11.5	 1.625668191889459	 0.33273429680536626	 
11.5	 1.6268278376214647	 0.5266977725435515	 
11.5	 1.5785717293780406	 0.6905897423787837	 
11.5	 1.465570213160879	 0.8084767145687453	 
11.5	 1.3024067717491128	 0.8916234124017054	 
11.5	 1.1164044124095873	 0.9628778420888269	 
11.5	 0.9349332380119977	 1.045130831038621	 
11.5	 0.7816995409704129	 1.1578560839966683	 
11.5	 0.6530691792680672	 1.295027728358829	 
11.5	 0.5330504372555829	 1.4390943649059103	 
11.5	 0.4055910559077322	 1.5724481274851214	 
11.5	 0.2550960779944872	 1.6777841371349613	 
11.5	 0.07847778361191637	 1.7460842365905738	 
11.5	 -0.11362785344545415	 1.7774229584724894	 
11.5	 -0.30988360909489643	 1.772339451673124	 
11.5	 -0.49895225925368186	 1.7313728650848934	 
11.5	 -0.6709416588959278	 1.6558004090580103	 
11.5	 -0.8257306666934193	 1.551889748408906	 
11.5	 -0.9672455086451757	 1.427975705328992	 
11.5	 -1.0994003235786614	 1.292370601217566	 
11.5	 -1.2231848013182711	 1.149987196389566	 
11.5	 -1.3339655392382914	 0.9992016193885949	 
11.5	 -1.4264709101436492	 0.8376480868949261	 
11.5	 -1.4954480933903809	 0.6629989078006152	 
11.5	 -1.5371875734219846	 0.47605231790984515	 
11.5	 -1.5506470735871554	 0.2830089805458595	 
11.5	 -1.5350492262837938	 0.09060612586687591	 
11.5	 -1.4896166639098	 -0.09441901596888763	 
11.5	 -1.4135744125704046	 -0.26533219857367385	 
11.5	 -1.3080927895259764	 -0.41782399258631325	 
11.5	 -1.1797981235165116	 -0.5543859194946013	 
11.5	 -1.0362002965511783	 -0.6785595639043975	 
11.5	 -0.8806817760769957	 -0.785525451356339	 
11.5	 -0.7101230083741257	 -0.8572927183287697	 
11.5	 -0.5245142696764672	 -0.8863481660750668	 
11.5	 -0.33889972958438974	 -0.9127576133151181	 
12.0	 -0.2548205568408071	 -1.0242963496402986	 
12.0	 -0.07512207371751899	 -1.046022347388798	 
12.0	 0.10819593785910243	 -1.0704904501474017	 
12.0	 0.29390508846824226	 -1.093072039160857	 
12.0	 0.4807769886890861	 -1.1091384956739079	 
12.0	 0.6675832491008188	 -1.1140612009313	 
12.0	 0.853095480282626	 -1.1032115361777797	 
12.0	 1.036085292813693	 -1.0719608826580913	 
12.0	 1.2153195514448851	 -1.0156816037532044	 
12.0	 1.3861831235806825	 -0.9304459579682041	 
12.0	 1.5347390019582332	 -0.8142553403387711	 
12.0	 1.6454604458369502	 -0.6654432182053281	 
12.0	 1.7068667753721478	 -0.4862704553061888	 
12.0	 1.719692286861371	 -0.29085464579860815	 
12.0	 1.6869673140988553	 -0.09554208222721959	 
12.0	 1.6117221908788364	 0.08332094286334353	 
12.0	 1.497730915117163	 0.2311138292418945	 
12.0	 1.3570190602671945	 0.3523639765134944	 
12.0	 1.2067547064551065	 0.46353210737785167	 
12.0	 1.0641838616499397	 0.5812597781604119	 
12.0	 0.943897895866184	 0.7196781183793108	 
12.0	 0.8411020017282306	 0.8745852192082826	 
12.0	 0.7424028717138621	 1.0336477785236582	 
12.0	 0.6343685402572581	 1.1844959362263903	 
12.0	 0.5040650159362353	 1.3150468851132342	 
12.0	 0.34899481112204467	 1.419233850488361	 
12.0	 0.17656143243448452	 1.4966974003095612	 
12.0	 -0.0054408344361033395	 1.5473033637560218	 
12.0	 -0.19010158470690894	 1.57118605811134	 
12.0	 -0.3752359399434359	 1.569915228894724	 
12.0	 -0.5602317428919396	 1.5455383521940442	 
12.0	 -0.7444691067930316	 1.50009923618412	 
12.0	 -0.9229028841959485	 1.4336333138318813	 
12.0	 -1.0788932801149729	 1.3409138642386538	 
12.0	 -1.1979214883947176	 1.2174189280909082	 
12.0	 -1.283700799994242	 1.0657248923396723	 
12.0	 -1.3451404345795015	 0.8904310873689737	 
12.0	 -1.3911499946564694	 0.6961369926148625	 
12.0	 -1.4306390827311155	 0.48744208751339185	 
12.0	 -1.4688718711037614	 0.27039076008333157	 
12.0	 -1.4944271902446002	 0.05764082728211664	 
12.0	 -1.4911129062463424	 -0.13625886681448723	 
12.0	 -1.4427365073000387	 -0.29675932834500385	 
12.0	 -1.3333842496312087	 -0.4095735234361048	 
12.0	 -1.1672312647627188	 -0.47929205439954853	 
12.0	 -0.9816954074928431	 -0.5417439092957332	 
12.0	 -0.8173151304887072	 -0.6356905206537582	 
12.0	 -0.7007550016160182	 -0.7837743178474249	 
12.0	 -0.5999190687655187	 -0.9403683867724487	 
12.0	 -0.4671575487749651	 -1.0417750094070737	 
12.5	 0.14327881383915686	 -0.9851051063199633	 
12.5	 0.27725544594528767	 -0.9696438099844504	 
12.5	 0.45942265139886934	 -1.0037048784732385	 
12.5	 0.6701160946383304	 -1.0623689315818037	 
12.5	 0.8896714401020986	 -1.12071658910562	 
12.5	 1.0984243522286032	 -1.1538284708401654	 
12.5	 1.2767104954562718	 -1.1367851965809137	 
12.5	 1.4061928303641227	 -1.0467109505397902	 
12.5	 1.4869025971573768	 -0.8890105405872786	 
12.5	 1.5322847447140122	 -0.6897411195363194	 
12.5	 1.5560898071640075	 -0.4754303329015811	 
12.5	 1.5713855236026582	 -0.2712513518376388	 
12.5	 1.5813322007642927	 -0.08272377296254595	 
12.5	 1.581618496158803	 0.09945446922686942	 
12.5	 1.5677496202268477	 0.28494934790605164	 
12.5	 1.5353620040790241	 0.48133936238501684	 
12.5	 1.4811046209543488	 0.6800953725925168	 
12.5	 1.4020975492492	 0.8651938421527323	 
12.5	 1.295463486054272	 1.020569576192382	 
12.5	 1.158325130619316	 1.1301573856891605	 
12.5	 0.9904592330692583	 1.1850844701676482	 
12.5	 0.801962869922457	 1.2044457663373505	 
12.5	 0.6054412802720499	 1.2141332470706192	 
12.5	 0.41349970321117663	 1.2400388852398057	 
12.5	 0.23739624469841292	 1.3050733439679836	 
12.5	 0.07320512650101925	 1.3985441770714984	 
12.5	 -0.09257385212114401	 1.4885700013324492	 
12.5	 -0.2721610570536216	 1.5449997180840471	 
12.5	 -0.46308999798048467	 1.558864284714676	 
12.5	 -0.654262936524065	 1.5336430395161456	 
12.5	 -0.8347903150357908	 1.4730325567235156	 
12.5	 -0.9998599406245	 1.381839874570281	 
12.5	 -1.1501155852452	 1.2658689522878113	 
12.5	 -1.2851507768420918	 1.1303363990275335	 
12.5	 -1.3983116547760772	 0.9773312957507412	 
12.5	 -1.4809873587191793	 0.8079630226023887	 
12.5	 -1.5261077214197964	 0.6241704123307611	 
12.5	 -1.534812397901503	 0.4323120278241194	 
12.5	 -1.5109635349235042	 0.24021207621691454	 
12.5	 -1.4584250597252197	 0.05569572315911578	 
12.5	 -1.3812343555072122	 -0.11485731128802927	 
12.5	 -1.2845099039397574	 -0.27407633162327666	 
12.5	 -1.1737859742256909	 -0.42805548870073923	 
12.5	 -1.0544325003549402	 -0.5825195303971804	 
12.5	 -0.9255296473411493	 -0.728853659120724	 
12.5	 -0.7780627795429853	 -0.8399883832376002	 
12.5	 -0.6043748259710636	 -0.8922926060470684	 
12.5	 -0.41269487063547633	 -0.9012376295938687	 
12.5	 -0.2187521905771088	 -0.9014199851044769	 
12.5	 -0.03191635935102175	 -0.9214050497453525	 
13.0	 -0.3114309140277187	 -0.9177293503657717	 
13.0	 -0.09405703808718281	 -0.8931028830788194	 
13.0	 0.09915582303425122	 -0.9135508843057446	 
13.0	 0.27544352539850303	 -0.9671633994285949	 
13.0	 0.4420419250674926	 -1.0420304738294153	 
13.0	 0.6061868781031398	 -1.1262421528902513	 
13.0	 0.7751142405673639	 -1.207888481993149	 
13.0	 0.9560598685220851	 -1.275059506520154	 
13.0	 1.1561450459215428	 -1.315818793891154	 
13.0	 1.3614722611503098	 -1.3133724040141221	 
13.0	 1.513005089551126	 -1.2405876459519616	 
13.0	 1.5767239021416206	 -1.0878907204960728	 
13.0	 1.579436365998552	 -0.8829271067568966	 
13.0	 1.555045683735013	 -0.6576839319051909	 
13.0	 1.5334076407156927	 -0.44133691696826466	 
13.0	 1.5142956012619986	 -0.24216601212987637	 
13.0	 1.4839332955639923	 -0.05903935695470886	 
13.0	 1.4284791000527288	 0.1092203048458318	 
13.0	 1.3350975053547864	 0.2637283021707902	 
13.0	 1.2057420884598915	 0.40468968006041905	 
13.0	 1.0536171899892963	 0.5316188832171251	 
13.0	 0.8927301210739139	 0.6472013007660831	 
13.0	 0.738676448213429	 0.7638376913152547	 
13.0	 0.6073531774131381	 0.8957727210905428	 
13.0	 0.5122288178328529	 1.055507082484066	 
13.0	 0.43001828120586505	 1.2291476464059385	 
13.0	 0.3146661069821156	 1.3849645283557412	 
13.0	 0.1609832974983874	 1.5098061987983016	 
13.0	 -0.017872118603616982	 1.5989485442845188	 
13.0	 -0.20866188298814276	 1.647704303605162	 
13.0	 -0.3990673006960164	 1.652618018805372	 
13.0	 -0.5865079863030779	 1.6232792070596604	 
13.0	 -0.7742621329827912	 1.5771252580942001	 
13.0	 -0.9641600353668129	 1.528457286718204	 
13.0	 -1.1461618265952744	 1.466379759732425	 
13.0	 -1.3046935894169633	 1.3682622206791573	 
13.0	 -1.428225995477178	 1.2224895908213222	 
13.0	 -1.5142089274851478	 1.0418596804029916	 
13.0	 -1.5612895330655099	 0.842425451513182	 
13.0	 -1.5681149598429012	 0.6402398662409091	 
13.0	 -1.5339165526859655	 0.45042969124522125	 
13.0	 -1.4663146358775179	 0.27482167426995513	 
13.0	 -1.3792117962040866	 0.10528256601943764	 
13.0	 -1.2866623973536626	 -0.06656151227082799	 
13.0	 -1.1986122051185002	 -0.24519361024898212	 
13.0	 -1.100604623900602	 -0.4119878190779706	 
13.0	 -0.969238202851403	 -0.5398541057218141	 
13.0	 -0.7971696710935212	 -0.6205697006505401	 
13.0	 -0.6189363781255608	 -0.6951979400132359	 
13.0	 -0.456392623827236	 -0.791963559058984	 
13.5	 -0.09394522256177257	 -1.112572202255448	 
13.5	 0.0054815723090208945	 -1.0011647088266864	 
13.5	 0.17142636079769186	 -0.9572111904295262	 
13.5	 0.3848090707672385	 -0.9617123754742793	 
13.5	 0.6265496300806598	 -0.9956689923712564	 
13.5	 0.8775679666009536	 -1.0400817695307694	 
13.5	 1.1187840081911187	 -1.075951435363128	 
13.5	 1.3311176827141535	 -1.0842787182786442	 
13.5	 1.4954889180330566	 -1.0460643466876292	 
13.5	 1.593385759688435	 -0.9428323316232913	 
13.5	 1.626395003891606	 -0.7746192694201642	 
13.5	 1.6211178716477623	 -0.5645020776918129	 
13.5	 1.6057216134733463	 -0.3370001146983045	 
13.5	 1.601397517854543	 -0.11407002156602682	 
13.5	 1.5973536203065108	 0.09408105549046461	 
13.5	 1.5736374655857348	 0.2806112045452101	 
13.5	 1.510295846550388	 0.4386787898926031	 
13.5	 1.3918488292220612	 0.5638034713719565	 
13.5	 1.2308899446425283	 0.6663239787655421	 
13.5	 1.0508785344100453	 0.7623147501662283	 
13.5	 0.875297531166515	 0.8678626766122375	 
13.5	 0.7242889842531091	 0.9963566009202703	 
13.5	 0.5933059521170766	 1.1412468999456695	 
13.5	 0.4667366849038592	 1.2870481740820132	 
13.5	 0.3289172589190987	 1.4182328888971434	 
13.5	 0.1664146081653096	 1.5206719402082693	 
13.5	 -0.0175614019734847	 1.5906689729562429	 
13.5	 -0.21228021038759504	 1.629242037852301	 
13.5	 -0.4070253806727339	 1.6374367729308468	 
13.5	 -0.5962588529615966	 1.6167577315895296	 
13.5	 -0.7840094412779329	 1.5695572976947718	 
13.5	 -0.975249763012863	 1.4982743183690908	 
13.5	 -1.1664802821153981	 1.4048627778155662	 
13.5	 -1.3389044317039844	 1.2904012083137484	 
13.5	 -1.4721195185937286	 1.1558762232357043	 
13.5	 -1.5459061674576386	 1.0022722918280282	 
13.5	 -1.5554545778312328	 0.8303936496035483	 
13.5	 -1.5227949135839054	 0.6407306060239641	 
13.5	 -1.472649800371651	 0.4337419789332574	 
13.5	 -1.4291796339014264	 0.21021051233394836	 
13.5	 -1.395064586649161	 -0.01670531950709824	 
13.5	 -1.34529712016742	 -0.21789489702455825	 
13.5	 -1.253040834568477	 -0.3631939106782645	 
13.5	 -1.0932016490475398	 -0.4245170093078987	 
13.5	 -0.8800951263508575	 -0.42080295433372755	 
13.5	 -0.6670812419829165	 -0.4175788215008693	 
13.5	 -0.5091892423874844	 -0.48236348291450204	 
13.5	 -0.4340639703903728	 -0.6521033413291446	 
13.5	 -0.3557831940084255	 -0.8369563558917712	 
13.5	 -0.20444568493718257	 -0.9579050491995225	 
14.0	 0.0266179239893574	 -1.0596892607569792	 
14.0	 0.15156981563113509	 -0.9815891669045341	 
14.0	 0.329502320413671	 -0.9756447043739007	 
14.0	 0.5426570968261021	 -1.017869176927419	 
14.0	 0.7732758033575651	 -1.0842758883274275	 
14.0	 1.0036000984971964	 -1.1508781423362657	 
14.0	 1.2158716407341337	 -1.1936892427162726	 
14.0	 1.3923320885575134	 -1.1887224932297868	 
14.0	 1.515366656249469	 -1.112196713382942	 
14.0	 1.580226542710749	 -0.9587497801321746	 
14.0	 1.6050338273594449	 -0.755761725401099	 
14.0	 1.6102651561515664	 -0.5339833994080863	 
14.0	 1.6121496491970355	 -0.31984774783177067	 
14.0	 1.607064218343687	 -0.11960657012948817	 
14.0	 1.58559061734439	 0.06637951427268533	 
14.0	 1.5383099068384132	 0.2377505905467097	 
14.0	 1.4559519974219943	 0.3941846040038889	 
14.0	 1.3388049017871864	 0.5377906130345123	 
14.0	 1.2023439888841676	 0.6745405956821897	 
14.0	 1.063395570234224	 0.8107501436201696	 
14.0	 0.936695281389568	 0.9519980488953383	 
14.0	 0.8206195650385982	 1.0980977686256368	 
14.0	 0.7058416999582834	 1.2461479976340897	 
14.0	 0.5829899332681902	 1.3932315606094492	 
14.0	 0.4430958616157779	 1.535849871900265	 
14.0	 0.28516264011168	 1.6590137001558025	 
14.0	 0.11550082344681356	 1.737200523709758	 
14.0	 -0.059452669773408975	 1.7464065325516138	 
14.0	 -0.23534824041242874	 1.6903187786704275	 
14.0	 -0.4094105365908405	 1.5935086416349764	 
14.0	 -0.5789028638509468	 1.4810603392957045	 
14.0	 -0.7412557478109355	 1.377477208894084	 
14.0	 -0.899434869804432	 1.288034844796427	 
14.0	 -1.0630827995778247	 1.1948150054217244	 
14.0	 -1.241643091657826	 1.078902465037204	 
14.0	 -1.4226038579137819	 0.935570440387618	 
14.0	 -1.56563886937793	 0.7780668336374655	 
14.0	 -1.6286324251268862	 0.6207959718206367	 
14.0	 -1.57305726112018	 0.4771811102335908	 
14.0	 -1.4309101440773442	 0.34136436989453706	 
14.0	 -1.2965808608516816	 0.19050047939105783	 
14.0	 -1.208653676312346	 0.019017305275169094	 
14.0	 -1.1405224507693708	 -0.15857514275038967	 
14.0	 -1.0621306249424762	 -0.3267039405768234	 
14.0	 -0.9476232693218641	 -0.4719014305925527	 
14.0	 -0.8018464881344963	 -0.5960829996917577	 
14.0	 -0.6432423563371565	 -0.7079707267740236	 
14.0	 -0.483076015981665	 -0.8112134147206173	 
14.0	 -0.3157618160245371	 -0.8975781032919306	 
14.0	 -0.1393803621044526	 -0.9677328452171009	 
14.5	 0.009523982296030539	 -1.0788505119333236	 
14.5	 0.19795134644302964	 -0.9663670834630982	 
14.5	 0.394205395759051	 -0.9623383919585936	 
14.5	 0.5940445265060156	 -1.0255749998556698	 
14.5	 0.7932271349458453	 -1.114887469590188	 
14.5	 0.9875116173404611	 -1.1890863635980082	 
14.5	 1.1726563699517842	 -1.206982244314991	 
14.5	 1.343238778633296	 -1.1338731737266652	 
14.5	 1.4848932359649885	 -0.9841826613334635	 
14.5	 1.5791603220143586	 -0.7948222545408424	 
14.5	 1.6115518715092845	 -0.5993019552882829	 
14.5	 1.5967253438698017	 -0.4054491990449127	 
14.5	 1.5622613306188247	 -0.20970380469099173	 
14.5	 1.5326839185033925	 -0.009425347141650237	 
14.5	 1.5010140820246993	 0.1882062391649565	 
14.5	 1.4419792738269432	 0.37030844157630344	 
14.5	 1.3340897235071592	 0.5260818056720504	 
14.5	 1.1918392753026466	 0.6640584668644697	 
14.5	 1.0479491221401216	 0.8025055167103015	 
14.5	 0.9149146381092067	 0.9473162969290956	 
14.5	 0.7833113926135673	 1.0909878177102297	 
14.5	 0.642633779649769	 1.2253563267772085	 
14.5	 0.4834648557053449	 1.3425219456822808	 
14.5	 0.3069157272344155	 1.4371366216141346	 
14.5	 0.11999941188459459	 1.5052828276741743	 
14.5	 -0.07020596711914463	 1.5430588587529748	 
14.5	 -0.25928862181856344	 1.5526223167611706	 
14.5	 -0.4529214505908662	 1.5590484807184195	 
14.5	 -0.6591255874124143	 1.592741764339754	 
14.5	 -0.8770805073442732	 1.6622044152772475	 
14.5	 -1.085560912427318	 1.7253928807345815	 
14.5	 -1.2604723978954442	 1.7331563835426376	 
14.5	 -1.379005301311557	 1.6391249645651382	 
14.5	 -1.443744494193376	 1.4518950002201596	 
14.5	 -1.4805420969000913	 1.2304264580164026	 
14.5	 -1.5082861186611831	 1.0196218796577037	 
14.5	 -1.5249168611892063	 0.8217633801931146	 
14.5	 -1.5249063668337137	 0.6320765175911014	 
14.5	 -1.5027266779442578	 0.4457868498201327	 
14.5	 -1.4528289630497884	 0.258437332017075	 
14.5	 -1.3688287301911612	 0.07827756644925533	 
14.5	 -1.2434193324005018	 -0.06999502779549038	 
14.5	 -1.0829576037464965	 -0.1817829711148046	 
14.5	 -0.9170863773716902	 -0.2884887927708366	 
14.5	 -0.7709987989892418	 -0.41770257603798183	 
14.5	 -0.6199759801321894	 -0.5426792351435472	 
14.5	 -0.43697204837184583	 -0.632028953264259	 
14.5	 -0.30717143522130685	 -0.7651846869096338	 
14.5	 -0.17347604385623291	 -0.9128953439460072	 
14.5	 0.047741341038492716	 -0.967166310927186	 
15.0	 0.24026412416796236	 -0.9984511244354156	 
15.0	 0.41185046053177826	 -1.027157860061568	 
15.0	 0.6022155032103778	 -1.0279357886729132	 
15.0	 0.799801461128026	 -1.0001723993202467	 
15.0	 0.9930505432089878	 -0.9432551810543623	 
15.0	 1.1704049583775282	 -0.8565716229260555	 
15.0	 1.3203069155579121	 -0.7395092139861205	 
15.0	 1.4312138239730174	 -0.5914671977080669	 
15.0	 1.4963592477278924	 -0.41553822812711344	 
15.0	 1.5205213769540273	 -0.22374244273513777	 
15.0	 1.5101812363311802	 -0.029403235023391663	 
15.0	 1.4706314788421502	 0.15741096836359691	 
15.0	 1.4046362761541809	 0.33355728678326	 
15.0	 1.3147051916494459	 0.49696254841326454	 
15.0	 1.2042083623409816	 0.6478243973478064	 
15.0	 1.077098783204682	 0.7878784787209359	 
15.0	 0.9373404848251088	 0.9188895575873179	 
15.0	 0.7888974977868248	 1.0426223990016172	 
15.0	 0.6354187712353473	 1.1603726591472945	 
15.0	 0.4782060392472332	 1.2699413440157663	 
15.0	 0.3175016979275716	 1.3675522646944136	 
15.0	 0.15354296190547065	 1.4494216697558489	 
15.0	 -0.013813171616189685	 1.5134260740940961	 
15.0	 -0.18604844824268243	 1.5632877783144647	 
15.0	 -0.3649391061532262	 1.6040150211952744	 
15.0	 -0.5522613835270413	 1.6406160415148467	 
15.0	 -0.7497915185433468	 1.6780990780515024	 
15.0	 -0.9587584342892123	 1.7208480580584438	 
15.0	 -1.1671290245807924	 1.7581191737071054	 
15.0	 -1.3492226659311108	 1.7636011634958717	 
15.0	 -1.4792422152547153	 1.7107793490212868	 
15.0	 -1.549339761216233	 1.5911217863423777	 
15.0	 -1.5739952748677164	 1.4184660894843957	 
15.0	 -1.5690854720761631	 1.2080492243484102	 
15.0	 -1.5504870687085708	 0.9751081568354927	 
15.0	 -1.5340767806319369	 0.7348798528467128	 
15.0	 -1.532495080623485	 0.5020448160017326	 
15.0	 -1.5345574447998844	 0.2871869132867608	 
15.0	 -1.5184371446885874	 0.09906011656558843	 
15.0	 -1.4622580242756147	 -0.05359010121532113	 
15.0	 -1.3454676443833016	 -0.16294564895593472	 
15.0	 -1.1771885856007085	 -0.24197843676281058	 
15.0	 -0.995796619050215	 -0.3241548469034373	 
15.0	 -0.8407086606114665	 -0.4435927263937476	 
15.0	 -0.7276555872162692	 -0.6085002872675769	 
15.0	 -0.6265249533465571	 -0.7769387434195492	 
15.0	 -0.5019592602236125	 -0.9012318608010341	 
15.0	 -0.3272938779889685	 -0.9467155275762243	 
15.0	 -0.1328093845364609	 -0.9638154101478899	 
15.0	 0.05308966538343969	 -0.9915328675897194	 
15.5	 0.28012121886780567	 -0.9843443448984711	 
15.5	 0.44204412726708353	 -0.9836040545947173	 
15.5	 0.6269272044666482	 -0.9726465260337329	 
15.5	 0.8234705702492218	 -0.9470837171660892	 
15.5	 1.020374344397526	 -0.9025275859423566	 
15.5	 1.2063386466942827	 -0.8345900903131065	 
15.5	 1.3700635969222146	 -0.7388831882289102	 
15.5	 1.5002493148640434	 -0.6110188376403392	 
15.5	 1.5868131676301267	 -0.44837888313794727	 
15.5	 1.6283146276164095	 -0.26091085447669493	 
15.5	 1.627052231704054	 -0.06399890889732458	 
15.5	 1.585339458733242	 0.12695107064021394	 
15.5	 1.5060792152393048	 0.29796072699631393	 
15.5	 1.3980748738642599	 0.4493419506540625	 
15.5	 1.2735285599322783	 0.5896380186612828	 
15.5	 1.143688015951349	 0.7266708761637786	 
15.5	 1.0118242804180888	 0.861688164026225	 
15.5	 0.8773747239908041	 0.9927778598180448	 
15.5	 0.7397523494947512	 1.1180078574313763	 
15.5	 0.5983701597551856	 1.2354460507583591	 
15.5	 0.4526297920848696	 1.343184522347761	 
15.5	 0.30145786184456713	 1.4403263204127064	 
15.5	 0.1431439970740064	 1.527330161693814	 
15.5	 -0.024066809364332017	 1.6047497577660088	 
15.5	 -0.2019295646079676	 1.6731388202042135	 
15.5	 -0.3921992757944213	 1.7330510605833536	 
15.5	 -0.5950799932359623	 1.7837102931744848	 
15.5	 -0.7993562613680709	 1.8145484606570152	 
15.5	 -0.9887111594300579	 1.81062315775965	 
15.5	 -1.1468040608024146	 1.7569716521734795	 
15.5	 -1.2603060554673136	 1.642185667805198	 
15.5	 -1.3347082147229214	 1.477068447244552	 
15.5	 -1.3827570982397113	 1.2809862285928266	 
15.5	 -1.4172146346822085	 1.0733233885824134	 
15.5	 -1.4483194265341093	 0.8705923181149994	 
15.5	 -1.4743963660038935	 0.6757455253622877	 
15.5	 -1.4902576105082534	 0.4877374128901007	 
15.5	 -1.4907148149402853	 0.30552181130465267	 
15.5	 -1.4705796341930861	 0.12805255121216141	 
15.5	 -1.4246637231597505	 -0.04571653678115678	 
15.5	 -1.348806323867533	 -0.21540244678906342	 
15.5	 -1.2442676695387223	 -0.37308262094802824	 
15.5	 -1.114089202566442	 -0.5083575969123227	 
15.5	 -0.9621914813582174	 -0.6147140083105012	 
15.5	 -0.7955627444159559	 -0.6992205958363713	 
15.5	 -0.6218607742584084	 -0.7719104961578755	 
15.5	 -0.4475554744710478	 -0.8405894261081263	 
15.5	 -0.2711664256812027	 -0.8981552642261407	 
15.5	 -0.08900665781557884	 -0.934525577539202	 
15.5	 0.0963704112532782	 -0.9581658326205129	 
16.0	 0.40126283020082937	 -0.9506657961273685	 
16.0	 0.6656457112879356	 -1.041381110821688	 
16.0	 0.887458548530044	 -1.056593579727273	 
16.0	 1.0696481336376726	 -1.0080328189807266	 
16.0	 1.2151612583213396	 -0.9074284447186515	 
16.0	 1.3269447142915616	 -0.7665100730776501	 
16.0	 1.4079452932588579	 -0.597007320194325	 
16.0	 1.4611097869337453	 -0.41064980220527825	 
16.0	 1.4893850665911605	 -0.21916670462488697	 
16.0	 1.4962911649123083	 -0.031185122301232337	 
16.0	 1.4872953932780109	 0.15520700173889831	 
16.0	 1.4682782196300548	 0.3441578295125466	 
16.0	 1.4451200178448091	 0.5398154306643252	 
16.0	 1.419580316366773	 0.7422811963250068	 
16.0	 1.3783162312476478	 0.9368259182380456	 
16.0	 1.3045260367521834	 1.1053237985456987	 
16.0	 1.1824178661131877	 1.2306747189576874	 
16.0	 1.0163682966693064	 1.3162629671069095	 
16.0	 0.8293567633625747	 1.3843671233381443	 
16.0	 0.644663965701783	 1.4575393051194663	 
16.0	 0.47205784082948427	 1.5434967139482378	 
16.0	 0.3047469485567898	 1.6317769249374272	 
16.0	 0.1349277827876197	 1.7108064219010501	 
16.0	 -0.04519910237117472	 1.7690137233678183	 
16.0	 -0.23902728882278848	 1.7970352858377543	 
16.0	 -0.4371486190353511	 1.7919229809625834	 
16.0	 -0.6278428348669162	 1.7518873577254495	 
16.0	 -0.7993899421954738	 1.6751391161285314	 
16.0	 -0.943727618258674	 1.5619811390796527	 
16.0	 -1.065639943418243	 1.4200644341190631	 
16.0	 -1.172729774654298	 1.258652345073114	 
16.0	 -1.2725999689469514	 1.0870082157681593	 
16.0	 -1.3727997095231552	 0.9143562652135105	 
16.0	 -1.4747497683873576	 0.745453483024144	 
16.0	 -1.56816063406769	 0.5765207928328264	 
16.0	 -1.6414237729301555	 0.40281763341752275	 
16.0	 -1.6829306513407603	 0.21960344355619932	 
16.0	 -1.6817038028047262	 0.02337383186136449	 
16.0	 -1.634586004277182	 -0.17405685998978748	 
16.0	 -1.5437051529170498	 -0.3505214993698519	 
16.0	 -1.4112886597708167	 -0.48365802024690274	 
16.0	 -1.2426384727995627	 -0.5608466661473802	 
16.0	 -1.0555004498315055	 -0.6088987967006774	 
16.0	 -0.870744288724796	 -0.6645566647266762	 
16.0	 -0.700000526010094	 -0.747737830364096	 
16.0	 -0.5317446797590495	 -0.8361874271679229	 
16.0	 -0.35472552583293276	 -0.9053372122960978	 
16.0	 -0.16849640684043238	 -0.9436546573065843	 
16.0	 0.021294002628208505	 -0.9530114946052946	 
16.0	 0.21131713319188855	 -0.9479603608394209	 
16.5	 0.5000864736750831	 -1.0784482285317716	 
16.5	 0.812274167148489	 -1.131962995069265	 
16.5	 1.0412989018000858	 -1.1143564156805388	 
16.5	 1.1995824044544379	 -1.037948570905385	 
16.5	 1.2995464019361078	 -0.915059541283593	 
16.5	 1.35361262106966	 -0.758009407354954	 
16.5	 1.3742027886796566	 -0.5791182496592583	 
16.5	 1.373738631590662	 -0.390706148736296	 
16.5	 1.364216773926433	 -0.20448325085679625	 
16.5	 1.351366461705934	 -0.023167313685096877	 
16.5	 1.3361396373070706	 0.15737834569756945	 
16.5	 1.3193680576207247	 0.3414628514742539	 
16.5	 1.3015784059407025	 0.53303356604927	 
16.5	 1.2742133696014726	 0.725265885430054	 
16.5	 1.2183088625363696	 0.8989946658573162	 
16.5	 1.1150263853233033	 1.035082978475302	 
16.5	 0.9663148433598522	 1.135442670100385	 
16.5	 0.7979607993914429	 1.2261229681607337	 
16.5	 0.6365126711976788	 1.333684692441611	 
16.5	 0.489848470234891	 1.456939257022971	 
16.5	 0.3430251406588016	 1.5607796360650399	 
16.5	 0.1805668780457886	 1.6098916811048758	 
16.5	 0.0008691018360942829	 1.5990478442351628	 
16.5	 -0.18642703125962562	 1.5474125135831391	 
16.5	 -0.3713563035158589	 1.4748529637562737	 
16.5	 -0.5459711565589808	 1.3973785532041472	 
16.5	 -0.7102544709567706	 1.3158350457375196	 
16.5	 -0.8661372941502418	 1.2273431638456402	 
16.5	 -1.0154460037030273	 1.1291139656216316	 
16.5	 -1.1592316252361918	 1.0190276786245627	 
16.5	 -1.2981969731110568	 0.8952650550268116	 
16.5	 -1.4330158142899472	 0.7560211330448163	 
16.5	 -1.560192378905496	 0.6014479371095256	 
16.5	 -1.6676265509834802	 0.43573597060140856	 
16.5	 -1.742155071677667	 0.2635747266040029	 
16.5	 -1.7706146821418232	 0.08965369820084639	 
16.5	 -1.7410479091433417	 -0.08130279722695193	 
16.5	 -1.6571706060400424	 -0.24411778091060649	 
16.5	 -1.5336567549516158	 -0.393297792334898	 
16.5	 -1.3854050575613077	 -0.5233428808582853	 
16.5	 -1.2271035316914238	 -0.6292303832257917	 
16.5	 -1.0677513138403112	 -0.7188253404777926	 
16.5	 -0.9095605518913168	 -0.8110360577404819	 
16.5	 -0.7502918171795301	 -0.9042669001269932	 
16.5	 -0.5859239133936027	 -0.9877884195057831	 
16.5	 -0.41307713388357153	 -1.051866052694128	 
16.5	 -0.23312883217917182	 -1.0943253353537181	 
16.5	 -0.049574739823566166	 -1.1163584091100893	 
16.5	 0.1345240727778757	 -1.1194044249848683	 
16.5	 0.3179772128439215	 -1.1058774901882524	 
17.0	 0.2888916187383361	 -1.082110948218118	 
17.0	 0.4410606490864877	 -1.0609858436350883	 
17.0	 0.6264481706962184	 -1.054627345610497	 
17.0	 0.8297445500594824	 -1.0503518213034633	 
17.0	 1.035640153668234	 -1.0354756378731067	 
17.0	 1.2288253480144269	 -0.9973151624785455	 
17.0	 1.393990499590015	 -0.9231867622789001	 
17.0	 1.516203134048275	 -0.8008523675860469	 
17.0	 1.5941068419762765	 -0.6341122153852453	 
17.0	 1.643377259343267	 -0.44688762844371044	 
17.0	 1.6774913350440184	 -0.2598855277182948	 
17.0	 1.696779673604848	 -0.0758080889393096	 
17.0	 1.6982778915885448	 0.10715520536075963	 
17.0	 1.6790216055558755	 0.2908148726522013	 
17.0	 1.6360295445442712	 0.47648312654974656	 
17.0	 1.566000028492835	 0.6560177991175853	 
17.0	 1.4653447332965628	 0.8128186537309737	 
17.0	 1.3305720811109982	 0.9302048488558471	 
17.0	 1.1657562148117975	 1.006906832682762	 
17.0	 0.9874150376033709	 1.067002856048545	 
17.0	 0.8132010349250156	 1.1368925080143841	 
17.0	 0.6532052143636125	 1.2307545176253174	 
17.0	 0.4992686702085648	 1.3332721052350518	 
17.0	 0.3405343085114251	 1.4247676568179835	 
17.0	 0.16893940849408534	 1.4894401129494297	 
17.0	 -0.013483454144371458	 1.525493332524744	 
17.0	 -0.2024226902950054	 1.5342927850692791	 
17.0	 -0.39172546402036934	 1.5149507920908782	 
17.0	 -0.5673079299550771	 1.4568744373787113	 
17.0	 -0.715098682466539	 1.3497739411358198	 
17.0	 -0.8505714202320471	 1.223472292336637	 
17.0	 -0.999565107479358	 1.117660406601177	 
17.0	 -1.1552111104917757	 1.015081202500478	 
17.0	 -1.3018891037757034	 0.8922380180119968	 
17.0	 -1.4123643520502076	 0.7455492526848615	 
17.0	 -1.4606249147832286	 0.577473211242622	 
17.0	 -1.4547849504642762	 0.39403936577313464	 
17.0	 -1.4186842791742844	 0.20292269000514615	 
17.0	 -1.375982921634411	 0.011780543489939198	 
17.0	 -1.3353767412161397	 -0.1732274501725062	 
17.0	 -1.2828466449609597	 -0.3482151670476237	 
17.0	 -1.202496490536319	 -0.509485774472191	 
17.0	 -1.0861620376339567	 -0.6530692666916659	 
17.0	 -0.9444855659904976	 -0.7744542717270888	 
17.0	 -0.7862428306144467	 -0.8712843970264746	 
17.0	 -0.61623468725668	 -0.9431081074593368	 
17.0	 -0.43941827574751224	 -0.9957312730279673	 
17.0	 -0.26078395778716856	 -1.0460944339866172	 
17.0	 -0.08015640564498641	 -1.0814754308728838	 
17.0	 0.10413108086294634	 -1.083956260741145	 
17.5	 0.23067055435235295	 -1.1698115288319786	 
17.5	 0.40088796454849546	 -1.1404916552025484	 
17.5	 0.5830701668075238	 -1.1045817974931198	 
17.5	 0.768554929502834	 -1.0571765543308766	 
17.5	 0.9486800210078226	 -0.9933705243430021	 
17.5	 1.114783209695886	 -0.9082583061566796	 
17.5	 1.2582022639404202	 -0.796934498399093	 
17.5	 1.3706884645725872	 -0.6551554344474252	 
17.5	 1.4496669316120516	 -0.4877571658020719	 
17.5	 1.496681924242532	 -0.30616751036309275	 
17.5	 1.5134935996718766	 -0.12086319948573432	 
17.5	 1.5025497566106871	 0.06380640625631168	 
17.5	 1.4665363859085052	 0.24561440624368924	 
17.5	 1.4081397103938822	 0.4223359669536534	 
17.5	 1.329836299785823	 0.59151889724958	 
17.5	 1.2314983104681279	 0.7478866586588009	 
17.5	 1.1112381115901913	 0.8842561059068006	 
17.5	 0.96912534322387	 0.9966027858440217	 
17.5	 0.8105578771992802	 1.089453822165464	 
17.5	 0.6418156533704202	 1.1687520188200287	 
17.5	 0.4691786115912904	 1.2404401797566165	 
17.5	 0.2988812062977002	 1.3104278330064016	 
17.5	 0.13336473279507102	 1.3818495326381544	 
17.5	 -0.031519383460593034	 1.4530188598536542	 
17.5	 -0.2005786129847862	 1.521767365150986	 
17.5	 -0.3786204262930042	 1.5859265990282387	 
17.5	 -0.5686531577560352	 1.6417522053331375	 
17.5	 -0.7608331376715549	 1.67424244822658	 
17.5	 -0.9397259281484035	 1.6634985034554897	 
17.5	 -1.0903740963969402	 1.590529937057845	 
17.5	 -1.209226605934075	 1.4575300541471319	 
17.5	 -1.3040878074791677	 1.2877811657886968	 
17.5	 -1.3832421924905605	 1.1054524554606047	 
17.5	 -1.4518499356391565	 0.9273365788044778	 
17.5	 -1.507469367557536	 0.7522781989976682	 
17.5	 -1.546524739850931	 0.5764444128620313	 
17.5	 -1.5654403041245732	 0.39600231721942347	 
17.5	 -1.560645108040037	 0.2073744960189055	 
17.5	 -1.5287208199805085	 0.015113677422992822	 
17.5	 -1.4664297566826316	 -0.1666042271968916	 
17.5	 -1.3705446864612814	 -0.32304654826927814	 
17.5	 -1.2380457081038037	 -0.43985858324785887	 
17.5	 -1.0751484035583585	 -0.5195220745843782	 
17.5	 -0.9007937222034819	 -0.5877173289086612	 
17.5	 -0.7343619149333291	 -0.6710418163686181	 
17.5	 -0.5794256518167267	 -0.7710387162331829	 
17.5	 -0.42069639856990104	 -0.8593570636008748	 
17.5	 -0.24673694577531896	 -0.9154853571116106	 
17.5	 -0.0685855383745182	 -0.9624032581253708	 
17.5	 0.09635227973119694	 -1.0354114797024714	 
18.0	 0.49086238268563015	 -1.028234169790746	 
18.0	 0.5977592532803502	 -0.886166322977201	 
18.0	 0.7723955608092525	 -0.8000315554033435	 
18.0	 0.9845153060359622	 -0.7473352992508202	 
18.0	 1.203862489724104	 -0.7055829867012775	 
18.0	 1.400181112637303	 -0.652280049936362	 
18.0	 1.5432838345264734	 -0.5649789872622641	 
18.0	 1.616578466237547	 -0.43055185003836777	 
18.0	 1.6333467213085109	 -0.2563494190694878	 
18.0	 1.6108423041527185	 -0.05244529739544538	 
18.0	 1.5663189191835232	 0.17108691194393882	 
18.0	 1.5170302708142789	 0.40417360590884277	 
18.0	 1.4791017363584025	 0.6367575343979182	 
18.0	 1.4511471342632791	 0.8590352437884226	 
18.0	 1.4179710268447294	 1.0614034191548705	 
18.0	 1.3640032298337026	 1.2342641768051887	 
18.0	 1.2736735589611465	 1.3680196330473036	 
18.0	 1.134787003053318	 1.4558509784116263	 
18.0	 0.9557014202649569	 1.5078623723359346	 
18.0	 0.7525108856722041	 1.5405278760137753	 
18.0	 0.5413235173622646	 1.5703331134738274	 
18.0	 0.3376028797017056	 1.6127075601274061	 
18.0	 0.14557287233537364	 1.6646636751226314	 
18.0	 -0.04009106813178346	 1.7075680595283753	 
18.0	 -0.22501670616573782	 1.7222906971647471	 
18.0	 -0.4125365699374696	 1.695043582555888	 
18.0	 -0.5981444635613555	 1.6302828221318253	 
18.0	 -0.7756622162775224	 1.5363559332830146	 
18.0	 -0.9389374054255896	 1.4215981669444575	 
18.0	 -1.0851928997683846	 1.2927367772393608	 
18.0	 -1.218351468657229	 1.1533071698148138	 
18.0	 -1.342902362845804	 1.0063264440250637	 
18.0	 -1.457594306330022	 0.8511759494640049	 
18.0	 -1.5550861915184855	 0.6833800545340128	 
18.0	 -1.6277431092099524	 0.49827705176618153	 
18.0	 -1.6677401222969592	 0.2953868778768715	 
18.0	 -1.6665116675189102	 0.09052726030330396	 
18.0	 -1.6153117721983987	 -0.0965140882463302	 
18.0	 -1.5060948429073289	 -0.24666618204027244	 
18.0	 -1.3480152434755657	 -0.35845946110638344	 
18.0	 -1.1680563084110962	 -0.44866948661177153	 
18.0	 -0.9891425792424319	 -0.5318326919445512	 
18.0	 -0.8130519073554742	 -0.6091324487518831	 
18.0	 -0.63588013573645	 -0.6782595786808222	 
18.0	 -0.45571116194813266	 -0.7430469358504622	 
18.0	 -0.27352973381947665	 -0.8162891142480226	 
18.0	 -0.09140846591378816	 -0.8990815263356523	 
18.0	 0.08494248750561915	 -0.9283934360436283	 
18.0	 0.2775284193074945	 -0.8986862009297287	 
18.0	 0.5051307612940684	 -0.8972960821502416	 
18.5	 0.4637850908559833	 -1.1941874915339623	 
18.5	 0.6353743996756122	 -1.1698829288827468	 
18.5	 0.8104652492600146	 -1.1146821377689495	 
18.5	 0.9808530686745873	 -1.0315645436251493	 
18.5	 1.1383332869847267	 -0.9235095718839235	 
18.5	 1.27470133325583	 -0.7934966479778506	 
18.5	 1.3817526365532933	 -0.6445051973395094	 
18.5	 1.4512952570891473	 -0.479516187026976	 
18.5	 1.4811885691727704	 -0.3022491441342469	 
18.5	 1.4850252310332916	 -0.11834383564866403	 
18.5	 1.4788893602157671	 0.06626055293361043	 
18.5	 1.4706461304629281	 0.24779985540365224	 
18.5	 1.4491473686960847	 0.4275415004929795	 
18.5	 1.4007679491479466	 0.6071714958884351	 
18.5	 1.3185814696288076	 0.7788154596146717	 
18.5	 1.2037152575298755	 0.923104761256962	 
18.5	 1.0578696523291078	 1.02040792880281	 
18.5	 0.8868735134594451	 1.0692321079466636	 
18.5	 0.7021766131791471	 1.092779877616719	 
18.5	 0.515631482556507	 1.1160233341864039	 
18.5	 0.33909065265981847	 1.163934574029145	 
18.5	 0.18252220273552971	 1.257181361518671	 
18.5	 0.04032475936571134	 1.3808688148818824	 
18.5	 -0.10078006495880837	 1.5025667579794357	 
18.5	 -0.25412463863984813	 1.589721715322596	 
18.5	 -0.4301581578307903	 1.6132549065203237	 
18.5	 -0.6129724855848079	 1.575852457409854	 
18.5	 -0.7766050022797054	 1.4966999221581043	 
18.5	 -0.9226553840389564	 1.3915761647081648	 
18.5	 -1.0642585910833846	 1.2747737723443866	 
18.5	 -1.213519229007767	 1.159827625909544	 
18.5	 -1.3609681929518518	 1.0450713437596315	 
18.5	 -1.4771079990802138	 0.9147261528462528	 
18.5	 -1.538444406820228	 0.7567834788935988	 
18.5	 -1.5494054361086769	 0.5770106634655054	 
18.5	 -1.521625225696702	 0.3857626194483888	 
18.5	 -1.4667379226546815	 0.1933942650248711	 
18.5	 -1.3963727435596718	 0.010255493781907795	 
18.5	 -1.3184223590051525	 -0.1571116615975994	 
18.5	 -1.2303948536601264	 -0.3127479523494772	 
18.5	 -1.1283322863849703	 -0.4617096485448594	 
18.5	 -1.0111378754099607	 -0.6019054421239803	 
18.5	 -0.8792210570532595	 -0.7275533986824289	 
18.5	 -0.7344338194420907	 -0.8368813519694912	 
18.5	 -0.5812988463009086	 -0.9356681749993341	 
18.5	 -0.42384766757935244	 -1.0285234562642411	 
18.5	 -0.2581059372208836	 -1.0997017249765086	 
18.5	 -0.08093122571332276	 -1.137766962667292	 
18.5	 0.10241584176856652	 -1.1559872663782884	 
18.5	 0.2859747767749482	 -1.1696862410277582	 
19.0	 0.6121684785815485	 -1.1949542101578194	 
19.0	 0.8056481836386684	 -1.1494699314146686	 
19.0	 0.961986946002785	 -1.057099948284636	 
19.0	 1.085547204646371	 -0.9287180525717273	 
19.0	 1.180691398541899	 -0.7751980360799483	 
19.0	 1.2517819666618426	 -0.6074136906133055	 
19.0	 1.3031776208214418	 -0.4359803922863962	 
19.0	 1.339138121590809	 -0.26465291202898167	 
19.0	 1.3638163196045892	 -0.08977361422036945	 
19.0	 1.3813597436153995	 0.09268411980210657	 
19.0	 1.3958768533372783	 0.28670201613189517	 
19.0	 1.405346382008213	 0.4892183930867146	 
19.0	 1.3950016381451154	 0.682526343958973	 
19.0	 1.3484869994525646	 0.8470931892790484	 
19.0	 1.2499486682585568	 0.9639771566519835	 
19.0	 1.0997693938875706	 1.0333552853965025	 
19.0	 0.9177049318770347	 1.0782166609020645	 
19.0	 0.7246462944985043	 1.1228871527740771	 
19.0	 0.5411710446040991	 1.1911875647285075	 
19.0	 0.37564916788183295	 1.2872684429021772	 
19.0	 0.22057970253279674	 1.3897072306862788	 
19.0	 0.0673997087250778	 1.4753701898696452	 
19.0	 -0.09245127397230125	 1.521132803907986	 
19.0	 -0.2645000392335311	 1.5151537109193065	 
19.0	 -0.44533840227405164	 1.4788235260108102	 
19.0	 -0.6299213781874067	 1.4396206354284824	 
19.0	 -0.813204627396115	 1.4158024424434887	 
19.0	 -0.9901465212634241	 1.38689023401416	 
19.0	 -1.1556508732936894	 1.3229957085424002	 
19.0	 -1.303181497869932	 1.2140447723666448	 
19.0	 -1.4246616796352565	 1.071160873595387	 
19.0	 -1.5119405695722854	 0.9065043426613034	 
19.0	 -1.5599342948020032	 0.7306050127437065	 
19.0	 -1.5732091198237825	 0.5488624121938948	 
19.0	 -1.5582244722915055	 0.3656696065853864	 
19.0	 -1.5212767190522078	 0.18536383084081348	 
19.0	 -1.4655015507854745	 0.011200130906290559	 
19.0	 -1.391170558425477	 -0.15454709097231742	 
19.0	 -1.2984517679642316	 -0.3096388923156033	 
19.0	 -1.187610743311234	 -0.4519248451295598	 
19.0	 -1.059998872802265	 -0.5802398940097204	 
19.0	 -0.9177056205360241	 -0.6938458437658772	 
19.0	 -0.7631889234710653	 -0.7908817542995114	 
19.0	 -0.5990396331603506	 -0.8690664999368551	 
19.0	 -0.4278475564934691	 -0.9261392575105934	 
19.0	 -0.25198779412065625	 -0.9634056756983149	 
19.0	 -0.07338024398736942	 -0.9897327466914589	 
19.0	 0.10611325546989604	 -1.014951885535072	 
19.0	 0.2845664793764995	 -1.0489371957367815	 
19.0	 0.45667648527069654	 -1.10380155789016	 
19.5	 0.43662850034296014	 -1.0322318280594114	 
19.5	 0.5647000734369324	 -0.9589352906675098	 
19.5	 0.7342350019827014	 -0.8880972652558917	 
19.5	 0.9248260394817021	 -0.8137311543975068	 
19.5	 1.1160659394353678	 -0.7298503606653031	 
19.5	 1.2875474553451338	 -0.6304682866322311	 
19.5	 1.4188633407124343	 -0.5095983348712392	 
19.5	 1.4927823615090012	 -0.36224540699929075	 
19.5	 1.516029534695164	 -0.19089315359151074	 
19.5	 1.5062593106206095	 -0.0014372152131473734	 
19.5	 1.4811819483922486	 0.20020934499115298	 
19.5	 1.4585072063667166	 0.40813333662201573	 
19.5	 1.4469399896138229	 0.614133182819079	 
19.5	 1.4232016786448187	 0.8018793936685218	 
19.5	 1.356916008032074	 0.953238808927501	 
19.5	 1.228130835191307	 1.0578621720571655	 
19.5	 1.0561148339911914	 1.1346872047181313	 
19.5	 0.8693592992892433	 1.2095383464996468	 
19.5	 0.6949188589702086	 1.3064548843767445	 
19.5	 0.5386390275615939	 1.4231223957505403	 
19.5	 0.39018439658339804	 1.5371206036002638	 
19.5	 0.23881166845221832	 1.6255224020345385	 
19.5	 0.07438553925484073	 1.6668424766365144	 
19.5	 -0.10433880791287638	 1.6606783449373366	 
19.5	 -0.2918665741010918	 1.622609797238875	 
19.5	 -0.4825355128082614	 1.5686137076685644	 
19.5	 -0.6707467413769037	 1.5142444678515086	 
19.5	 -0.8527266547499017	 1.4628863137122379	 
19.5	 -1.026758244237515	 1.404210992730116	 
19.5	 -1.1912343353254164	 1.3271579259615185	 
19.5	 -1.3435935866094961	 1.2223376947995965	 
19.5	 -1.476082081507312	 1.089455333375967	 
19.5	 -1.5792456554219572	 0.9313375005855875	 
19.5	 -1.6469781692865009	 0.7533098315778544	 
19.5	 -1.6783055620646476	 0.5645232072851046	 
19.5	 -1.672688356756563	 0.37445243020573143	 
19.5	 -1.6296545107501004	 0.19249651466869513	 
19.5	 -1.5525823384277848	 0.02372713522429846	 
19.5	 -1.4507083164702073	 -0.1333679058719327	 
19.5	 -1.333760221050753	 -0.2808529681098253	 
19.5	 -1.210935554835277	 -0.42074316328421346	 
19.5	 -1.0841432873960422	 -0.5543767007053836	 
19.5	 -0.9499946940456995	 -0.682599780885601	 
19.5	 -0.8050791887538187	 -0.8056510941027921	 
19.5	 -0.6477609627480239	 -0.91291236256837	 
19.5	 -0.47795251549684503	 -0.9842937350597449	 
19.5	 -0.29622825222249816	 -1.0034967106032413	 
19.5	 -0.10934812096931354	 -0.9958920215369149	 
19.5	 0.07579874914071524	 -0.9965328475670773	 
19.5	 0.2659734600608267	 -0.9798036167026875	 
20.0	 -0.029554946213087834	 -0.8664544522378803	 
20.0	 0.159200965607433	 -0.8540306467161185	 
20.0	 0.3430521535296022	 -0.9077298353426301	 
20.0	 0.5237117551946107	 -0.9958673093900268	 
20.0	 0.7028929082436498	 -1.0867583601309212	 
20.0	 0.8823087503179103	 -1.1487182788379253	 
20.0	 1.0636127435034337	 -1.1501997368649357	 
20.0	 1.2411394780275284	 -1.0765043013714515	 
20.0	 1.3949561189677189	 -0.9457788146362628	 
20.0	 1.5034832113575556	 -0.7799609226968875	 
20.0	 1.5521036646560429	 -0.5980035220227676	 
20.0	 1.5524607888302908	 -0.4076017359642678	 
20.0	 1.5223881522122662	 -0.21379693839072417	 
20.0	 1.479283976395803	 -0.021530235316632625	 
20.0	 1.4309691900711625	 0.16646308281650773	 
20.0	 1.375923397985104	 0.34959919342293144	 
20.0	 1.3122380611457691	 0.5273836701076166	 
20.0	 1.2380046405613014	 0.6993220864755396	 
20.0	 1.1513145972398422	 0.8649200161316775	 
20.0	 1.0503986243354917	 1.0236193594673377	 
20.0	 0.9351217281843318	 1.1741146178322788	 
20.0	 0.8064108328805945	 1.3146146596367523	 
20.0	 0.66521055185802	 1.4433189574428558	 
20.0	 0.5124000617820084	 1.558212927439242	 
20.0	 0.3487166578000091	 1.6568178638238087	 
20.0	 0.1748790597636478	 1.7365942973955257	 
20.0	 -0.008394012475448645	 1.795002758953361	 
20.0	 -0.2003838390656535	 1.8295037792962827	 
20.0	 -0.3995723209274966	 1.8377249659467014	 
20.0	 -0.599302532912588	 1.818367982634675	 
20.0	 -0.7908842229556139	 1.7705594748600288	 
20.0	 -0.9656220957145851	 1.6934271422082	 
20.0	 -1.1148208558475146	 1.586098684264626	 
20.0	 -1.2322648135942584	 1.4488488891122975	 
20.0	 -1.3223250010688914	 1.2868500603816853	 
20.0	 -1.3921973114501836	 1.1065813085834455	 
20.0	 -1.449077665091392	 0.9145217567994038	 
20.0	 -1.4999470554763996	 0.7171300673855425	 
20.0	 -1.542952744113191	 0.5200239442423501	 
20.0	 -1.564481934226249	 0.3277015508000352	 
20.0	 -1.550106575019368	 0.1445834394899725	 
20.0	 -1.4858232584414288	 -0.024898184436310394	 
20.0	 -1.3710889164773405	 -0.1759417442416052	 
20.0	 -1.2212625476486756	 -0.30330928714424504	 
20.0	 -1.0525389753793417	 -0.40197567079868285	 
20.0	 -0.8775165642167575	 -0.4774276172209606	 
20.0	 -0.7038557541215685	 -0.5495845988815183	 
20.0	 -0.5388157704133293	 -0.6393024418658682	 
20.0	 -0.3822797543775957	 -0.7484757658454266	 
20.0	 -0.21845761266118624	 -0.8387090533684789	 
20.5	 0.40728365180503734	 -1.0678595460137033	 
20.5	 0.7327747819730356	 -1.1857757559141409	 
20.5	 0.9809066169047084	 -1.2229440633838538	 
20.5	 1.1616058798203963	 -1.1914963514756551	 
20.5	 1.28479929394044	 -1.1035645032423553	 
20.5	 1.3604135824851804	 -0.971280401736767	 
20.5	 1.3983754686749577	 -0.8067759300117023	 
20.5	 1.4086116757301124	 -0.6221829711199726	 
20.5	 1.401048926870986	 -0.42963340811439055	 
20.5	 1.3848886857141307	 -0.24031243211855471	 
20.5	 1.3627381329409152	 -0.05679762064972615	 
20.5	 1.3336858063231507	 0.12292638463788684	 
20.5	 1.2967872762106845	 0.3009179749463652	 
20.5	 1.251098112953362	 0.47923554147778963	 
20.5	 1.1956730415718864	 0.6599329564826442	 
20.5	 1.1290473343609382	 0.8422872073248449	 
20.5	 1.0483538620418227	 1.018078337875787	 
20.5	 0.9504911837522112	 1.1778338116222689	 
