1.5	 0.016866746087101675	 -0.8619923707523055	 
1.5	 0.1953995318697046	 -0.7970397262725364	 
2.0	 0.2484890018122846	 -0.6235619806566414	 
2.0	 0.30037328336753255	 -0.8104455270828609	 
2.0	 0.44285143399009963	 -0.9803294229420634	 
2.0	 0.6441248587695934	 -1.1159799762423177	 
2.0	 0.8723949627956216	 -1.2001634949916933	 
2.0	 1.095863151157792	 -1.2156462871982592	 
2.0	 1.282730828945712	 -1.1451946608700843	 
2.0	 1.4087451079799422	 -0.9832156770777408	 
2.0	 1.480491121885499	 -0.7716901775277769	 
2.0	 1.5128045265372867	 -0.5595382175150778	 
2.0	 1.5235890772626923	 -0.35288338847175266	 
2.0	 1.532253421965104	 -0.13685773717091537	 
2.0	 1.5475085501652737	 0.0944159779289468	 
2.0	 1.534357073751826	 0.3095260755612646	 
2.0	 1.4474021648094215	 0.4682118455376941	 
2.0	 1.2758776870750035	 0.5608194098888992	 
2.0	 1.0574235394514404	 0.6204764615883148	 
2.0	 0.833283096859712	 0.6834954693172168	 
2.0	 0.6442476605826806	 0.7857891521234929	 
2.0	 0.5069502717678712	 0.9419080994855821	 
2.0	 0.402191376823159	 1.134717650067093	 
2.0	 0.30851172927565235	 1.3445822398514171	 
2.0	 0.21134765368908248	 1.552560504735526	 
2.0	 0.10033067535419013	 1.7401334253310872	 
2.0	 -0.03484831753769116	 1.8887879585090575	 
2.0	 -0.20413449820677484	 1.980488181504147	 
2.0	 -0.4064144097030014	 2.01169594072651	 
2.0	 -0.6277776066669958	 1.995649824483124	 
2.0	 -0.8535997120870877	 1.9465243553249083	 
2.0	 -1.0696673549296816	 1.8750268168056092	 
2.0	 -1.2633127925587904	 1.7788255992725983	 
2.0	 -1.4222315461880923	 1.6525246058077954	 
2.0	 -1.535779463845533	 1.4918751448756216	 
2.0	 -1.6058186276913373	 1.3012712332524567	 
2.0	 -1.6399098998500619	 1.0890451550175972	 
2.0	 -1.6456430879650346	 0.8635491976880648	 
2.0	 -1.6306079996795841	 0.6331356487808849	 
2.0	 -1.602394442637038	 0.4061567958130782	 
2.0	 -1.5675955771330379	 0.19002670184734669	 
2.0	 -1.5243848357215553	 -0.015766738205567746	 
2.0	 -1.4667060684942204	 -0.2157172762099356	 
2.0	 -1.3884712042681495	 -0.4143487140978178	 
2.0	 -1.282806153826367	 -0.610405625018857	 
2.0	 -1.13638132611435	 -0.7551681445037391	 
2.0	 -0.9406169155005099	 -0.8005602803284884	 
2.0	 -0.7172133548117224	 -0.7899401695310395	 
2.0	 -0.5007926180303163	 -0.7646970344889951	 
2.0	 -0.3453133465793167	 -0.6256231831236558	 
2.0	 -0.16390864744258082	 -0.5270839353578908	 
2.0	 0.06640497965166561	 -0.559012523245503	 
2.5	 0.42277621594728637	 -0.7853740892057322	 
2.5	 0.48990178236666165	 -1.1205044639707578	 
2.5	 0.6004985113364321	 -1.3052552991778772	 
2.5	 0.7447056811772953	 -1.3703070764123664	 
2.5	 0.9126625702099508	 -1.3463402772595032	 
2.5	 1.094508456755096	 -1.2640353833045628	 
2.5	 1.2803826191334302	 -1.154072876132822	 
2.5	 1.4587242968566734	 -1.041837037026841	 
2.5	 1.6039527665808757	 -0.9090295848731154	 
2.5	 1.69145891798219	 -0.7292243796086496	 
2.5	 1.720954184550103	 -0.5172550613491682	 
2.5	 1.696847708839443	 -0.2959381439070869	 
2.5	 1.6235486334050415	 -0.08809014109482069	 
2.5	 1.505715702889271	 0.08434488453364862	 
2.5	 1.353484207444657	 0.21856541474037786	 
2.5	 1.1823230520935206	 0.3304128803546024	 
2.5	 1.0079221515504493	 0.43650122250801593	 
2.5	 0.8459713091165916	 0.5534442796992105	 
2.5	 0.7078121025770849	 0.6938503425246793	 
2.5	 0.5889065764407931	 0.8556996122679618	 
2.5	 0.48109283595126756	 1.0336339485676993	 
2.5	 0.37623218408056835	 1.2217456740990869	 
2.5	 0.2664643837709825	 1.4075306016063944	 
2.5	 0.14411311163906784	 1.5741277654511536	 
2.5	 0.0015053068306303957	 1.7045989130995116	 
2.5	 -0.16853618777048351	 1.7828246328212216	 
2.5	 -0.363782531207955	 1.8082167832305844	 
2.5	 -0.5735916313385161	 1.7940792605177451	 
2.5	 -0.7870248163258435	 1.7542056759840015	 
2.5	 -0.9922989033154683	 1.6984475237779593	 
2.5	 -1.1725434127516943	 1.6129091601709418	 
2.5	 -1.3106324625972188	 1.477303910245261	 
2.5	 -1.407144593981054	 1.297865563064139	 
2.5	 -1.473467868855539	 1.0970263271617222	 
2.5	 -1.520516794544278	 0.8960745621979828	 
2.5	 -1.551844983071058	 0.7001786441596681	 
2.5	 -1.5662282654351067	 0.5040438533130851	 
2.5	 -1.562361538238517	 0.3021982277403639	 
2.5	 -1.5389396980833827	 0.0891698055236374	 
2.5	 -1.4932360837118712	 -0.13473076705562015	 
2.5	 -1.4151772668475942	 -0.339307689971701	 
2.5	 -1.2923234483802326	 -0.48473924801617796	 
2.5	 -1.115154958304347	 -0.5382831464051235	 
2.5	 -0.9053143817339177	 -0.5427653784395792	 
2.5	 -0.6992243835301558	 -0.5740746038562237	 
2.5	 -0.5023437214256476	 -0.6116981990230553	 
2.5	 -0.3060579399797964	 -0.5967764185733384	 
2.5	 -0.10647529663630495	 -0.5531772059290126	 
2.5	 0.09579471275258493	 -0.5580990092146454	 
2.5	 0.2826228982506915	 -0.6390438162374614	 
3.0	 0.15597055310993077	 -0.9039592933642673	 
3.0	 0.3880882494829975	 -0.7364738453649734	 
3.0	 0.5798829877625701	 -0.7456424560552557	 
3.0	 0.7461516586657035	 -0.8596961921272479	 
3.0	 0.901691152909454	 -1.0068661202730846	 
3.0	 1.061298361210877	 -1.1153833071849002	 
3.0	 1.237573646766629	 -1.1188786868106906	 
3.0	 1.416002240030375	 -1.0176420972448796	 
3.0	 1.5637958790763922	 -0.8568879786083726	 
3.0	 1.656492149110442	 -0.6746345169125652	 
3.0	 1.699228092992253	 -0.48145638662344037	 
3.0	 1.7034538002449047	 -0.2820750411440209	 
3.0	 1.6802875102115828	 -0.0812706686883898	 
3.0	 1.6338263741850574	 0.11493386645123284	 
3.0	 1.5614702403877732	 0.29933033124009395	 
3.0	 1.4603520710163695	 0.4646634237286722	 
3.0	 1.329826427300337	 0.606373054762405	 
3.0	 1.1770471561829752	 0.7293611192516026	 
3.0	 1.0108786889915866	 0.8406047690950978	 
3.0	 0.840185457053473	 0.9470811561917235	 
3.0	 0.6735033080161916	 1.0556355616769775	 
3.0	 0.5148464087569602	 1.1712985767565274	 
3.0	 0.3649396529475322	 1.2977807058661903	 
3.0	 0.22420099519780756	 1.4383201288867553	 
3.0	 0.0877558404214781	 1.5860896611272908	 
3.0	 -0.05453023765775055	 1.7242589773404635	 
3.0	 -0.21301780924210706	 1.8355676720357907	 
3.0	 -0.3962656178145585	 1.9039069533339097	 
3.0	 -0.5968061950269495	 1.9234109697459663	 
3.0	 -0.7987723109877775	 1.893582465786301	 
3.0	 -0.9863757166157154	 1.814184713646524	 
3.0	 -1.1478760812261797	 1.6906253756072431	 
3.0	 -1.2758995552676267	 1.5344007057672553	 
3.0	 -1.3632894325284846	 1.3573090562051162	 
3.0	 -1.4070970358293016	 1.169359370624599	 
3.0	 -1.4190050324315462	 0.974338808117955	 
3.0	 -1.4138740525388271	 0.7746831413064752	 
3.0	 -1.406564726354755	 0.5728281428114487	 
3.0	 -1.4090676014683179	 0.3711763942615156	 
3.0	 -1.4125637655460808	 0.1718898268497357	 
3.0	 -1.3990625514602528	 -0.022975694740703954	 
3.0	 -1.3505425411418481	 -0.21135296236489673	 
3.0	 -1.2538194760330252	 -0.38502739698076355	 
3.0	 -1.1085396257459068	 -0.5196512437561891	 
3.0	 -0.9248364951451017	 -0.5938123429938827	 
3.0	 -0.7269743803140676	 -0.6030047755091463	 
3.0	 -0.531899900454609	 -0.6014528742889683	 
3.0	 -0.3493659386772365	 -0.6576297887516295	 
3.0	 -0.1783863144443971	 -0.7826191985992488	 
3.0	 -0.013330158748292732	 -0.9216621429339957	 
3.5	 0.3656713948256631	 -1.2145531290160045	 
3.5	 0.592946377056794	 -1.3655623210699535	 
3.5	 0.8049439968258194	 -1.4196830141987806	 
3.5	 0.9960658543456625	 -1.3927756903829842	 
3.5	 1.160713549829246	 -1.3007008316030604	 
3.5	 1.2932886834894928	 -1.1593189198395064	 
3.5	 1.3881928555393253	 -0.9844904370728194	 
3.5	 1.439827666191667	 -0.7920758652834958	 
3.5	 1.4428584769100592	 -0.5977541082027913	 
3.5	 1.403483560487219	 -0.4092645945901801	 
3.5	 1.3436679894573604	 -0.22349258912117015	 
3.5	 1.2855641606681083	 -0.036797682033626364	 
3.5	 1.2278057134651357	 0.1480988316531011	 
3.5	 1.1447523509339819	 0.32184011813585567	 
3.5	 1.0225131552002915	 0.4741960868240714	 
3.5	 0.8669623071356867	 0.5940726682875629	 
3.5	 0.6883772075488039	 0.6775011214398178	 
3.5	 0.5090364547227902	 0.7521748195408599	 
3.5	 0.35408449537879544	 0.8539346857368045	 
3.5	 0.2311987505865463	 0.9962215197243208	 
3.5	 0.12498661590472322	 1.1628904090007552	 
3.5	 0.01847595068338919	 1.3357696090018492	 
3.5	 -0.1028152769176914	 1.4970946822792215	 
3.5	 -0.24555225233989061	 1.6303797930060575	 
3.5	 -0.4148683171022853	 1.7193909370811251	 
3.5	 -0.6104677708738696	 1.7522224140529732	 
3.5	 -0.8148048194827401	 1.7307211608953779	 
3.5	 -1.0069153756387759	 1.6594593487925275	 
3.5	 -1.165867282827967	 1.5430208609463356	 
3.5	 -1.28441977937046	 1.391011502307603	 
3.5	 -1.3898400581169843	 1.2255721792657337	 
3.5	 -1.4971082758665397	 1.0595499536660997	 
3.5	 -1.598020151184837	 0.8910484701009549	 
3.5	 -1.682814081487562	 0.7171810435595317	 
3.5	 -1.7417284641904012	 0.5350609890310618	 
3.5	 -1.7655634363498312	 0.34249689932237376	 
3.5	 -1.7511314106623659	 0.14473889634428172	 
3.5	 -1.6988911181308246	 -0.04844976761992762	 
3.5	 -1.6093524182799068	 -0.2272425573627596	 
3.5	 -1.4832188161100528	 -0.3818569258049724	 
3.5	 -1.3257160614988661	 -0.5035375901857062	 
3.5	 -1.146630478200935	 -0.5845652388032606	 
3.5	 -0.9558914137086953	 -0.6176908451363781	 
3.5	 -0.7610850332589937	 -0.6127326395097802	 
3.5	 -0.5667081669506352	 -0.6020109329799139	 
3.5	 -0.3770430811925526	 -0.61926543720032	 
3.5	 -0.19594178387339428	 -0.6835391921679241	 
3.5	 -0.02641442402027814	 -0.7851192163580736	 
3.5	 0.12862644913029653	 -0.9109587370278935	 
3.5	 0.26481211523889914	 -1.0505553373639906	 
4.0	 0.3859034866831049	 -0.9006845731742273	 
4.0	 0.7171656667224524	 -1.1226318404753506	 
4.0	 0.982818061991984	 -1.2483460000086368	 
4.0	 1.18950903245899	 -1.2898281783373085	 
4.0	 1.34388693809076	 -1.2590795020245857	 
4.0	 1.4526001388545848	 -1.1681010976336914	 
4.0	 1.5222969947177531	 -1.0288940917278466	 
4.0	 1.5596258656475557	 -0.8534596108702721	 
4.0	 1.571235111611282	 -0.6537987816241903	 
4.0	 1.5637730925762225	 -0.4419127305528222	 
4.0	 1.543098437646547	 -0.2297636275470071	 
4.0	 1.504307774186322	 -0.02878276318724764	 
4.0	 1.4347214459261552	 0.14998216862174069	 
4.0	 1.3218699021510438	 0.29580764788696584	 
4.0	 1.1675919367981433	 0.4097668725117823	 
4.0	 0.9919872884220846	 0.5079885354557553	 
4.0	 0.8163438464175196	 0.6075809175077075	 
4.0	 0.6617611437838756	 0.7255179376937546	 
4.0	 0.5367081637399432	 0.8697636646951725	 
4.0	 0.42927142373922944	 1.0337425810791403	 
4.0	 0.3256865137244888	 1.2095588325976787	 
4.0	 0.21348054314769496	 1.3881138990735944	 
4.0	 0.086783994739575	 1.5541601839870278	 
4.0	 -0.058167781538010915	 1.6904900336247655	 
4.0	 -0.2251385330957217	 1.7798949537448143	 
4.0	 -0.4162903319156153	 1.8066838152106446	 
4.0	 -0.6172027062459419	 1.770875146892683	 
4.0	 -0.8036507331406508	 1.6817758340004565	 
4.0	 -0.9516773910012363	 1.5488497896241362	 
4.0	 -1.0540463023937814	 1.3830906729249408	 
4.0	 -1.1260548668361554	 1.197553723731587	 
4.0	 -1.1845810503366816	 1.0054313861777373	 
4.0	 -1.2418926351981885	 0.8161056568615104	 
4.0	 -1.298357259761971	 0.629122726016779	 
4.0	 -1.3524482692258335	 0.44246309688936647	 
4.0	 -1.4026390087875789	 0.25410727272509614	 
4.0	 -1.4472679939827418	 0.0620963223019879	 
4.0	 -1.4803377755637235	 -0.13358096868083988	 
4.0	 -1.4906924877279388	 -0.3306186519750389	 
4.0	 -1.4668753875774483	 -0.5265756252341303	 
4.0	 -1.398633195457739	 -0.7180631280004375	 
4.0	 -1.2878610927501497	 -0.8921261852251205	 
4.0	 -1.1434977135542803	 -1.030263507806333	 
4.0	 -0.9745445052727536	 -1.11417315924782	 
4.0	 -0.7888549944739581	 -1.1385855680838604	 
4.0	 -0.5926410996105826	 -1.1168683681008762	 
4.0	 -0.3919884741718896	 -1.0638226813929055	 
4.0	 -0.1929827716471409	 -0.9942496300539854	 
4.0	 -0.0016952766964433118	 -0.9229684469016919	 
4.0	 0.18368597379525176	 -0.8747345481043352	 
4.5	 -0.01951319499083308	 -0.830835923006281	 
4.5	 0.12193484990843113	 -0.7863898912785614	 
4.5	 0.30419785095833146	 -0.803200919835757	 
4.5	 0.5140607647932831	 -0.8584248045185197	 
4.5	 0.7383085480477015	 -0.9292173411674995	 
4.5	 0.9637261573560019	 -0.9927343256233472	 
4.5	 1.177098549352599	 -1.026131553726713	 
4.5	 1.3652106806719084	 -1.0065648213182479	 
4.5	 1.5152402560288571	 -0.9125474040683246	 
4.5	 1.6220023396196062	 -0.7489900623520076	 
4.5	 1.6872460235816626	 -0.5447700723242411	 
4.5	 1.7129294463848908	 -0.32922058245548413	 
4.5	 1.6999266139179152	 -0.12114490736141142	 
4.5	 1.6479663992759155	 0.07177594779527778	 
4.5	 1.5567228403172406	 0.24239357501134887	 
4.5	 1.427235041364495	 0.38513748031880096	 
4.5	 1.272164962877183	 0.5078723161751911	 
4.5	 1.1100513582637705	 0.6252558651303667	 
4.5	 0.9587150468500779	 0.7514274198059036	 
4.5	 0.8227938181175414	 0.8906651460364788	 
4.5	 0.6957938220722871	 1.0389205571718783	 
4.5	 0.5708717920633568	 1.1918837970590002	 
4.5	 0.4411844614397911	 1.3452450095447455	 
4.5	 0.30029449396603863	 1.4941385869663804	 
4.5	 0.14591881936553208	 1.628011396187612	 
4.5	 -0.021791303884462765	 1.7329775114837227	 
4.5	 -0.20264986406437627	 1.7951216040051927	 
4.5	 -0.39477976154370703	 1.8060502693354417	 
4.5	 -0.5919816105186759	 1.7714837026360601	 
4.5	 -0.7873753443789979	 1.6993647321749197	 
4.5	 -0.9730944429980197	 1.5971349050830006	 
4.5	 -1.1322774634686235	 1.4676648636865328	 
4.5	 -1.2432521971692467	 1.3113805876219855	 
4.5	 -1.2887960531674325	 1.1296374593583127	 
4.5	 -1.285236771939414	 0.9309000963723232	 
4.5	 -1.2640691990461097	 0.7268469894442608	 
4.5	 -1.2552442783097641	 0.5284753171078418	 
4.5	 -1.2661363652489912	 0.33705737875462477	 
4.5	 -1.2875415031563637	 0.1467243557023999	 
4.5	 -1.3098731006123197	 -0.04855739086600204	 
4.5	 -1.323544566197296	 -0.2548214997677506	 
4.5	 -1.3178842634523371	 -0.4739415250881604	 
4.5	 -1.275100980966581	 -0.6804944258594291	 
4.5	 -1.1745333802028641	 -0.8380530353833696	 
4.5	 -1.0029885640703136	 -0.9176907187897667	 
4.5	 -0.8005764856049424	 -0.9441726260149282	 
4.5	 -0.6158933854559756	 -0.9542863845004179	 
4.5	 -0.43231419937282584	 -0.9346003073836465	 
4.5	 -0.21503198999425294	 -0.8576767623345658	 
4.5	 0.009549638439862328	 -0.7482340414383779	 
5.0	 0.33944545981676516	 -0.8432266023255311	 
5.0	 0.46463677439601647	 -0.9141352426502629	 
5.0	 0.6514725494343232	 -0.9771534172994016	 
5.0	 0.8749780116027098	 -1.0228202273134805	 
5.0	 1.1101783875722007	 -1.0416747737330327	 
5.0	 1.3320989040138203	 -1.0242561575985925	 
5.0	 1.515764787598593	 -0.9611034799506928	 
5.0	 1.6362572097089483	 -0.8428005012098431	 
5.0	 1.6808657502765256	 -0.6696766743312178	 
5.0	 1.6642915420689137	 -0.4639434661917999	 
5.0	 1.604971638418	 -0.2507946433685563	 
5.0	 1.5205488247606025	 -0.05417993198855748	 
5.0	 1.41845461360951	 0.11794458406862252	 
5.0	 1.299036407568885	 0.268718471814682	 
5.0	 1.162499104038957	 0.4015045003309408	 
5.0	 1.0101653883824313	 0.5201772284906198	 
5.0	 0.8483401583136095	 0.6308923682194272	 
5.0	 0.6847159037410454	 0.7404409536545978	 
5.0	 0.5269452527906667	 0.8555839002309019	 
5.0	 0.3790267841847905	 0.9803227956805717	 
5.0	 0.238420632494446	 1.113721771208748	 
5.0	 0.10190816902104277	 1.2543323950838254	 
5.0	 -0.03372923493401096	 1.400706235574201	 
5.0	 -0.17230221662466128	 1.5488274342107364	 
5.0	 -0.3202233882096733	 1.683395870024055	 
5.0	 -0.48462000532382754	 1.7860121513475555	 
5.0	 -0.6721236534498376	 1.838631103841389	 
5.0	 -0.8753246305628759	 1.8332438476682134	 
5.0	 -1.0711266103019972	 1.773053835300155	 
5.0	 -1.235629834174214	 1.6618631554683154	 
5.0	 -1.3533834251174537	 1.5065472921187066	 
5.0	 -1.4300139623756778	 1.3216489398077949	 
5.0	 -1.4743804232411795	 1.1228866217239983	 
5.0	 -1.4951613829958619	 0.9252687104596898	 
5.0	 -1.498413674403034	 0.7334831170545	 
5.0	 -1.4882148770217154	 0.5444264433507856	 
5.0	 -1.4685938580372373	 0.35480353544973786	 
5.0	 -1.443579484634929	 0.1613192394525442	 
5.0	 -1.417200624000122	 -0.03932159853960418	 
5.0	 -1.3932984956448307	 -0.25021803625824335	 
5.0	 -1.3650805158888941	 -0.46335656066493347	 
5.0	 -1.3096214072467929	 -0.6538646198258858	 
5.0	 -1.2026515962999378	 -0.7954635769605036	 
5.0	 -1.032019006816857	 -0.8700052108383901	 
5.0	 -0.8249148338977059	 -0.8857392551938379	 
5.0	 -0.6161641868066486	 -0.8564273238774407	 
5.0	 -0.4229929822700891	 -0.8043793051983845	 
5.0	 -0.23675697475181987	 -0.7644707348292017	 
5.0	 -0.04735809575858858	 -0.7695973428626156	 
5.0	 0.14648293440349275	 -0.8098377767608734	 
5.5	 0.48427191785049234	 -0.9247006843202182	 
5.5	 0.6285104270362549	 -0.9394034915417544	 
5.5	 0.8313694470750839	 -0.9294068755554719	 
5.5	 1.0478854569334146	 -0.8884840202128992	 
5.5	 1.233094935577682	 -0.8104081093655648	 
5.5	 1.342384746132369	 -0.6890354098187185	 
5.5	 1.3606909470759312	 -0.5252288819557883	 
5.5	 1.324471578722895	 -0.33206835822529146	 
5.5	 1.2753600674300212	 -0.12386085657817084	 
5.5	 1.2511086237936448	 0.08541300330950277	 
5.5	 1.2474725898628594	 0.2853044088782844	 
5.5	 1.2345250242886296	 0.4675243483923221	 
5.5	 1.1819737019769891	 0.6238161963652883	 
5.5	 1.0704713016620955	 0.7501474849601368	 
5.5	 0.9158057134719791	 0.8560460913459768	 
5.5	 0.7408010136052242	 0.9537554907162074	 
5.5	 0.5682812782604129	 1.0555191582642285	 
5.5	 0.4159377696035941	 1.1706054074351524	 
5.5	 0.27769350752697175	 1.2945056322710253	 
5.5	 0.14059654760835	 1.4187262527393654	 
5.5	 -0.00797639667070341	 1.5347324545445764	 
5.5	 -0.17243714434562885	 1.632971324175338	 
5.5	 -0.3486160751129167	 1.7028259779251307	 
5.5	 -0.5319395565458254	 1.7336387002022748	 
5.5	 -0.7175443729004503	 1.71900850434427	 
5.5	 -0.8998183437332706	 1.6635438075970765	 
5.5	 -1.0730298117702184	 1.5736092764475793	 
5.5	 -1.231447119737226	 1.4555695773826638	 
5.5	 -1.3693837081528586	 1.315771068678281	 
5.5	 -1.483383937597742	 1.1596544289155128	 
5.5	 -1.5732015711970366	 0.9913574254834657	 
5.5	 -1.638839316166737	 0.8149167627111854	 
5.5	 -1.680299879722838	 0.6343691449277171	 
5.5	 -1.69782118301566	 0.45319138330256153	 
5.5	 -1.6929768590153593	 0.2716808178859063	 
5.5	 -1.6678114275620168	 0.08901390982190235	 
5.5	 -1.624369938609136	 -0.09563414160454178	 
5.5	 -1.5646974421102158	 -0.2830881371085207	 
5.5	 -1.4908185746690055	 -0.47410227364152385	 
5.5	 -1.4027942495455656	 -0.6626388075665697	 
5.5	 -1.2971174004097648	 -0.8303194048700498	 
5.5	 -1.1699033722294065	 -0.9574597634448649	 
5.5	 -1.0173701744176407	 -1.0247350431089728	 
5.5	 -0.840938532924857	 -1.031036822185474	 
5.5	 -0.6495864616637035	 -1.0017172250024098	 
5.5	 -0.4528862254468361	 -0.9642090433649215	 
5.5	 -0.2599821198141959	 -0.9445299866517448	 
5.5	 -0.07314612302745409	 -0.9459744146248151	 
5.5	 0.11089052524052964	 -0.9535162086701597	 
5.5	 0.2955543603973234	 -0.9516075661234153	 
6.0	 0.016405106378374102	 -0.8404986270405659	 
6.0	 0.13715588187763195	 -0.8398705480637517	 
6.0	 0.3162461758464332	 -0.8709847871981741	 
6.0	 0.5341470586769066	 -0.9184324182351107	 
6.0	 0.7713296007611812	 -0.9668045149658379	 
6.0	 1.008264872491385	 -1.0006921511816327	 
6.0	 1.2254239442596475	 -1.0046864006737721	 
6.0	 1.403277886458097	 -0.9633783372335325	 
6.0	 1.5223999578659568	 -0.8614689687572324	 
6.0	 1.5753799078986819	 -0.6965866247419099	 
6.0	 1.5779602691819041	 -0.4912673622042562	 
6.0	 1.5485180388535498	 -0.2708813909121346	 
6.0	 1.5034824127879858	 -0.05872046209201182	 
6.0	 1.4450901136516712	 0.13706816837134467	 
6.0	 1.3692953291200338	 0.3150412080611197	 
6.0	 1.2720242576975265	 0.473785231227375	 
6.0	 1.1492080003068301	 0.6118904554459536	 
6.0	 1.0012227530840032	 0.7312505557355663	 
6.0	 0.8410858582144362	 0.843153716343294	 
6.0	 0.6840364058966366	 0.9605374000780041	 
6.0	 0.5398798181420691	 1.0913237127944064	 
6.0	 0.4040844992786973	 1.2302014787286801	 
6.0	 0.2697817764088634	 1.3697023649052593	 
6.0	 0.13010297663491077	 1.5023580383485773	 
6.0	 -0.021818350858584756	 1.6207003599723604	 
6.0	 -0.19051058753590278	 1.7174652005169768	 
6.0	 -0.3737328826407277	 1.7859790846703147	 
6.0	 -0.568026393250358	 1.8196748138526408	 
6.0	 -0.7694593464168223	 1.812909812075052	 
6.0	 -0.970486725069605	 1.767105734764229	 
6.0	 -1.1618966927491705	 1.6869430257078668	 
6.0	 -1.3344684808360923	 1.5771195919046501	 
6.0	 -1.4789813207109468	 1.442333340353265	 
6.0	 -1.5862286183619743	 1.287280772355222	 
6.0	 -1.651152785804631	 1.1162469318940558	 
6.0	 -1.6785903980531411	 0.9325356578780675	 
6.0	 -1.6748214429588717	 0.7393076458287322	 
6.0	 -1.64612590837319	 0.5397235912675218	 
6.0	 -1.5987837821474635	 0.33694418971591167	 
6.0	 -1.5390750521330594	 0.13413013669537557	 
6.0	 -1.473279706181344	 -0.06555787227261231	 
6.0	 -1.4069512514745304	 -0.2588579322515808	 
6.0	 -1.3337157505591715	 -0.44084647028656676	 
6.0	 -1.237444882963965	 -0.6052409847672284	 
6.0	 -1.1024239391522819	 -0.7454462112827954	 
6.0	 -0.9301078040108582	 -0.8481735546764559	 
6.0	 -0.7397376153741766	 -0.8932006931828048	 
6.0	 -0.5489421421630198	 -0.8685219698699422	 
6.0	 -0.36082583017000364	 -0.8130422899655382	 
6.0	 -0.17313185949723037	 -0.7844588320295286	 
6.5	 -0.27581299858934344	 -0.8750407861068381	 
6.5	 -0.16842698132147765	 -0.709895781659245	 
6.5	 -0.005314344841673325	 -0.6607386113181086	 
6.5	 0.19881817850060626	 -0.6990156017752021	 
6.5	 0.429263856355898	 -0.7961730797222977	 
6.5	 0.6713159563747388	 -0.9236573718511689	 
6.5	 0.9102677462076649	 -1.052914804853588	 
6.5	 1.1314124935052141	 -1.1553917054213285	 
6.5	 1.3200434659179225	 -1.2025344002461629	 
6.5	 1.4614539310963273	 -1.165789216019864	 
6.5	 1.5451774351748409	 -1.0266221303231942	 
6.5	 1.5830488654255446	 -0.8191965210150842	 
6.5	 1.5940098020492708	 -0.5944897590347238	 
6.5	 1.5879087004137278	 -0.38295567947555	 
6.5	 1.5619273361109012	 -0.186458306162002	 
6.5	 1.5123098199835099	 -0.004745271039210103	 
6.5	 1.4353002628742724	 0.16243579394769686	 
6.5	 1.3293589774415355	 0.316240440895405	 
6.5	 1.2030445405167072	 0.46193963728688586	 
6.5	 1.0677901933763743	 0.605975882472903	 
6.5	 0.9350293839216818	 0.7547917600113518	 
6.5	 0.816195560053775	 0.9148298534601282	 
6.5	 0.7205896889581218	 1.0909482038440326	 
6.5	 0.6380749737536782	 1.2735615966473752	 
6.5	 0.5481217849567068	 1.4453624097484983	 
6.5	 0.43021711849766275	 1.5890470530475271	 
6.5	 0.2742678364324881	 1.6942983182915081	 
6.5	 0.08878310287478286	 1.7632715936928827	 
6.5	 -0.11580237401799963	 1.7994133191716117	 
6.5	 -0.32905395670335164	 1.8061697515030048	 
6.5	 -0.540907457680967	 1.7860263601740876	 
6.5	 -0.7425333674247184	 1.7382663936768832	 
6.5	 -0.9253590871513405	 1.6615067850820446	 
6.5	 -1.0808120180775678	 1.5543644674602237	 
6.5	 -1.2008338484943357	 1.4157030509302546	 
6.5	 -1.286770717208702	 1.2488969766418625	 
6.5	 -1.3481960364376306	 1.0612668854864187	 
6.5	 -1.3949607494075231	 0.8602665357008767	 
6.5	 -1.4367020079457768	 0.6533148883371349	 
6.5	 -1.4741365869513903	 0.4463790031628471	 
6.5	 -1.496028062156525	 0.24348040946411542	 
6.5	 -1.4903033207618828	 0.048504455156783005	 
6.5	 -1.4448892499681656	 -0.13466351184330627	 
6.5	 -1.3482818960900955	 -0.3019328411981164	 
6.5	 -1.2042009713961632	 -0.4437215262546455	 
6.5	 -1.0328785448400228	 -0.5444913580605684	 
6.5	 -0.8533539565386423	 -0.5916148035011614	 
6.5	 -0.6635713420384066	 -0.6059752759046122	 
6.5	 -0.449253181325653	 -0.628411907432366	 
6.5	 -0.25859783227959	 -0.702153184108264	 
7.0	 -0.29817670595838713	 -0.42814846227965375	 
7.0	 -0.07972802697327874	 -0.4786431081741002	 
7.0	 0.08813728947221246	 -0.5839585538949529	 
7.0	 0.22372864077086077	 -0.7248110703706145	 
7.0	 0.34535542431544075	 -0.8819169285294883	 
7.0	 0.4713270374987266	 -1.0359923992999767	 
7.0	 0.6199528777134926	 -1.1677537536104827	 
7.0	 0.8090754281345836	 -1.257865939712263	 
7.0	 1.0229648034193415	 -1.2833036694826998	 
7.0	 1.190507374545273	 -1.2150265375571887	 
7.0	 1.2704259417579633	 -1.047041730109449	 
7.0	 1.3038323144822017	 -0.8288896692144662	 
7.0	 1.3361267990297991	 -0.6114903810260721	 
7.0	 1.3685964314127574	 -0.40719147697269437	 
7.0	 1.3865361006677792	 -0.21435711812216734	 
7.0	 1.3752183808308356	 -0.03133195342144031	 
7.0	 1.3222770551956544	 0.14369858879163894	 
7.0	 1.2335814233153413	 0.31377873400873085	 
7.0	 1.123491481449657	 0.4825252507508262	 
7.0	 1.0064145705647358	 0.6535581000780627	 
7.0	 0.8967546749925134	 0.8304956440164175	 
7.0	 0.8030553101542135	 1.014164433085688	 
7.0	 0.7159541788054108	 1.196861042715102	 
7.0	 0.6226811734370185	 1.3692586349086615	 
7.0	 0.5104661865399501	 1.5220303716703676	 
7.0	 0.36923893532745583	 1.6474026625894866	 
7.0	 0.20133804068442845	 1.744740936134644	 
7.0	 0.012664977097964727	 1.8154603811564942	 
7.0	 -0.19087847299665772	 1.8609763636726624	 
7.0	 -0.4033905271641599	 1.882704249700774	 
7.0	 -0.6189694029692663	 1.8820594052584547	 
7.0	 -0.8317148525087497	 1.8604216020277764	 
7.0	 -1.0358135967714195	 1.8171533192379588	 
7.0	 -1.2255843033976894	 1.7485564591898206	 
7.0	 -1.395356663014689	 1.6506772397964327	 
7.0	 -1.5394786809394196	 1.5196048146829801	 
7.0	 -1.6540098601630777	 1.355440656107469	 
7.0	 -1.7380919057310908	 1.1655119409950836	 
7.0	 -1.7911890856663044	 0.957902040955977	 
7.0	 -1.8127656679915651	 0.7406943276003023	 
7.0	 -1.8022859207297188	 0.5219721725382127	 
7.0	 -1.7592141119036122	 0.30981894737986115	 
7.0	 -1.6830145095360924	 0.11231802373540195	 
7.0	 -1.57323897326644	 -0.06250572666318874	 
7.0	 -1.4325761984668306	 -0.2087224329035964	 
7.0	 -1.2676409889203504	 -0.3230243570251009	 
7.0	 -1.085295914613826	 -0.4022703888675973	 
7.0	 -0.8920141236993677	 -0.44559863278840545	 
7.0	 -0.6930530693986647	 -0.45926243242312476	 
7.0	 -0.49343363554168196	 -0.4508997286330947	 
7.5	 -0.560441229259056	 -0.7887656219783712	 
7.5	 -0.3833170852542644	 -0.5672775366777715	 
7.5	 -0.2027242446175945	 -0.4794972371377406	 
7.5	 -0.025314716717955946	 -0.49726031791850916	 
7.5	 0.14225948907574248	 -0.5924023735803061	 
7.5	 0.29334636339459147	 -0.7367589986833615	 
7.5	 0.4229180935009085	 -0.9026201739740601	 
7.5	 0.5439501408906451	 -1.0673124865800887	 
7.5	 0.6806292200696132	 -1.2112989902362112	 
7.5	 0.8572190957059729	 -1.3151063832726269	 
7.5	 1.076782548988843	 -1.3629797017682492	 
7.5	 1.2942709771852563	 -1.3476020042719017	 
7.5	 1.4579993682479915	 -1.262820626903275	 
7.5	 1.5322389437492894	 -1.108131466417169	 
7.5	 1.5385885315950945	 -0.9033245859841171	 
7.5	 1.5115168779866701	 -0.6727460433529292	 
7.5	 1.484088764767148	 -0.44024394652464094	 
7.5	 1.4628195109034279	 -0.22024999754512903	 
7.5	 1.4305201651563673	 -0.0187886085587189	 
7.5	 1.3691691435071294	 0.15841112154393514	 
7.5	 1.2609954712052736	 0.30575926549069155	 
7.5	 1.106229233816219	 0.4276624803941873	 
7.5	 0.9348550916511743	 0.5450511231969778	 
7.5	 0.7796467646789229	 0.6804044079495817	 
7.5	 0.6708464886976615	 0.8541286089486823	 
7.5	 0.6030431706181887	 1.0574347941112603	 
7.5	 0.5444750378488318	 1.2599564241482513	 
7.5	 0.4627628432147528	 1.4308213324294075	 
7.5	 0.3281694675004034	 1.5416918526704766	 
7.5	 0.1417412075385016	 1.5937597659975653	 
7.5	 -0.07558271148523092	 1.6072994394563265	 
7.5	 -0.3025300730713769	 1.6029046319769682	 
7.5	 -0.5208915404248717	 1.5943950831425382	 
7.5	 -0.7239501371826333	 1.5701734481497112	 
7.5	 -0.9076838105900508	 1.512682153121533	 
7.5	 -1.0681938119658458	 1.405694449150717	 
7.5	 -1.203496700282124	 1.253655566615216	 
7.5	 -1.3131205500353418	 1.0773190916539006	 
7.5	 -1.3972459931301306	 0.8932303801864226	 
7.5	 -1.4579504848977052	 0.703506438330634	 
7.5	 -1.497678173478589	 0.5074749919538736	 
7.5	 -1.5188732070133049	 0.3044637669234812	 
7.5	 -1.5239797336423757	 0.09380048910679717	 
7.5	 -1.5143795585131015	 -0.12347364097553967	 
7.5	 -1.485708376539949	 -0.3370494045622153	 
7.5	 -1.431668011029371	 -0.5334984019831048	 
7.5	 -1.3459588276626235	 -0.6993898825347116	 
7.5	 -1.222281192120962	 -0.8212930955135385	 
7.5	 -1.0543354700856442	 -0.8857772902160883	 
7.5	 -0.8358220272379232	 -0.879411715938865	 
8.0	 -0.5574073766600955	 -0.5400044308064587	 
8.0	 -0.34211517473570724	 -0.5671565643048689	 
8.0	 -0.15286750637765936	 -0.6129126523275507	 
8.0	 0.01978637452281179	 -0.6756145311357274	 
8.0	 0.18529721407447008	 -0.7536040369906238	 
8.0	 0.35311575838607895	 -0.8452230061534631	 
8.0	 0.5326927535664019	 -0.9488132748854695	 
8.0	 0.733478945724203	 -1.0627166794478673	 
8.0	 0.9600932102029965	 -1.1810743562741508	 
8.0	 1.1835703161390159	 -1.268830313808799	 
8.0	 1.3606861357318438	 -1.2785322550453704	 
8.0	 1.4514350876868676	 -1.166181420098283	 
8.0	 1.4769555418195293	 -0.9531896077794882	 
8.0	 1.5086546136274714	 -0.7160272122675757	 
8.0	 1.563289817386397	 -0.49106087234143575	 
8.0	 1.6153666009339318	 -0.2831794752858219	 
8.0	 1.6383740821648365	 -0.09651474349215575	 
8.0	 1.605801378973872	 0.06480160064813885	 
8.0	 1.4997662550742743	 0.19931655288367423	 
8.0	 1.3394585114922033	 0.3170859298055616	 
8.0	 1.1540219965470733	 0.43125573012759355	 
8.0	 0.972600683910335	 0.5549719914784497	 
8.0	 0.8243056971443956	 0.7013638369688115	 
8.0	 0.7248821674783936	 0.8766782415377852	 
8.0	 0.6562429069529334	 1.069741922216355	 
8.0	 0.5950289409450612	 1.2666671535876213	 
8.0	 0.5178812948318231	 1.4535662102346838	 
8.0	 0.4016121802188833	 1.6165765179510028	 
8.0	 0.2378048566563063	 1.7440057105959041	 
8.0	 0.043986836159556106	 1.8279732318728898	 
8.0	 -0.15968378159142765	 1.8609850195642093	 
8.0	 -0.35592522758077283	 1.8381637123246535	 
8.0	 -0.5424434826852766	 1.7682668408996427	 
8.0	 -0.7218105648872712	 1.6644787440156579	 
8.0	 -0.8966010523053618	 1.5399860894467048	 
8.0	 -1.0684200808438302	 1.4068357631884385	 
8.0	 -1.2308188275981566	 1.267605540692076	 
8.0	 -1.3733587745928788	 1.1201824776569391	 
8.0	 -1.4855728462497546	 0.9624200543564048	 
8.0	 -1.5572248959004626	 0.7922234393321435	 
8.0	 -1.5852620112898532	 0.6091056073884322	 
8.0	 -1.575039927741248	 0.41446162090445654	 
8.0	 -1.5323922997750958	 0.2097935137758497	 
8.0	 -1.4631527819118457	 -0.0033966801017587256	 
8.0	 -1.3731478810213469	 -0.22358706107076654	 
8.0	 -1.2655355887502326	 -0.4418390143593951	 
8.0	 -1.1368186938859948	 -0.63071684367132	 
8.0	 -0.9824796850773094	 -0.7599490901877785	 
8.0	 -0.798001050972854	 -0.7992642950900086	 
8.0	 -0.6026344602171966	 -0.7237044297730827	 
8.5	 -0.40806129839877076	 -0.6235140513572865	 
8.5	 -0.1699506952166296	 -0.6256001916644605	 
8.5	 0.022490285069580496	 -0.6814950243604856	 
8.5	 0.18421024848448628	 -0.7757591247063798	 
8.5	 0.33015780105271464	 -0.8929530679631614	 
8.5	 0.4752815487988923	 -1.0176374293918486	 
8.5	 0.6345300977476456	 -1.134372784253459	 
8.5	 0.822852040886812	 -1.2277197078110127	 
8.5	 1.0435548626476399	 -1.2822405622146393	 
8.5	 1.2548244783180025	 -1.2825046356859793	 
8.5	 1.4039517519010039	 -1.2130989671211179	 
8.5	 1.460053666218552	 -1.068427719767353	 
8.5	 1.4511212571174283	 -0.8693758940928965	 
8.5	 1.414972976770433	 -0.6412487436088672	 
8.5	 1.3894272445747458	 -0.4093515123088221	 
8.5	 1.3974188302226778	 -0.1946674495569226	 
8.5	 1.4046557669183806	 -0.0015619957347102163	 
8.5	 1.3640204102068048	 0.16971816747957982	 
8.5	 1.2606590309842962	 0.3232945480714509	 
8.5	 1.1195842468910584	 0.4686861317311715	 
8.5	 0.9682767704375758	 0.6157460578431295	 
8.5	 0.8342173141343322	 0.7743274657917132	 
8.5	 0.7383554002873781	 0.9513096805339324	 
8.5	 0.6641656525426133	 1.1365087673739833	 
8.5	 0.5817813590539163	 1.3136661475274916	 
8.5	 0.4634359108371191	 1.4672689687064744	 
8.5	 0.30573479662650793	 1.5904774092722238	 
8.5	 0.12089879966817124	 1.682008490885403	 
8.5	 -0.07859587954428682	 1.7406701277363883	 
8.5	 -0.2804050167445852	 1.7653205360302906	 
8.5	 -0.47781922044410213	 1.7569656175604105	 
8.5	 -0.6717548096461696	 1.7195177718227341	 
8.5	 -0.8636697163403433	 1.6570958311304733	 
8.5	 -1.054280988503793	 1.5735746749177477	 
8.5	 -1.2381676626171185	 1.470808103001007	 
8.5	 -1.4068752743385082	 1.3496510661906669	 
8.5	 -1.5519278397137097	 1.210951429476257	 
8.5	 -1.6648493747884738	 1.055557057847303	 
8.5	 -1.7374672513911347	 0.8843877191030043	 
8.5	 -1.767936634445408	 0.6998630242256665	 
8.5	 -1.760399447257101	 0.505821593734247	 
8.5	 -1.7192326963383648	 0.30615776867130107	 
8.5	 -1.6488133882013494	 0.10476589007938512	 
8.5	 -1.5535185293582037	 -0.09445970099894774	 
8.5	 -1.4377228870626417	 -0.287616694005755	 
8.5	 -1.3045542739069618	 -0.46636486974586266	 
8.5	 -1.153822350837236	 -0.6105547153055012	 
8.5	 -0.9847909266283812	 -0.6980940312081946	 
8.5	 -0.7970367803280572	 -0.708363333295467	 
8.5	 -0.5988309639321625	 -0.6616549749373564	 
9.0	 -0.7387821657357186	 -0.7089672317974057	 
9.0	 -0.5670795819256457	 -0.7688775905703484	 
9.0	 -0.3831948910996202	 -0.8073076416190332	 
9.0	 -0.19220108363386484	 -0.8329468871544321	 
9.0	 0.0008288500953979872	 -0.854484829387516	 
9.0	 0.19082191971194556	 -0.8806109705292564	 
9.0	 0.37270513483955525	 -0.9200148127906249	 
9.0	 0.5434850486923604	 -0.9791880307216753	 
9.0	 0.7123899099362734	 -1.0517054355512034	 
9.0	 0.8930983401731218	 -1.1264383291488773	 
9.0	 1.093834082253089	 -1.1883745702772246	 
9.0	 1.2759693214103032	 -1.1892447519726428	 
9.0	 1.3866260943755604	 -1.0767604551940404	 
9.0	 1.433181133635905	 -0.8798389414737066	 
9.0	 1.4464388634400531	 -0.6588754460952059	 
9.0	 1.4476681525452044	 -0.45420334390294853	 
9.0	 1.4385141458214408	 -0.26495086818963637	 
9.0	 1.4182208176794684	 -0.08520436676092133	 
9.0	 1.3860321425299924	 0.09094981257754499	 
9.0	 1.3411658116852654	 0.26927528768483383	 
9.0	 1.2818283811856923	 0.44976371583276215	 
9.0	 1.2049190177168227	 0.624943658069963	 
9.0	 1.1072501249589635	 0.7868483978490651	 
9.0	 0.9867957097192632	 0.9291529432849973	 
9.0	 0.84944716332934	 1.0567221530831428	 
9.0	 0.7043991000335678	 1.1790894189406183	 
9.0	 0.560844106849647	 1.3057864730308697	 
9.0	 0.4233885824522204	 1.4402880092971202	 
9.0	 0.2853181431371668	 1.571117218051473	 
9.0	 0.13820237718035086	 1.6845309092169416	 
9.0	 -0.025790568611409215	 1.7674411366022633	 
9.0	 -0.20656784925694796	 1.815435145758264	 
9.0	 -0.3984241254224512	 1.8302441972618932	 
9.0	 -0.5955352626746393	 1.81372959705501	 
9.0	 -0.7920771265802322	 1.767752651079472	 
9.0	 -0.9822255827059505	 1.694174665277139	 
9.0	 -1.159921727204924	 1.5948979727227723	 
9.0	 -1.3134677414593539	 1.4728103351387074	 
9.0	 -1.4253907015836007	 1.3318087428674827	 
9.0	 -1.4820164268192344	 1.1754983457434989	 
9.0	 -1.4900454492831319	 1.0057902533066039	 
9.0	 -1.462554904380655	 0.824065397175652	 
9.0	 -1.4126241200182934	 0.6317045266756287	 
9.0	 -1.3533324241025375	 0.43008839113151687	 
9.0	 -1.2977591445398766	 0.2205977398683015	 
9.0	 -1.2561422463947693	 0.006224520459794128	 
9.0	 -1.2113940214219143	 -0.1945442632980805	 
9.0	 -1.1311754683824216	 -0.35457334340318175	 
9.0	 -0.9848583213724379	 -0.4485338619702815	 
9.0	 -0.8114910002945944	 -0.5216587123335139	 
9.5	 -0.553489662278901	 -0.7217467971642071	 
9.5	 -0.3218390261370682	 -0.6670440040953621	 
9.5	 -0.12082209428552913	 -0.6592533673996452	 
9.5	 0.05757138240702586	 -0.689289663768091	 
9.5	 0.2213516530719073	 -0.7480676698917326	 
9.5	 0.37852896684042514	 -0.8265021624616038	 
9.5	 0.5371135728438894	 -0.9155079181687382	 
9.5	 0.7051157202136105	 -1.00599971370417	 
9.5	 0.8905456580808983	 -1.0888923257589325	 
9.5	 1.0912205929510266	 -1.1446326438975458	 
9.5	 1.260708568831633	 -1.1082935108789727	 
9.5	 1.3680779636036784	 -0.9512391051813825	 
9.5	 1.4454060459903895	 -0.7559427329939845	 
9.5	 1.5020858709227376	 -0.5627758622068252	 
9.5	 1.527530116103534	 -0.3755616431705273	 
9.5	 1.5108562051527	 -0.19758314434170776	 
9.5	 1.4453259331483577	 -0.03084999516453207	 
9.5	 1.3450007798215715	 0.1290192839549172	 
9.5	 1.2304534879719133	 0.28840688526273706	 
9.5	 1.1222590462314548	 0.453695691067902	 
9.5	 1.035694628561695	 0.6291401752765803	 
9.5	 0.9650340887916196	 0.8105566828990535	 
9.5	 0.8993470194070243	 0.9916707357926626	 
9.5	 0.8277030128937067	 1.1662078558147473	 
9.5	 0.739171661737463	 1.3278935648226466	 
9.5	 0.6233593498931331	 1.4706769036491718	 
9.5	 0.4792722237921322	 1.5924209568472467	 
9.5	 0.31392268169989734	 1.694322597434208	 
9.5	 0.1345734017501189	 1.7776778821844124	 
9.5	 -0.052685813957474445	 1.8422325445806498	 
9.5	 -0.24437934574542985	 1.8842768566756145	 
9.5	 -0.43738487823439304	 1.8996340881564489	 
9.5	 -0.6285800960450106	 1.8841275087102969	 
9.5	 -0.814842683797929	 1.833580388024301	 
9.5	 -0.992151753944944	 1.7453881455972686	 
9.5	 -1.152218098990971	 1.6244140912469194	 
9.5	 -1.285486472446977	 1.4777366078089142	 
9.5	 -1.3824014273401808	 1.3124344288870535	 
9.5	 -1.433900608135787	 1.1354729918782507	 
9.5	 -1.4421790577641755	 0.9512311539890197	 
9.5	 -1.4206429104941651	 0.7615118320913075	 
9.5	 -1.383182130557886	 0.5680067748326703	 
9.5	 -1.3436851536248648	 0.3724079148355972	 
9.5	 -1.310494904839301	 0.17707463198215834	 
9.5	 -1.273933192436591	 -0.013464705969617203	 
9.5	 -1.2206674761074434	 -0.19424190071578953	 
9.5	 -1.1373652155425675	 -0.36028875395241866	 
9.5	 -1.0071749028291312	 -0.4975627541556264	 
9.5	 -0.8028982020314293	 -0.5481375630663847	 
9.5	 -0.6044847563524068	 -0.575851204885207	 
10.0	 -0.8817009930901273	 -0.5895461128526566	 
10.0	 -0.6774402075335759	 -0.5462195156394821	 
10.0	 -0.4892699075757199	 -0.5582414559048505	 
10.0	 -0.3135259230911399	 -0.6121149982385393	 
10.0	 -0.14654408395441695	 -0.6943432072303257	 
10.0	 0.015339779959868127	 -0.7914291474699875	 
10.0	 0.17578983877713433	 -0.8898758835473017	 
10.0	 0.3384702626228011	 -0.9761864800520461	 
10.0	 0.5070482990525434	 -1.0397821561104315	 
10.0	 0.6852090866261591	 -1.087049166771338	 
10.0	 0.8766440864477769	 -1.1304884491119667	 
10.0	 1.0778801743549484	 -1.172374865838775	 
10.0	 1.258990453807608	 -1.1771954457245974	 
10.0	 1.3868820878550012	 -1.1048155417396028	 
10.0	 1.4579299159754047	 -0.956197681917836	 
10.0	 1.4855074961197978	 -0.756011703236303	 
10.0	 1.4831936017830543	 -0.5292136470883482	 
10.0	 1.4645670062670944	 -0.3007595544911885	 
10.0	 1.4406095049516936	 -0.0905430923997143	 
10.0	 1.4120457141320975	 0.101536727136538	 
10.0	 1.3770682282013607	 0.2805166452346566	 
10.0	 1.3338696415525393	 0.45143340301172974	 
10.0	 1.2806425485786874	 0.6193237415848473	 
10.0	 1.2155956769423046	 0.7890153137653129	 
10.0	 1.1373311530851307	 0.9602372965385849	 
10.0	 1.0448573249473587	 1.127454207722156	 
10.0	 0.9372012391095798	 1.2848882294398947	 
10.0	 0.8133899421523841	 1.426761543815668	 
10.0	 0.6724987329853869	 1.547384424505159	 
10.0	 0.5151101846857967	 1.6438188898563972	 
10.0	 0.3435749181666035	 1.716354782559223	 
10.0	 0.16034437807024485	 1.7654660134500206	 
10.0	 -0.03212999096084233	 1.791626493365173	 
10.0	 -0.2313967442842216	 1.7953101331410657	 
10.0	 -0.43496116361714476	 1.7769828147812028	 
10.0	 -0.637490494100915	 1.7365838613676032	 
10.0	 -0.8291081647172881	 1.6732095529585667	 
10.0	 -0.9995293033650066	 1.585880414923486	 
10.0	 -1.1384690379428113	 1.4736169726317556	 
10.0	 -1.2358204116258533	 1.3354933787364298	 
10.0	 -1.2898728551566125	 1.173114627912026	 
10.0	 -1.3107659290662637	 0.9916575850199151	 
10.0	 -1.3095336645054994	 0.7965687265625098	 
10.0	 -1.2972100926250127	 0.5932945290422197	 
10.0	 -1.2848157872740276	 0.38728163639326885	 
10.0	 -1.2772557453677507	 0.18405278077058645	 
10.0	 -1.2636687472174517	 -0.010673147012181715	 
10.0	 -1.2306872828688356	 -0.19114607361046282	 
10.0	 -1.1649438423676068	 -0.35161592567968336	 
10.0	 -1.053070915759469	 -0.48633262987527254	 
10.5	 -0.3264631048879585	 -0.7646473189189018	 
10.5	 -0.14429781775658818	 -0.6840324329308718	 
10.5	 0.03835964272105609	 -0.6884229028515172	 
10.5	 0.22137230350002712	 -0.7541615304116626	 
10.5	 0.40460319153537816	 -0.8575911173421292	 
10.5	 0.5879153337821625	 -0.9750544653737405	 
10.5	 0.7711717571954331	 -1.082894376237319	 
10.5	 0.9542354887302433	 -1.1574536516636875	 
10.5	 1.1369695553416461	 -1.175075093383669	 
10.5	 1.3161214279608617	 -1.1158761617099369	 
10.5	 1.4598746419331774	 -0.9947612900812781	 
10.5	 1.5414440494272599	 -0.8371262373560968	 
10.5	 1.5708005269634162	 -0.6535630406151869	 
10.5	 1.561754242498708	 -0.45310461661766915	 
10.5	 1.5281153639902	 -0.2447838821226649	 
10.5	 1.4836940593949552	 -0.03763375388929527	 
10.5	 1.4409148907724225	 0.16027990475914214	 
10.5	 1.4013091764820027	 0.3484939325126206	 
10.5	 1.3612581924507443	 0.5301395279273753	 
10.5	 1.3171126016811814	 0.7083692551830738	 
10.5	 1.2652230671758493	 0.8863356784593823	 
10.5	 1.2019404380965482	 1.0671872368849666	 
10.5	 1.1237892429579481	 1.2502238574848412	 
10.5	 1.027789665377529	 1.4237623847765752	 
10.5	 0.9110497324693175	 1.5741731638574028	 
10.5	 0.7706776300167265	 1.6878269311188017	 
10.5	 0.605604377759386	 1.7555897099308038	 
10.5	 0.42110750578113876	 1.783978639450659	 
10.5	 0.2238448905001764	 1.7829149280222447	 
10.5	 0.02047440833469112	 1.7623197839894378	 
10.5	 -0.1824617601223042	 1.7316276187863182	 
10.5	 -0.3801978457310628	 1.6927984893949926	 
10.5	 -0.5693590881454572	 1.6419397024394378	 
10.5	 -0.7466078941761181	 1.575002181571053	 
10.5	 -0.9086066706336764	 1.4879368504412374	 
10.5	 -1.052017859243177	 1.376694732337987	 
10.5	 -1.1740924113212792	 1.23890630286433	 
10.5	 -1.274165943195824	 1.078151125843729	 
10.5	 -1.35203544530444	 0.8993254060309426	 
10.5	 -1.4074979041734035	 0.7073253510423997	 
10.5	 -1.43970823183258	 0.5075169309713512	 
10.5	 -1.4453923946634837	 0.30704321113941935	 
10.5	 -1.4207020899432987	 0.11346741072626104	 
10.5	 -1.361789014949209	 -0.06564725108847022	 
10.5	 -1.2648320120080294	 -0.22276173436767216	 
10.5	 -1.1323274198606699	 -0.3559642601375562	 
10.5	 -0.9811392920726202	 -0.47612387644623777	 
10.5	 -0.8164806989893136	 -0.5675089401499623	 
10.5	 -0.6238821398812343	 -0.5813903955057501	 
10.5	 -0.44321834248261505	 -0.6072359234698319	 
11.0	 -1.029300470931331	 -0.7374403126816458	 
11.0	 -0.7320592336110172	 -0.48440932497591155	 
11.0	 -0.49201547336746376	 -0.3270895365508387	 
11.0	 -0.29937836388773054	 -0.2531098043381963	 
11.0	 -0.1443570788588767	 -0.2500989852697525	 
11.0	 -0.017160791967961997	 -0.305685936277276	 
11.0	 0.09200132309795386	 -0.4074995142925353	 
11.0	 0.19292009265181165	 -0.5431685762472989	 
11.0	 0.2953863430065514	 -0.7003219790733353	 
11.0	 0.4091909004751139	 -0.8665885797024132	 
11.0	 0.5441245830875515	 -1.0295972312195776	 
11.0	 0.7058889928389698	 -1.1750776806140775	 
11.0	 0.8844456408770222	 -1.2814496911958173	 
11.0	 1.0659694373046011	 -1.325374460069101	 
11.0	 1.2367951603926437	 -1.2848279277123762	 
11.0	 1.3864970171990942	 -1.164426844877969	 
11.0	 1.5076627386329178	 -0.9935709479768955	 
11.0	 1.5931387665789134	 -0.8022525743364082	 
11.0	 1.6408828123574828	 -0.6080503774240513	 
11.0	 1.655221693786899	 -0.4130744318094022	 
11.0	 1.6408817173276977	 -0.21846457839052644	 
11.0	 1.602589189440414	 -0.02536065806549044	 
11.0	 1.5450704165855842	 0.16509748826764162	 
11.0	 1.4730511777792854	 0.3517699730408301	 
11.0	 1.3901621635402333	 0.5334200117514014	 
11.0	 1.2966336430492718	 0.7085099397350363	 
11.0	 1.1920378136677918	 0.8754438640269366	 
11.0	 1.0759468727571844	 1.0326258916623046	 
11.0	 0.9479330176788388	 1.1784601296763415	 
11.0	 0.8075684457941467	 1.3113506851042493	 
11.0	 0.6544253544644973	 1.4297016649812324	 
11.0	 0.48820904093519923	 1.5317925150347305	 
11.0	 0.31028317002744465	 1.614349454462829	 
11.0	 0.12313654364271003	 1.6730448994420888	 
11.0	 -0.07072063929746633	 1.703531225707076	 
11.0	 -0.26877817987154623	 1.7014608089923589	 
11.0	 -0.4673701696807505	 1.6633567536392668	 
11.0	 -0.6569337874021376	 1.5901849853692251	 
11.0	 -0.8260302668619539	 1.4843247944892042	 
11.0	 -0.9632200557951196	 1.3481560635590017	 
11.0	 -1.057933289036569	 1.1843492731696117	 
11.0	 -1.110405481993664	 0.9991854235122689	 
11.0	 -1.1281883667070158	 0.8013901619960373	 
11.0	 -1.118972093191065	 0.5997353871364676	 
11.0	 -1.0905424184041472	 0.40236832329111755	 
11.0	 -1.0516829546450066	 0.2109164336039264	 
11.0	 -1.0117709679950342	 0.023128381607615024	 
11.0	 -0.9801915923764555	 -0.16329857585845722	 
11.0	 -0.9663299617114951	 -0.35066718195492996	 
11.0	 -0.9795712099223788	 -0.5412801798424464	 
11.5	 -0.5990989307794575	 -0.717597347860518	 
11.5	 -0.40567305045058716	 -0.7353704139862585	 
11.5	 -0.2111295341893496	 -0.6236709425904777	 
11.5	 -0.024029413301276087	 -0.47041930206272053	 
11.5	 0.14706628090810225	 -0.3635358607925317	 
11.5	 0.2941399614902067	 -0.38728485039926824	 
11.5	 0.42183258309219196	 -0.5407674884917593	 
11.5	 0.547532791634301	 -0.7373222053718155	 
11.5	 0.6878804341515202	 -0.8981354936891697	 
11.5	 0.85218561114279	 -1.0094299814846763	 
11.5	 1.0472106231323346	 -1.0800346807021448	 
11.5	 1.262267860157892	 -1.1060304463919863	 
11.5	 1.4182023530169623	 -1.0336710881679039	 
11.5	 1.4806821600895952	 -0.8516796766447334	 
11.5	 1.4912273976942994	 -0.6160160989941762	 
11.5	 1.492338097500087	 -0.382105468542164	 
11.5	 1.4956525058973003	 -0.1659214797977473	 
11.5	 1.4970469803404232	 0.036711003270404614	 
11.5	 1.4922714054242074	 0.23012879022330607	 
11.5	 1.477075665743402	 0.41866869062197265	 
11.5	 1.4472096458927592	 0.6066675140274185	 
11.5	 1.3985241113781897	 0.7981208812881445	 
11.5	 1.3287314483509574	 0.9907282374561925	 
11.5	 1.2371817156779363	 1.176650264710359	 
11.5	 1.1232808327679855	 1.347858719632106	 
11.5	 0.9864347190299655	 1.4963253588028975	 
11.5	 0.8268823426141019	 1.6158565045207318	 
11.5	 0.6483329641307751	 1.707900864525914	 
11.5	 0.4553993605422111	 1.7758968982276708	 
11.5	 0.25269431096215517	 1.8232830697733675	 
11.5	 0.0448305945043494	 1.853497843310371	 
11.5	 -0.16368140332384623	 1.869520323060669	 
11.5	 -0.3696134568684483	 1.8685775660690807	 
11.5	 -0.570610343746472	 1.843980147369705	 
11.5	 -0.7643335951173098	 1.7889634819720317	 
11.5	 -0.9483326322537882	 1.6969575203777398	 
11.5	 -1.1161339065273295	 1.5683729571942029	 
11.5	 -1.256223992800156	 1.412365789404227	 
11.5	 -1.3567707312534396	 1.2386450892809	 
11.5	 -1.407214926271057	 1.0564139592653405	 
11.5	 -1.4126008870882183	 0.8686735184977912	 
11.5	 -1.3884357676100494	 0.674266180203338	 
11.5	 -1.3504197924995234	 0.4719576170524629	 
11.5	 -1.3142531864196154	 0.26051350171564475	 
11.5	 -1.2956354335905282	 0.03869987783346929	 
11.5	 -1.2974723407360518	 -0.18830743554376864	 
11.5	 -1.2773039900978995	 -0.3926038843862923	 
11.5	 -1.1828103310340399	 -0.5413609346847621	 
11.5	 -0.9969901777186148	 -0.6224204408632671	 
11.5	 -0.779279249858768	 -0.6683590056522226	 
12.0	 -0.05498119086606053	 -0.5525351820711357	 
12.0	 0.07176934078823605	 -0.5377531906401457	 
12.0	 0.2435667072989791	 -0.6163429134093023	 
12.0	 0.4452324637922277	 -0.7504805338489727	 
12.0	 0.6615881653940411	 -0.9023422354295247	 
12.0	 0.877455367230478	 -1.0341042016213249	 
12.0	 1.0776556244275974	 -1.1079426158947412	 
12.0	 1.2470104921114593	 -1.0860336617201407	 
12.0	 1.3740688389359355	 -0.9469851000009667	 
12.0	 1.4653062065460893	 -0.7483502863649716	 
12.0	 1.529521203587881	 -0.5463040608176004	 
12.0	 1.5693029665329634	 -0.3461618063349716	 
12.0	 1.5864919712107919	 -0.14710739081376337	 
12.0	 1.582928693450821	 0.051675317849346564	 
12.0	 1.5604536090825054	 0.25100245175767943	 
