91.0	 -1.09637130204	 0.815784814509	 
91.0	 -1.17274802669	 0.773339887983	 
91.0	 -1.21555097876	 0.723367466785	 
91.0	 -1.22910971861	 0.656257983244	 
91.0	 -1.21775380659	 0.562401869694	 
91.0	 -1.18599280781	 0.433166175269	 
91.0	 -1.14019458717	 0.270000165137	 
91.0	 -1.08782330672	 0.0803010709435	 
91.0	 -1.03635729797	 -0.128456999125	 
91.0	 -0.993274892461	 -0.348799936883	 
91.0	 -0.964341490194	 -0.573071408267	 
91.0	 -0.942662856697	 -0.792268316102	 
91.0	 -0.915670671855	 -0.99678394	 
91.0	 -0.870769850996	 -1.17700871229	 
91.0	 -0.795365309448	 -1.32333306531	 
91.0	 -0.679492170456	 -1.42770418135	 
91.0	 -0.527411771001	 -1.49048935944	 
91.0	 -0.348173220224	 -1.51488965334	 
91.0	 -0.150829235231	 -1.50410825229	 
91.0	 0.0555674668688	 -1.46134834549	 
92.0	 0.257766922989	 -1.18883321942	 
92.0	 0.451418862273	 -1.24314904624	 
92.0	 0.646216515299	 -1.26687874597	 
92.0	 0.831609768038	 -1.25786719856	 
92.0	 0.997079013634	 -1.21394824838	 
92.0	 1.13661066732	 -1.1313257484	 
92.0	 1.25341899848	 -1.00286550241	 
92.0	 1.35184817173	 -0.821024590192	 
92.0	 1.43604913957	 -0.578825111604	 
92.0	 1.5048103248	 -0.284971090105	 
92.0	 1.55099140172	 0.034495704478	 
92.0	 1.56714523103	 0.352636271329	 
92.0	 1.54585899398	 0.643703448901	 
92.0	 1.48008388639	 0.89459109245	 
92.0	 1.36299035084	 1.09980676846	 
92.0	 1.18775184297	 1.25396267676	 
92.0	 0.952097555867	 1.3539310976	 
92.0	 0.676727828853	 1.40798019111	 
92.0	 0.389566797926	 1.42796180975	 
92.0	 0.118520144133	 1.42572126636	 
92.0	 -0.117320010728	 1.40982459917	 
92.0	 -0.321271133146	 1.38049987619	 
92.0	 -0.500159767491	 1.33666953739	 
92.0	 -0.66072418507	 1.27724580462	 
92.0	 -0.805937281411	 1.20070503646	 
92.0	 -0.933678243209	 1.10493396618	 
92.0	 -1.04146469069	 0.987777473711	 
92.0	 -1.12679013966	 0.847331559033	 
92.0	 -1.18680852533	 0.685229973839	 
92.0	 -1.21842275784	 0.505721649655	 
92.0	 -1.21852986249	 0.313116826613	 
92.0	 -1.18553075508	 0.11281376821	 
92.0	 -1.12743046069	 -0.0828409535439	 
92.0	 -1.05601124407	 -0.258768037777	 
92.0	 -0.983063279232	 -0.39988368765	 
92.0	 -0.917280827325	 -0.496703625538	 
92.0	 -0.857513372556	 -0.557549636181	 
92.0	 -0.800657940211	 -0.594274879938	 
92.0	 -0.743638673061	 -0.618685432161	 
92.0	 -0.68535293462	 -0.639161198147	 
92.0	 -0.627974219557	 -0.658393625634	 
92.0	 -0.573984907643	 -0.678537834687	 
92.0	 -0.525512120764	 -0.701833060777	 
92.0	 -0.477818114157	 -0.732143953097	 
92.0	 -0.419955898103	 -0.774805341176	 
92.0	 -0.340754763632	 -0.835205025178	 
92.0	 -0.23036221285	 -0.917259398758	 
92.0	 -0.0896915777177	 -1.01286787862	 
92.0	 0.0750867840379	 -1.10806191232	 
92.0	 0.257766922989	 -1.18883321942	 
93.0	 -1.07565334989	 0.373564062345	 
93.0	 -0.939908458772	 0.603468643783	 
93.0	 -0.792034463461	 0.821572807534	 
93.0	 -0.629045738306	 1.01975906882	 
93.0	 -0.447956657661	 1.18990994286	 
93.0	 -0.247602185359	 1.32552897123	 
93.0	 -0.0361773857817	 1.4284537927	 
93.0	 0.175123012727	 1.50319290313	 
93.0	 0.375102913987	 1.5542560163	 
93.0	 0.55422202308	 1.58458697312	 
93.0	 0.71394781187	 1.58671969192	 
93.0	 0.860238285245	 1.54894144389	 
93.0	 0.999064694499	 1.45952697325	 
93.0	 1.13513873011	 1.30909748463	 
93.0	 1.26220923838	 1.10869707916	 
93.0	 1.3683803671	 0.879885476959	 
93.0	 1.44170961371	 0.644309304111	 
93.0	 1.47124968414	 0.42236805597	 
93.0	 1.45762258374	 0.219963333267	 
93.0	 1.40891438198	 0.0336432563296	 
93.0	 1.33333554939	 -0.140199945856	 
93.0	 1.23882493309	 -0.304875658534	 
93.0	 1.12897619777	 -0.458919964588	 
93.0	 1.00388833154	 -0.59702994867	 
93.0	 0.863561334393	 -0.71379395426	 
93.0	 0.708135157539	 -0.804044601	 
93.0	 0.540968629828	 -0.868232860269	 
93.0	 0.368639457768	 -0.912428055175	 
93.0	 0.197865299067	 -0.942943784991	 
93.0	 0.035327815752	 -0.966017530171	 
93.0	 -0.11356212162	 -0.985199472405	 
93.0	 -0.244973708844	 -1.00069848173	 
93.0	 -0.355174913861	 -1.01251455815	 
93.0	 -0.440535068443	 -1.02062543146	 
93.0	 -0.503505334389	 -1.02367262	 
93.0	 -0.555963710032	 -1.01822651428	 
93.0	 -0.610599104378	 -1.00067934328	 
93.0	 -0.680049888494	 -0.967451521717	 
93.0	 -0.770839343421	 -0.91837393531	 
93.0	 -0.877614335671	 -0.859901111891	 
93.0	 -0.993657207537	 -0.799248593484	 
93.0	 -1.11224569386	 -0.74361452353	 
93.0	 -1.22509560497	 -0.694298924452	 
93.0	 -1.32009396272	 -0.638143592829	 
93.0	 -1.38455185811	 -0.559815501857	 
93.0	 -1.40578268586	 -0.443984408505	 
93.0	 -1.37615190632	 -0.281424885972	 
93.0	 -1.30378935969	 -0.0819608724537	 
93.0	 -1.19989114215	 0.140878490751	 
93.0	 -1.07565334989	 0.373564062345	 
94.0	 1.39532368287	 -0.760636673687	 
94.0	 1.53483648207	 -0.608037262408	 
94.0	 1.57694857454	 -0.445398416177	 
94.0	 1.55501636669	 -0.272720134993	 
94.0	 1.50055459598	 -0.0904064245385	 
94.0	 1.42812523635	 0.0974197931927	 
94.0	 1.34315386791	 0.284631351641	 
94.0	 1.2508645157	 0.465237826967	 
94.0	 1.1534252638	 0.637472187557	 
94.0	 1.04967053228	 0.804174614603	 
94.0	 0.938262506869	 0.968404062467	 
94.0	 0.817109073763	 1.13017897093	 
94.0	 0.682435177258	 1.28273399015	 
94.0	 0.530238048584	 1.41838587909	 
94.0	 0.356514918972	 1.52986784735	 
94.0	 0.157263019651	 1.61194876503	 
94.0	 -0.0715204181472	 1.66001853572	 
94.0	 -0.332125044048	 1.66923956322	 
94.0	 -0.606925497627	 1.63212780163	 
94.0	 -0.865448024876	 1.53949181816	 
94.0	 -1.0773889977	 1.38240676003	 
94.0	 -1.22738312104	 1.16341731666	 
94.0	 -1.31947052285	 0.8999675185	 
94.0	 -1.35899086372	 0.610498965247	 
94.0	 -1.35289183012	 0.314564423991	 
94.0	 -1.31245793552	 0.0347134673024	 
94.0	 -1.24969748623	 -0.206004181715	 
94.0	 -1.17546072001	 -0.388706721078	 
94.0	 -1.09365895143	 -0.519485727817	 
94.0	 -1.00563065366	 -0.613692507229	 
94.0	 -0.912950249065	 -0.686195667365	 
94.0	 -0.820785756893	 -0.744414145768	 
94.0	 -0.737071554345	 -0.790032108874	 
94.0	 -0.669714345164	 -0.82458620489	 
94.0	 -0.620690805285	 -0.849613082021	 
94.0	 -0.582786067545	 -0.866649388476	 
94.0	 -0.547994396735	 -0.877231848346	 
94.0	 -0.507501201857	 -0.883207702484	 
94.0	 -0.449840576478	 -0.887442021988	 
94.0	 -0.36300421429	 -0.893008103271	 
94.0	 -0.238399505	 -0.903110370062	 
94.0	 -0.0926779666913	 -0.921922358889	 
94.0	 0.046194389501	 -0.954051965511	 
94.0	 0.152188563078	 -1.0033320838	 
94.0	 0.238612788334	 -1.05823823162	 
94.0	 0.354835403318	 -1.09316795276	 
94.0	 0.551157539456	 -1.08213421156	 
94.0	 0.836549022698	 -1.01317968435	 
94.0	 1.14328860604	 -0.900379461633	 
94.0	 1.39532368287	 -0.760636673687	 
95.0	 0.823173690334	 -1.19969783043	 
95.0	 1.02461939153	 -1.10105550362	 
95.0	 1.18194923615	 -0.976016421056	 
95.0	 1.29728644721	 -0.832043539857	 
95.0	 1.37275424778	 -0.676599817152	 
95.0	 1.41102100169	 -0.516296598616	 
95.0	 1.41755777634	 -0.353366884968	 
95.0	 1.39873383129	 -0.188640533493	 
95.0	 1.36091883569	 -0.0229467616502	 
95.0	 1.31000462424	 0.143205127245	 
95.0	 1.24870638857	 0.311432619099	 
95.0	 1.17844343338	 0.484220806974	 
95.0	 1.1006312407	 0.664057343245	 
95.0	 1.01608813608	 0.852088880178	 
95.0	 0.920434971985	 1.03779040243	 
95.0	 0.806616455178	 1.2046272275	 
95.0	 0.667555175511	 1.33601500624	 
95.0	 0.497152327695	 1.4167207068	 
95.0	 0.300685387939	 1.44722036144	 
95.0	 0.0907713689034	 1.43812488244	 
95.0	 -0.119850391147	 1.40021409677	 
95.0	 -0.318791762234	 1.34396607237	 
95.0	 -0.499282923041	 1.27503161269	 
95.0	 -0.659072659166	 1.19517912314	 
95.0	 -0.796037747564	 1.10606703865	 
95.0	 -0.908113943609	 1.00923286657	 
95.0	 -0.994593506287	 0.90343278073	 
95.0	 -1.05612519819	 0.784641621373	 
95.0	 -1.09341676034	 0.648713301211	 
95.0	 -1.10725272857	 0.49167168734	 
95.0	 -1.10112880284	 0.315540716586	 
95.0	 -1.08191166834	 0.129804643607	 
95.0	 -1.05667873522	 -0.0555859220976	 
95.0	 -1.03245498836	 -0.230736675918	 
95.0	 -1.01311989702	 -0.389131606591	 
95.0	 -0.99767738127	 -0.529491057546	 
95.0	 -0.984711959068	 -0.650985811325	 
95.0	 -0.972791560709	 -0.752806085252	 
95.0	 -0.958477007199	 -0.836493705541	 
95.0	 -0.934431014735	 -0.908157672685	 
95.0	 -0.892868432155	 -0.974431726349	 
95.0	 -0.826007930972	 -1.04193872912	 
95.0	 -0.727364069603	 -1.11361421317	 
95.0	 -0.593628049585	 -1.18335485649	 
95.0	 -0.421968906858	 -1.24369770194	 
95.0	 -0.209558066536	 -1.28718027229	 
95.0	 0.0411935920265	 -1.30739244783	 
95.0	 0.311526085331	 -1.30120786762	 
95.0	 0.57949944192	 -1.26613887928	 
95.0	 0.823173690334	 -1.19969783043	 
96.0	 0.414766032369	 -1.14680810398	 
96.0	 0.605749002912	 -1.16237155653	 
96.0	 0.763935407626	 -1.16429636515	 
96.0	 0.893330933941	 -1.1420235797	 
96.0	 0.997941269285	 -1.08499425006	 
96.0	 1.08190065939	 -0.985166808044	 
96.0	 1.15000430001	 -0.847442168494	 
96.0	 1.20725920384	 -0.680868968746	 
96.0	 1.25867248018	 -0.494497737492	 
96.0	 1.30780242195	 -0.29657881843	 
96.0	 1.34857559104	 -0.0900429254553	 
96.0	 1.37098935942	 0.124349329229	 
96.0	 1.3650295085	 0.345843734898	 
96.0	 1.32194924426	 0.572837593764	 
96.0	 1.2440330603	 0.796343228031	 
96.0	 1.13924538984	 1.00357048084	 
96.0	 1.01559760773	 1.18169776987	 
96.0	 0.880433474254	 1.31872290225	 
96.0	 0.733335730314	 1.41216908721	 
96.0	 0.568880007514	 1.46570495468	 
96.0	 0.381558485637	 1.4831015583	 
96.0	 0.166625325276	 1.46820480533	 
96.0	 -0.0684758415391	 1.42605804355	 
96.0	 -0.306497822105	 1.36266767971	 
96.0	 -0.529915733918	 1.28406739959	 
96.0	 -0.721642816536	 1.1960237727	 
96.0	 -0.874669116957	 1.09815969368	 
96.0	 -0.99206148962	 0.983954382298	 
96.0	 -1.07732491103	 0.846619942045	 
96.0	 -1.13398850461	 0.679668545775	 
96.0	 -1.16643387736	 0.487206015408	 
96.0	 -1.18010259028	 0.286510017971	 
96.0	 -1.18050246359	 0.0956816108399	 
96.0	 -1.17309186458	 -0.0673690290979	 
96.0	 -1.16036198465	 -0.19618455447	 
96.0	 -1.14020489261	 -0.302059503652	 
96.0	 -1.11011703382	 -0.397815458951	 
96.0	 -1.06761571659	 -0.496217044057	 
96.0	 -1.01274266682	 -0.603136889345	 
96.0	 -0.950442404955	 -0.711062348933	 
96.0	 -0.886222751191	 -0.81094289413	 
96.0	 -0.825574526305	 -0.893739635302	 
96.0	 -0.768225739174	 -0.954359322251	 
96.0	 -0.69977785979	 -0.997380758971	 
96.0	 -0.603707427507	 -1.02883763125	 
96.0	 -0.463494845188	 -1.0547629702	 
96.0	 -0.27109319368	 -1.0797540568	 
96.0	 -0.044893554486	 -1.10392808178	 
96.0	 0.191570658747	 -1.12653083441	 
96.0	 0.414766032369	 -1.14680810398	 
97.0	 -0.396248451697	 -1.4591179012	 
97.0	 -0.0869918993492	 -1.51417564879	 
97.0	 0.16113582544	 -1.51680846804	 
97.0	 0.345184740907	 -1.43188626583	 
97.0	 0.471351141461	 -1.25067179221	 
97.0	 0.562296500098	 -1.01194034424	 
97.0	 0.641533566033	 -0.758603791948	 
97.0	 0.716938016217	 -0.518612191169	 
97.0	 0.782859878192	 -0.306974028456	 
97.0	 0.836436971937	 -0.1366637342	 
97.0	 0.896305217333	 -0.00997015736897	 
97.0	 0.989853793114	 0.0751807630561	 
97.0	 1.12784050328	 0.124670692652	 
97.0	 1.27310848653	 0.15529690631	 
97.0	 1.38061035324	 0.185950325648	 
97.0	 1.43323260303	 0.241461342489	 
97.0	 1.45122647267	 0.354605062012	 
97.0	 1.45496823801	 0.554287846474	 
97.0	 1.43596308044	 0.817994108548	 
97.0	 1.36708966881	 1.09003280956	 
97.0	 1.22797734553	 1.31971702954	 
97.0	 1.03163226637	 1.48262714076	 
97.0	 0.800907230242	 1.56218857389	 
97.0	 0.557751279131	 1.55667540538	 
97.0	 0.322215264973	 1.4954969156	 
97.0	 0.113634777788	 1.41128849041	 
97.0	 -0.0596082517766	 1.3207150077	 
97.0	 -0.200085552442	 1.22447083737	 
97.0	 -0.312040178265	 1.12157586059	 
97.0	 -0.409206133581	 1.00326615751	 
97.0	 -0.509842261146	 0.857067358377	 
97.0	 -0.624472923812	 0.680276278277	 
97.0	 -0.73732560119	 0.503369469859	 
97.0	 -0.827299653048	 0.363418571192	 
97.0	 -0.887405433516	 0.272034990249	 
97.0	 -0.932525337975	 0.201366778341	 
97.0	 -0.978727607965	 0.120721940027	 
97.0	 -1.03211655512	 0.00735319321706	 
97.0	 -1.09134745394	 -0.155547273971	 
97.0	 -1.15453953534	 -0.376353810322	 
97.0	 -1.21781558588	 -0.61704942504	 
97.0	 -1.27660786795	 -0.823550536275	 
97.0	 -1.32754385392	 -0.962463094749	 
97.0	 -1.3701825752	 -1.05114956293	 
97.0	 -1.40369897416	 -1.11439389845	 
97.0	 -1.40224554174	 -1.17050927429	 
97.0	 -1.31104618521	 -1.23032795632	 
97.0	 -1.08232499738	 -1.30282680688	 
97.0	 -0.750631964002	 -1.38322905625	 
97.0	 -0.396248451697	 -1.4591179012	 
98.0	 -0.478792856518	 -1.38287765099	 
98.0	 -0.284464323942	 -1.4202468219	 
98.0	 -0.0913968193457	 -1.41550755895	 
98.0	 0.103268375217	 -1.39727972061	 
98.0	 0.302720967234	 -1.3823412524	 
98.0	 0.511084823636	 -1.35404839518	 
98.0	 0.73256676479	 -1.28999202428	 
98.0	 0.960022419955	 -1.18025886106	 
98.0	 1.16335040645	 -1.04020762545	 
98.0	 1.3101197609	 -0.888065878292	 
98.0	 1.3909153895	 -0.732650372118	 
98.0	 1.43018116332	 -0.568933488985	 
98.0	 1.45435135107	 -0.390779428528	 
98.0	 1.47077108924	 -0.192052390387	 
98.0	 1.46617369443	 0.0333834258009	 
98.0	 1.42714019992	 0.290276163985	 
98.0	 1.35393793784	 0.561611352585	 
98.0	 1.25770089801	 0.813095422368	 
98.0	 1.14927595731	 1.01259649526	 
98.0	 1.03357870073	 1.15465997142	 
98.0	 0.912080715457	 1.24932138204	 
98.0	 0.785279916023	 1.3066166746	 
98.0	 0.647288838663	 1.3352763588	 
98.0	 0.489541656297	 1.34348337512	 
98.0	 0.306442139109	 1.33771363852	 
98.0	 0.106613711302	 1.31630321019	 
98.0	 -0.0970821598682	 1.27516238915	 
98.0	 -0.293478613489	 1.2126272366	 
98.0	 -0.477096650256	 1.13517366747	 
98.0	 -0.643647466014	 1.05096963558	 
98.0	 -0.788459633279	 0.964350110169	 
98.0	 -0.905949527665	 0.870511996096	 
98.0	 -0.990473212645	 0.763406221525	 
98.0	 -1.04229074797	 0.644024683261	 
98.0	 -1.07183012232	 0.525485313673	 
98.0	 -1.09039162028	 0.421748005663	 
98.0	 -1.10444590073	 0.333813328885	 
98.0	 -1.11438082313	 0.246359891352	 
98.0	 -1.12019638745	 0.143430199374	 
98.0	 -1.12189259372	 0.0172039764687	 
98.0	 -1.11946944191	 -0.132602969397	 
98.0	 -1.11299146216	 -0.304974804345	 
98.0	 -1.10332935039	 -0.486205021538	 
98.0	 -1.09190179946	 -0.653960539897	 
98.0	 -1.07832720416	 -0.789249408071	 
98.0	 -1.04721360533	 -0.902142473095	 
98.0	 -0.975747111169	 -1.01708080491	 
98.0	 -0.846460811529	 -1.15181676138	 
98.0	 -0.672715057855	 -1.28533352293	 
98.0	 -0.478792856518	 -1.38287765099	 
99.0	 -0.0193897232663	 -1.00995113292	 
99.0	 0.131216497716	 -1.0392550866	 
99.0	 0.280579373209	 -1.05391459659	 
99.0	 0.430662080301	 -1.05257369588	 
99.0	 0.582911650163	 -1.033965543	 
99.0	 0.734023934572	 -0.997643706738	 
99.0	 0.8781342207	 -0.943603901564	 
99.0	 1.00936960369	 -0.871662385579	 
99.0	 1.12230681897	 -0.776666350231	 
99.0	 1.21201310536	 -0.648042333074	 
99.0	 1.27359884315	 -0.474987796942	 
99.0	 1.30605888565	 -0.256282371527	 
99.0	 1.31705485865	 -0.0120847663546	 
99.0	 1.31542105905	 0.234553579433	 
99.0	 1.30812962545	 0.464256064689	 
99.0	 1.2930502441	 0.675609135659	 
99.0	 1.26527565092	 0.872679354139	 
99.0	 1.21980095616	 1.05886500782	 
99.0	 1.15049426102	 1.22978012934	 
99.0	 1.05049656407	 1.3760166513	 
99.0	 0.913125210492	 1.48822744114	 
99.0	 0.739024122379	 1.56268810946	 
99.0	 0.538354704338	 1.60297840917	 
99.0	 0.321911328049	 1.61316195577	 
99.0	 0.0985955716406	 1.59468765859	 
99.0	 -0.127795828873	 1.54195259501	 
99.0	 -0.354318107859	 1.44817692997	 
99.0	 -0.577174529303	 1.30819908298	 
99.0	 -0.787463515077	 1.12655374254	 
99.0	 -0.9743906935	 0.911370818083	 
99.0	 -1.12758263684	 0.671030185734	 
99.0	 -1.24301090571	 0.417563792744	 
99.0	 -1.32153144531	 0.165814957965	 
99.0	 -1.36415008096	 -0.0693592726787	 
99.0	 -1.37332684319	 -0.276617323283	 
99.0	 -1.3537757807	 -0.450066596477	 
99.0	 -1.3104050301	 -0.584283960803	 
99.0	 -1.24891614239	 -0.676860348357	 
99.0	 -1.17761136923	 -0.735266367298	 
99.0	 -1.10532500753	 -0.768993786687	 
99.0	 -1.03938363419	 -0.787187248028	 
99.0	 -0.975970832925	 -0.796425903245	 
99.0	 -0.906275864983	 -0.802139044241	 
99.0	 -0.82173743626	 -0.809681970642	 
99.0	 -0.7191897904	 -0.823054818605	 
99.0	 -0.600413213942	 -0.845015457621	 
99.0	 -0.46738019089	 -0.878241537504	 
99.0	 -0.323023416973	 -0.921873542574	 
99.0	 -0.172057280191	 -0.968488675063	 
99.0	 -0.0193897232663	 -1.00995113292	 
100.0	 -0.355718098303	 -0.988684355679	 
100.0	 -0.186277041491	 -0.99755811205	 
100.0	 -0.013499679458	 -0.999332863324	 
100.0	 0.163355388956	 -0.994008609502	 
100.0	 0.344766985333	 -0.981543094599	 
100.0	 0.525174600973	 -0.960922175032	 
100.0	 0.69297839689	 -0.930159819612	 
100.0	 0.836315954521	 -0.887227741169	 
100.0	 0.946537593665	 -0.829421556809	 
100.0	 1.02784458756	 -0.751332500744	 
100.0	 1.08765094782	 -0.646875711461	 
100.0	 1.13327801088	 -0.510219863346	 
100.0	 1.16991558488	 -0.341364956399	 
100.0	 1.2006219496	 -0.146142316235	 
100.0	 1.22836270967	 0.069363195634	 
100.0	 1.25474423429	 0.298897693766	 
100.0	 1.27593595078	 0.535531196995	 
100.0	 1.28674805103	 0.772164700224	 
100.0	 1.28191349764	 1.00157243041	 
100.0	 1.25438897957	 1.21361295169	 
100.0	 1.19535491219	 1.39522916542	 
100.0	 1.09591448158	 1.53323720498	 
100.0	 0.950136478464	 1.61766465846	 
100.0	 0.763952112118	 1.65138493267	 
100.0	 0.546258196465	 1.64048288913	 
100.0	 0.306090558145	 1.59104338934	 
100.0	 0.0556823162997	 1.50915129483	 
100.0	 -0.189536117424	 1.40089146711	 
100.0	 -0.413995318663	 1.27234876767	 
100.0	 -0.605956435716	 1.12724172302	 
100.0	 -0.769002907521	 0.959823519481	 
100.0	 -0.910548745682	 0.761981008389	 
100.0	 -1.03769904465	 0.526382776736	 
100.0	 -1.15045380443	 0.26367733217	 
100.0	 -1.24170793056	 0.00249310298045	 
100.0	 -1.30404741144	 -0.227759746858	 
100.0	 -1.33215887209	 -0.404432010608	 
100.0	 -1.32913148402	 -0.531918310473	 
100.0	 -1.30015505535	 -0.62137422589	 
100.0	 -1.25051206933	 -0.683870824332	 
100.0	 -1.18761653758	 -0.728535398066	 
100.0	 -1.12101400002	 -0.762551464156	 
100.0	 -1.06034267175	 -0.793018027696	 
100.0	 -1.0110394946	 -0.825512878408	 
100.0	 -0.961736317449	 -0.859528944497	 
100.0	 -0.896863715934	 -0.893037938793	 
100.0	 -0.801392870706	 -0.924032702118	 
100.0	 -0.672728877703	 -0.950992019093	 
100.0	 -0.520710748154	 -0.972880618142	 
100.0	 -0.355718098303	 -0.988684355679	 
101.0	 -0.301361326144	 1.23454485923	 
101.0	 -0.0511849300337	 1.29579096524	 
101.0	 0.190266715313	 1.33093524165	 
101.0	 0.398732087905	 1.32342999394	 
101.0	 0.557756611526	 1.26478013005	 
101.0	 0.672919433579	 1.16921760416	 
101.0	 0.753679640302	 1.05491212322	 
101.0	 0.812379639027	 0.933963906608	 
101.0	 0.867193157865	 0.806198047936	 
101.0	 0.936710859519	 0.670055892015	 
101.0	 1.02452990832	 0.529057696698	 
101.0	 1.11219032529	 0.394195379234	 
101.0	 1.18000520479	 0.276253710191	 
101.0	 1.22257141307	 0.164664951205	 
101.0	 1.24990896546	 0.0258056239851	 
101.0	 1.27216444431	 -0.172285858235	 
101.0	 1.28944131708	 -0.417527137418	 
101.0	 1.29386901145	 -0.662865811487	 
101.0	 1.27735730399	 -0.864168516575	 
101.0	 1.23181597125	 -1.01656764273	 
101.0	 1.14915478982	 -1.13799519496	 
101.0	 1.02366831974	 -1.24419802795	 
101.0	 0.866003053192	 -1.33401425554	 
101.0	 0.693664342174	 -1.39918957682	 
101.0	 0.519684422929	 -1.43328593144	 
101.0	 0.335630284548	 -1.43865124387	 
101.0	 0.126672412263	 -1.42025226014	 
101.0	 -0.113489183037	 -1.38338352133	 
101.0	 -0.362534160934	 -1.33443781658	 
101.0	 -0.592177614974	 -1.28000463453	 
101.0	 -0.783159454295	 -1.2169213936	 
101.0	 -0.937735288155	 -1.11877599352	 
101.0	 -1.06127572805	 -0.956116647454	 
101.0	 -1.15729464288	 -0.727991087304	 
101.0	 -1.2261081985	 -0.482529237349	 
101.0	 -1.26777915239	 -0.271635045639	 
101.0	 -1.28464855908	 -0.108046010902	 
101.0	 -1.28192693451	 0.0448295863146	 
101.0	 -1.26507445221	 0.224722491359	 
101.0	 -1.2408924291	 0.429015904711	 
101.0	 -1.21742424924	 0.617726136215	 
101.0	 -1.20178602317	 0.752450730345	 
101.0	 -1.18892440306	 0.832145528542	 
101.0	 -1.16551376611	 0.881160937475	 
101.0	 -1.1184723837	 0.922851846533	 
101.0	 -1.03805071048	 0.96829801933	 
101.0	 -0.916146813167	 1.02250973192	 
101.0	 -0.746986136299	 1.08893759413	 
101.0	 -0.53801435857	 1.16237429344	 
101.0	 -0.301361326144	 1.23454485923	 
102.0	 1.19895788083	 0.375585282874	 
102.0	 1.28831588411	 0.0493673244736	 
102.0	 1.31941253305	 -0.312238195016	 
102.0	 1.31019280333	 -0.638060761672	 
102.0	 1.27695037838	 -0.864239117284	 
102.0	 1.22077861677	 -0.994194498748	 
102.0	 1.13457892921	 -1.06760886082	 
102.0	 1.01144688661	 -1.12371194725	 
102.0	 0.851876175203	 -1.17999925694	 
102.0	 0.664430934923	 -1.23025684253	 
102.0	 0.45808604627	 -1.26708890146	 
102.0	 0.242323634387	 -1.28687166839	 
102.0	 0.0277575542143	 -1.29439729125	 
102.0	 -0.174845208846	 -1.2955966462	 
102.0	 -0.356906158871	 -1.29419051601	 
102.0	 -0.520544398099	 -1.28309648266	 
102.0	 -0.671142621675	 -1.2519363183	 
102.0	 -0.813729853643	 -1.19098997589	 
102.0	 -0.949214419934	 -1.09819812343	 
102.0	 -1.07584613156	 -0.976443825725	 
102.0	 -1.19179220835	 -0.828708336518	 
102.0	 -1.29373163346	 -0.658587743724	 
102.0	 -1.37641011802	 -0.470476826578	 
102.0	 -1.43444771401	 -0.268826671027	 
102.0	 -1.46462717531	 -0.0598753140391	 
102.0	 -1.46956403751	 0.14531982138	 
102.0	 -1.45284729573	 0.334896982911	 
102.0	 -1.41631371793	 0.498924808592	 
102.0	 -1.35130106498	 0.639038462946	 
102.0	 -1.24525423432	 0.761161792947	 
102.0	 -1.08632236405	 0.870798651673	 
102.0	 -0.873287588467	 0.967063361616	 
102.0	 -0.613117343464	 1.04415157197	 
102.0	 -0.313222239363	 1.09621477987	 
102.0	 0.00502991021678	 1.12234687922	 
102.0	 0.298637626547	 1.12930247898	 
102.0	 0.522742192378	 1.1244949547	 
102.0	 0.6477149907	 1.11443882467	 
102.0	 0.693849529256	 1.10270227974	 
102.0	 0.691652266679	 1.09225075797	 
102.0	 0.66948583518	 1.0852905453	 
102.0	 0.639868649784	 1.07841731882	 
102.0	 0.608217700478	 1.06571206411	 
102.0	 0.580370199843	 1.04135637201	 
102.0	 0.57113053126	 1.00175459391	 
102.0	 0.603523206227	 0.945348666697	 
102.0	 0.700649833171	 0.870576207207	 
102.0	 0.862206455221	 0.767655736239	 
102.0	 1.04445961587	 0.611555075702	 
102.0	 1.19895788083	 0.375585282874	 
103.0	 -0.829516469955	 0.766014750726	 
103.0	 -0.64708086755	 0.976451162755	 
103.0	 -0.455831951018	 1.15992774975	 
103.0	 -0.271633685788	 1.3052112513	 
103.0	 -0.109689038725	 1.40163006998	 
103.0	 0.0300019901701	 1.45143085788	 
103.0	 0.162642367764	 1.46977851658	 
103.0	 0.304096059485	 1.47239961068	 
103.0	 0.465232819419	 1.46977851658	 
103.0	 0.636945556305	 1.45143085788	 
103.0	 0.80513296754	 1.40163006998	 
103.0	 0.955914083377	 1.3053048618	 
103.0	 1.08047558969	 1.16245523335	 
103.0	 1.17507182797	 0.988152475701	 
103.0	 1.23617747258	 0.798123153451	 
103.0	 1.26232363782	 0.606221621129	 
103.0	 1.26026719786	 0.418813392979	 
103.0	 1.23882146682	 0.240391773172	 
103.0	 1.20661614812	 0.0753096501233	 
103.0	 1.16805789881	 -0.0753096501233	 
103.0	 1.12333032963	 -0.213572363898	 
103.0	 1.07243344055	 -0.341725143288	 
103.0	 1.01507345445	 -0.462014640377	 
103.0	 0.949781485631	 -0.576687507252	 
103.0	 0.874794871277	 -0.687990395999	 
103.0	 0.788424392843	 -0.797982737695	 
103.0	 0.69067005033	 -0.904417880256	 
103.0	 0.583221062279	 -1.00074308843	 
103.0	 0.467840091515	 -1.08021840596	 
103.0	 0.3442333609	 -1.13835052868	 
103.0	 0.203881333445	 -1.17963276076	 
103.0	 0.0362080322004	 -1.21080505845	 
103.0	 -0.168628076942	 -1.23823293599	 
103.0	 -0.40357634268	 -1.25966974131	 
103.0	 -0.644693928307	 -1.26425665599	 
103.0	 -0.86730355427	 -1.24076041959	 
103.0	 -1.05142837522	 -1.18094330781	 
103.0	 -1.1958932826	 -1.08854974078	 
103.0	 -1.30422360206	 -0.970319674771	 
103.0	 -1.37994465926	 -0.833086676535	 
103.0	 -1.42658177984	 -0.685837354417	 
103.0	 -1.44766028946	 -0.539711358342	 
103.0	 -1.44670551376	 -0.405941948738	 
103.0	 -1.42636144699	 -0.290520197834	 
103.0	 -1.38574675772	 -0.178468425059	 
103.0	 -1.32309878315	 -0.0495667616411	 
103.0	 -1.23669158257	 0.115608971911	 
103.0	 -1.12564382458	 0.31818210164	 
103.0	 -0.989918787046	 0.54097510014	 
103.0	 -0.829516469955	 0.766014750726	 
104.0	 -0.528551286379	 1.21790601484	 
104.0	 -0.304465928159	 1.20769153354	 
104.0	 -0.104255951896	 1.20346141234	 
104.0	 0.0703813403722	 1.20257549236	 
104.0	 0.219087377877	 1.20204654794	 
104.0	 0.353826756977	 1.1956925656	 
104.0	 0.493205428306	 1.17560975717	 
104.0	 0.655174980177	 1.13387764603	 
104.0	 0.83824974945	 1.0625757556	 
104.0	 1.01974037016	 0.953783609274	 
104.0	 1.17592534906	 0.799619452791	 
104.0	 1.29171906567	 0.600410665848	 
104.0	 1.37130367219	 0.374800290249	 
104.0	 1.42146837678	 0.143909596919	 
104.0	 1.44808240796	 -0.074717721453	 
104.0	 1.45251802395	 -0.281025602234	 
104.0	 1.43477556001	 -0.480293059374	 
104.0	 1.39460356399	 -0.676887763094	 
104.0	 1.32882745246	 -0.864567856323	 
104.0	 1.23238675084	 -1.03024662567	 
104.0	 1.10038870311	 -1.16094857037	 
104.0	 0.935682513639	 -1.25245647665	 
104.0	 0.751174467092	 -1.31193045537	 
104.0	 0.560438956515	 -1.34728785403	 
104.0	 0.374595699033	 -1.36453689195	 
104.0	 0.198144179478	 -1.36453689195	 
104.0	 0.03447900192	 -1.34728785403	 
104.0	 -0.11392596354	 -1.31278977818	 
104.0	 -0.250113707043	 -1.26104266442	 
104.0	 -0.379172781999	 -1.19204651273	 
104.0	 -0.505828477274	 -1.10580132312	 
104.0	 -0.629320401556	 -1.00230709558	 
104.0	 -0.74466527607	 -0.881563830129	 
104.0	 -0.84680262623	 -0.743620418582	 
104.0	 -0.932557868601	 -0.591459262625	 
104.0	 -1.00167955103	 -0.432609704209	 
104.0	 -1.05416800878	 -0.274991698417	 
104.0	 -1.09139550009	 -0.124391169701	 
104.0	 -1.11923125346	 0.020401009511	 
104.0	 -1.14446447704	 0.162024998084	 
104.0	 -1.17316019678	 0.30334624844	 
104.0	 -1.20603127953	 0.448895273194	 
104.0	 -1.24139173859	 0.603948869863	 
104.0	 -1.27685763992	 0.772986312424	 
104.0	 -1.29647467966	 0.944655308888	 
104.0	 -1.27184871303	 1.09309090733	 
104.0	 -1.1743294493	 1.19205005902	 
104.0	 -0.996297552957	 1.23164657498	 
104.0	 -0.769157051074	 1.23234475033	 
104.0	 -0.528551286379	 1.21790601484	 
105.0	 0.0976788483184	 -0.902463902031	 
105.0	 0.235238897715	 -0.885290774661	 
105.0	 0.385410422557	 -0.855252114973	 
105.0	 0.535944346119	 -0.815112417517	 
105.0	 0.674626330487	 -0.7676248521	 
105.0	 0.79437308897	 -0.713869882682	 
105.0	 0.898609182252	 -0.651502449481	 
105.0	 0.992045793687	 -0.577758057951	 
105.0	 1.07928603033	 -0.489962811454	 
105.0	 1.16193338142	 -0.387957324778	 
105.0	 1.23827499479	 -0.274362226346	 
105.0	 1.30642639709	 -0.151942010705	 
105.0	 1.36419046568	 -0.0228496365124	 
105.0	 1.40605402239	 0.117248076806	 
105.0	 1.42450662182	 0.276590925243	 
105.0	 1.41201037058	 0.46347239244	 
105.0	 1.36139792264	 0.682199654016	 
105.0	 1.26737032253	 0.916979942419	 
105.0	 1.12521617244	 1.14569960816	 
105.0	 0.930240872157	 1.34625779451	 
105.0	 0.684679499703	 1.50286341166	 
105.0	 0.408386715822	 1.61576874962	 
105.0	 0.123976200619	 1.68773830293	 
105.0	 -0.146161737788	 1.72141860012	 
105.0	 -0.389164946971	 1.71442421081	 
105.0	 -0.605060731923	 1.65756259294	 
105.0	 -0.794791329313	 1.54115801558	 
105.0	 -0.959079392212	 1.35666218848	 
105.0	 -1.0955541039	 1.11141008197	 
105.0	 -1.19955789031	 0.824477903828	 
105.0	 -1.26637956809	 0.51521711588	 
105.0	 -1.29311558724	 0.203118746876	 
105.0	 -1.28840626234	 -0.0914348755533	 
105.0	 -1.26543204197	 -0.347710881173	 
105.0	 -1.23738245254	 -0.544978811498	 
105.0	 -1.21255070642	 -0.671414905313	 
105.0	 -1.18366009465	 -0.743518048601	 
105.0	 -1.14034601382	 -0.783404197741	 
105.0	 -1.07234450306	 -0.813055089986	 
105.0	 -0.976714914759	 -0.844685924048	 
105.0	 -0.862675471497	 -0.874296550556	 
105.0	 -0.740590776657	 -0.896357980415	 
105.0	 -0.620555743216	 -0.905664923312	 
105.0	 -0.507453890487	 -0.903267119609	 
105.0	 -0.401455052664	 -0.895871960379	 
105.0	 -0.302559229747	 -0.890390681989	 
105.0	 -0.210123110398	 -0.892685933891	 
105.0	 -0.118249459595	 -0.900056556188	 
105.0	 -0.018475516703	 -0.905619624357	 
105.0	 0.0976788483184	 -0.902463902031	 
106.0	 -0.328641007095	 1.23188139455	 
106.0	 -0.0984061108901	 1.36160512114	 
106.0	 0.14094018727	 1.46531838254	 
106.0	 0.373877085434	 1.53561673975	 
106.0	 0.584927284366	 1.56511597528	 
106.0	 0.765038996943	 1.54941866197	 
106.0	 0.918319201695	 1.49024400174	 
106.0	 1.05048608881	 1.39006014091	 
106.0	 1.16709722308	 1.25141611182	 
106.0	 1.26925207055	 1.07910590769	 
106.0	 1.35312127686	 0.880405523553	 
106.0	 1.41462042043	 0.662719398398	 
106.0	 1.45007166278	 0.433656713904	 
106.0	 1.46010951144	 0.20299821609	 
106.0	 1.44796580913	 -0.0181674112169	 
106.0	 1.41690809312	 -0.218733509522	 
106.0	 1.36816931212	 -0.390343544237	 
106.0	 1.29272352039	 -0.538507780306	 
106.0	 1.17831863065	 -0.673097211549	 
106.0	 1.01272567031	 -0.803971691238	 
106.0	 0.79386673405	 -0.935670665115	 
106.0	 0.545474288008	 -1.05920577035	 
106.0	 0.295322398829	 -1.16347034846	 
106.0	 0.0708288075072	 -1.23750987028	 
106.0	 -0.11578817216	 -1.27685903557	 
106.0	 -0.272871642043	 -1.28583101524	 
106.0	 -0.410224213899	 -1.26936210194	 
106.0	 -0.537109115398	 -1.23238858835	 
106.0	 -0.655190790157	 -1.17984676712	 
106.0	 -0.76051650218	 -1.11667293093	 
106.0	 -0.8490018299	 -1.04780337243	 
106.0	 -0.917304686541	 -0.977177539274	 
106.0	 -0.966823665795	 -0.902368851535	 
106.0	 -1.0008218431	 -0.818447008109	 
106.0	 -1.02256669373	 -0.720476652513	 
106.0	 -1.03515589606	 -0.606087562897	 
106.0	 -1.04114718663	 -0.481066458312	 
106.0	 -1.04299121838	 -0.352817777754	 
106.0	 -1.04312674607	 -0.228692036222	 
106.0	 -1.04312674607	 -0.112115935285	 
106.0	 -1.04312674607	 -1.48348605885e-06	 
106.0	 -1.04312674607	 0.111353538672	 
106.0	 -1.04280791207	 0.225619239695	 
106.0	 -1.03569038455	 0.345845227639	 
106.0	 -1.00972168057	 0.474519870335	 
106.0	 -0.952648535431	 0.614111314114	 
106.0	 -0.853581017386	 0.766245142838	 
106.0	 -0.712763534849	 0.925665732666	 
106.0	 -0.535877468021	 1.08375732062	 
106.0	 -0.328641007095	 1.23188139455	 
107.0	 0.576630088732	 -1.08188747575	 
107.0	 0.801590457198	 -0.952779523883	 
107.0	 0.999578723676	 -0.801282909845	 
107.0	 1.15959418191	 -0.639835779286	 
107.0	 1.27232326278	 -0.479591573162	 
107.0	 1.34398267816	 -0.319877885758	 
107.0	 1.38915891183	 -0.153648979204	 
107.0	 1.42216760987	 0.026022074854	 
107.0	 1.44780604599	 0.221178554438	 
107.0	 1.46048809475	 0.428536262614	 
107.0	 1.45410225268	 0.644524859287	 
107.0	 1.4225370163	 0.862058155192	 
107.0	 1.35968088215	 1.0662056372	 
107.0	 1.25942234675	 1.24097540377	 
107.0	 1.11780308739	 1.37302411058	 
107.0	 0.941389786278	 1.46195487768	 
107.0	 0.73996006429	 1.51132049576	 
107.0	 0.523050884866	 1.52467472071	 
107.0	 0.297392446892	 1.50557130843	 
107.0	 0.067904133408	 1.45756401484	 
107.0	 -0.160472701311	 1.38416868909	 
107.0	 -0.380769313573	 1.28742755624	 
107.0	 -0.583383309122	 1.16746855151	 
107.0	 -0.758541111247	 1.02429729071	 
107.0	 -0.899415340611	 0.861345736817	 
107.0	 -1.0071244778	 0.691286671126	 
107.0	 -1.0841131242	 0.528335117235	 
107.0	 -1.13348894161	 0.384199954988	 
107.0	 -1.16233252178	 0.255573734479	 
107.0	 -1.17919755514	 0.13358119165	 
107.0	 -1.1918480957	 0.00959380717602	 
107.0	 -1.19619676995	 -0.12118835858	 
107.0	 -1.17903295198	 -0.260617997027	 
107.0	 -1.12714523119	 -0.410362302291	 
107.0	 -1.04135601979	 -0.565507439053	 
107.0	 -0.944240155281	 -0.710938976354	 
107.0	 -0.860241720025	 -0.830666504342	 
107.0	 -0.805900947377	 -0.914803649595	 
107.0	 -0.771850366255	 -0.973472210894	 
107.0	 -0.743422368327	 -1.02088721184	 
107.0	 -0.707096678179	 -1.06974740686	 
107.0	 -0.657832527748	 -1.12154537341	 
107.0	 -0.594389689261	 -1.17275104732	 
107.0	 -0.515329529893	 -1.21972081969	 
107.0	 -0.414937899527	 -1.25703525665	 
107.0	 -0.283581318237	 -1.27764704087	 
107.0	 -0.111574094238	 -1.274465508	 
107.0	 0.101204010642	 -1.24213817515	 
107.0	 0.337124342002	 -1.17853779039	 
107.0	 0.576630088732	 -1.08188747575	 
108.0	 1.04217804177	 -0.983434974823	 
108.0	 1.2165025786	 -0.875281114552	 
108.0	 1.35690450285	 -0.712473422588	 
108.0	 1.46338381453	 -0.496469334445	 
108.0	 1.53598538483	 -0.229333550429	 
108.0	 1.57578612206	 0.0729021388295	 
108.0	 1.58489497173	 0.380238852379	 
108.0	 1.56546575051	 0.662070444472	 
108.0	 1.51785742784	 0.894592135083	 
108.0	 1.43524958427	 1.08120460707	 
108.0	 1.3090269531	 1.23210990902	 
108.0	 1.13102297946	 1.35714573064	 
108.0	 0.903391480024	 1.45776950743	 
108.0	 0.638606643009	 1.52705842072	 
108.0	 0.349591368443	 1.55772529295	 
108.0	 0.0507044341343	 1.54539781758	 
108.0	 -0.237951870986	 1.49736317217	 
108.0	 -0.494839380207	 1.4238234053	 
108.0	 -0.699092994525	 1.33464656993	 
108.0	 -0.845328172263	 1.2320188193	 
108.0	 -0.943640929066	 1.11044440703	 
108.0	 -1.00480034829	 0.964093591052	 
108.0	 -1.03921654385	 0.790051500352	 
108.0	 -1.05586375187	 0.597062747998	 
108.0	 -1.06335723904	 0.396786818086	 
108.0	 -1.07004304496	 0.20073137851	 
108.0	 -1.07807498629	 0.0169123245848	 
108.0	 -1.08341465679	 -0.150146220955	 
108.0	 -1.08175442311	 -0.296071951573	 
108.0	 -1.0687866519	 -0.418192902165	 
108.0	 -1.04020370982	 -0.520638473349	 
108.0	 -0.991697963542	 -0.60923840717	 
108.0	 -0.919365620335	 -0.689640266237	 
108.0	 -0.82859122188	 -0.763301486062	 
108.0	 -0.734047644251	 -0.827489375061	 
108.0	 -0.650811604146	 -0.879289062209	 
108.0	 -0.589293215475	 -0.916757300158	 
108.0	 -0.541236180999	 -0.941837336257	 
108.0	 -0.49371760069	 -0.957444041529	 
108.0	 -0.434151108378	 -0.966492286998	 
108.0	 -0.35769061655	 -0.971896943688	 
108.0	 -0.26723031636	 -0.976572882621	 
108.0	 -0.166000932814	 -0.983434974823	 
108.0	 -0.0552588589703	 -0.99466937356	 
108.0	 0.0716368399075	 -1.00954736108	 
108.0	 0.223301430504	 -1.02661150186	 
108.0	 0.407744418565	 -1.044100728	 
108.0	 0.619042808245	 -1.05327042643	 
108.0	 0.837341102107	 -1.03839243891	 
108.0	 1.04217804177	 -0.983434974823	 
109.0	 0.624550634302	 -1.193977836	 
109.0	 0.759218556497	 -1.09674934379	 
109.0	 0.873097645996	 -0.979023226402	 
109.0	 0.978201344127	 -0.845378499359	 
109.0	 1.08117685232	 -0.6973187436	 
109.0	 1.1790110363	 -0.530811125181	 
109.0	 1.26762275724	 -0.34117777815	 
109.0	 1.34189874789	 -0.122557794608	 
109.0	 1.39583297752	 0.131933032996	 
109.0	 1.42397210314	 0.423874729937	 
109.0	 1.42473274591	 0.719360807898	 
109.0	 1.39810978889	 0.970024674053	 
109.0	 1.34364466165	 1.14373493021	 
109.0	 1.25956103622	 1.25518364988	 
109.0	 1.14398513265	 1.32718201962	 
109.0	 1.00077938341	 1.37220918132	 
109.0	 0.841479054013	 1.38892399824	 
109.0	 0.677161586979	 1.37547599034	 
109.0	 0.507355073319	 1.33530989739	 
109.0	 0.324136409532	 1.27528673005	 
109.0	 0.123695310017	 1.2020006687	 
109.0	 -0.0777508383506	 1.12051549139	 
109.0	 -0.258146442314	 1.03544322967	 
109.0	 -0.407384554449	 0.951395849205	 
109.0	 -0.540416318515	 0.872985315667	 
109.0	 -0.674761355614	 0.804583388173	 
109.0	 -0.814443310784	 0.745037075307	 
109.0	 -0.949989852999	 0.687668635116	 
109.0	 -1.07165739555	 0.624655967169	 
109.0	 -1.17220816086	 0.540996475795	 
109.0	 -1.24559972463	 0.418264309028	 
109.0	 -1.288555861	 0.244336977328	 
109.0	 -1.30714659132	 0.0285176241706	 
109.0	 -1.30936953101	 -0.215215508831	 
109.0	 -1.30024181773	 -0.464343502903	 
109.0	 -1.28016084852	 -0.68310938968	 
109.0	 -1.24889705068	 -0.837248842289	 
109.0	 -1.20293249452	 -0.930189202842	 
109.0	 -1.13629087358	 -0.993536117043	 
109.0	 -1.0445851821	 -1.05444472064	 
109.0	 -0.932652717169	 -1.11137189251	 
109.0	 -0.808523578216	 -1.15282086634	 
109.0	 -0.675494918815	 -1.17512626818	 
109.0	 -0.525254000084	 -1.19384458562	 
109.0	 -0.348124388062	 -1.22678260332	 
109.0	 -0.146035574168	 -1.27230441257	 
109.0	 0.0656652806509	 -1.30629630766	 
109.0	 0.271388851623	 -1.30541943844	 
109.0	 0.460375981829	 -1.26571240689	 
109.0	 0.624550634302	 -1.193977836	 
110.0	 0.127105603984	 -1.20124259002	 
110.0	 0.309969681865	 -1.19249227285	 
110.0	 0.450736976617	 -1.16319773275	 
110.0	 0.569566511149	 -1.10879358687	 
110.0	 0.685974986557	 -1.02511867893	 
110.0	 0.804705702349	 -0.917309064661	 
110.0	 0.915728556442	 -0.799798011793	 
110.0	 1.00837112494	 -0.687423014655	 
110.0	 1.07492554616	 -0.588173493272	 
110.0	 1.11954220715	 -0.482646570442	 
110.0	 1.14933605718	 -0.344591294652	 
110.0	 1.17122440803	 -0.148969394217	 
110.0	 1.18757890945	 0.101365766568	 
110.0	 1.19622554918	 0.375669187428	 
110.0	 1.19479267745	 0.641983188263	 
110.0	 1.18169919444	 0.873486144703	 
110.0	 1.15852619997	 1.0639006553	 
110.0	 1.1276453438	 1.21208537434	 
110.0	 1.09103300073	 1.31701784627	 
110.0	 1.04157422149	 1.38041008968	 
110.0	 0.963062732775	 1.40670859727	 
110.0	 0.838896986297	 1.40047875189	 
110.0	 0.658997470609	 1.36704683357	 
110.0	 0.439372821548	 1.31478271091	 
110.0	 0.202553711772	 1.25281714964	 
110.0	 -0.0292997563315	 1.19001935712	 
110.0	 -0.24255059668	 1.12924269765	 
110.0	 -0.432084939492	 1.06732469245	 
110.0	 -0.593159485261	 1.00084130439	 
110.0	 -0.723204946752	 0.925417374865	 
110.0	 -0.828348085831	 0.832873259575	 
110.0	 -0.916889676633	 0.714078192774	 
110.0	 -0.996957560504	 0.560329413364	 
110.0	 -1.07270212451	 0.372768267061	 
110.0	 -1.14429630145	 0.162380206402	 
110.0	 -1.21174009132	 -0.0594213114363	 
110.0	 -1.27404530672	 -0.280842380702	 
110.0	 -1.32627101067	 -0.488567301353	 
110.0	 -1.36248807878	 -0.668899924775	 
110.0	 -1.37686620542	 -0.808667219142	 
110.0	 -1.36584791594	 -0.906727838735	 
110.0	 -1.32814856673	 -0.973972123946	 
110.0	 -1.26258233291	 -1.02181353195	 
110.0	 -1.16697520222	 -1.06014372564	 
110.0	 -1.03520041278	 -1.09276719075	 
110.0	 -0.860143015341	 -1.1219666187	 
110.0	 -0.635528019922	 -1.14988203271	 
110.0	 -0.374399500172	 -1.17537208708	 
110.0	 -0.109120593353	 -1.19401406714	 
110.0	 0.127105603984	 -1.20124259002	 
111.0	 -0.493754399186	 -1.24269858876	 
111.0	 -0.235679631362	 -1.24351404889	 
111.0	 -0.0347038830301	 -1.23039410655	 
111.0	 0.134868091886	 -1.21073993517	 
111.0	 0.291728212091	 -1.1902381574	 
111.0	 0.434802743479	 -1.16973637962	 
111.0	 0.559585326476	 -1.14923460185	 
111.0	 0.665726512792	 -1.12873282408	 
111.0	 0.761283924468	 -1.1082310463	 
111.0	 0.855218578919	 -1.08742186994	 
111.0	 0.950694026942	 -1.04991212701	 
111.0	 1.04234508581	 -0.955644651095	 
111.0	 1.12417640669	 -0.764468264767	 
111.0	 1.19158540734	 -0.483968480134	 
111.0	 1.24147336931	 -0.173275323486	 
111.0	 1.27112410535	 0.108513157716	 
111.0	 1.28264784613	 0.342998505256	 
111.0	 1.28198690519	 0.544096951049	 
111.0	 1.27394831226	 0.725312936804	 
111.0	 1.25078922061	 0.886983244792	 
111.0	 1.19747971212	 1.02179887094	 
111.0	 1.10171498062	 1.12373490346	 
111.0	 0.970491172675	 1.19621692788	 
111.0	 0.818900268992	 1.24663456506	 
111.0	 0.660171141564	 1.28170521074	 
111.0	 0.498506556185	 1.30487253271	 
111.0	 0.335418942283	 1.31860400736	 
111.0	 0.172420267663	 1.32292751152	 
111.0	 0.0110225001325	 1.30968660215	 
111.0	 -0.147269316843	 1.26903071172	 
111.0	 -0.302974098327	 1.19705532571	 
111.0	 -0.461435997575	 1.10403167555	 
111.0	 -0.628587480167	 1.00223561319	 
111.0	 -0.800991919909	 0.898845799674	 
111.0	 -0.959077135136	 0.792262456428	 
111.0	 -1.0820450285	 0.67996042798	 
111.0	 -1.16250979268	 0.557329740142	 
111.0	 -1.20997808299	 0.417134638777	 
111.0	 -1.23503367405	 0.252521190263	 
111.0	 -1.24826034051	 0.0676807140161	 
111.0	 -1.26024185702	 -0.122966179926	 
111.0	 -1.28108411626	 -0.305504515362	 
111.0	 -1.31492289746	 -0.477155315334	 
111.0	 -1.36183575323	 -0.642709376726	 
111.0	 -1.41708982116	 -0.805630793602	 
111.0	 -1.43671924402	 -0.957186834296	 
111.0	 -1.35735924525	 -1.08261399536	 
111.0	 -1.13281802352	 -1.16964873084	 
111.0	 -0.815732041628	 -1.2205445436	 
111.0	 -0.493754399186	 -1.24269858876	 
112.0	 0.121096780368	 -1.12992080342	 
112.0	 0.315969624128	 -1.12456387385	 
112.0	 0.462189930437	 -1.11111021105	 
112.0	 0.583346808362	 -1.09348550385	 
112.0	 0.69825540948	 -1.07534588544	 
112.0	 0.802687169367	 -1.05904635381	 
112.0	 0.885469714026	 -1.04654983324	 
112.0	 0.93820168656	 -1.03675094586	 
112.0	 0.968671760727	 -1.01062696897	 
112.0	 0.990528706255	 -0.942669870361	 
112.0	 1.015875541	 -0.81174944135	 
112.0	 1.04578142938	 -0.627886124104	 
112.0	 1.07654087104	 -0.414580140544	 
112.0	 1.10460386027	 -0.192763386253	 
112.0	 1.12793997485	 0.0394554211554	 
112.0	 1.14530121641	 0.29571907272	 
112.0	 1.15524433425	 0.586472031649	 
112.0	 1.15414991081	 0.886607045073	 
112.0	 1.13707076214	 1.14932533672	 
112.0	 1.09878816969	 1.33055363756	 
112.0	 1.03065424837	 1.42742179879	 
112.0	 0.921549769203	 1.46675408293	 
112.0	 0.76144260151	 1.47521517555	 
112.0	 0.560203672806	 1.46525910726	 
112.0	 0.344609529702	 1.43726940586	 
112.0	 0.141249650403	 1.39128696394	 
112.0	 -0.0399437086447	 1.32829320369	 
112.0	 -0.205695512743	 1.25021007697	 
112.0	 -0.363264349558	 1.15902782301	 
112.0	 -0.513910038684	 1.05759885988	 
112.0	 -0.651830024235	 0.949790652369	 
112.0	 -0.770991236375	 0.839390876837	 
112.0	 -0.873268905814	 0.723935754607	 
112.0	 -0.97151159607	 0.592287165904	 
112.0	 -1.07922460556	 0.432847747975	 
112.0	 -1.19929110149	 0.246615216175	 
112.0	 -1.31718491632	 0.0552302177694	 
112.0	 -1.4168049312	 -0.11785534567	 
112.0	 -1.48674457036	 -0.261559581683	 
112.0	 -1.52471475908	 -0.38882499567	 
112.0	 -1.52947123732	 -0.51532199632	 
112.0	 -1.49908765009	 -0.648633124471	 
112.0	 -1.4300613776	 -0.777650530451	 
112.0	 -1.31866903614	 -0.888640692781	 
112.0	 -1.16206625635	 -0.972502453931	 
112.0	 -0.959837173504	 -1.03293275981	 
112.0	 -0.71198335365	 -1.07581990406	 
112.0	 -0.426194152028	 -1.10587595926	 
112.0	 -0.135671609441	 -1.12390959238	 
112.0	 0.121096780368	 -1.12992080342	 
113.0	 -0.324897174496	 -1.03389801732	 
113.0	 -0.0737442859394	 -1.04638392811	 
113.0	 0.138852547275	 -1.07421763187	 
113.0	 0.346447564743	 -1.10299900568	 
113.0	 0.556651764683	 -1.11956513136	 
113.0	 0.745188098812	 -1.11227379668	 
113.0	 0.889436885201	 -1.07216240576	 
113.0	 0.990161342089	 -1.00699493566	 
113.0	 1.05742193533	 -0.931058838434	 
113.0	 1.1006495885	 -0.844637194377	 
113.0	 1.12805120243	 -0.721745547214	 
113.0	 1.14726817853	 -0.53736514087	 
113.0	 1.16123824991	 -0.308535865898	 
113.0	 1.17000378489	 -0.0781752212194	 
113.0	 1.17356478348	 0.124017355213	 
113.0	 1.17192124567	 0.308126888438	 
113.0	 1.16497509664	 0.491055692684	 
113.0	 1.15062861411	 0.681123592645	 
113.0	 1.12491712353	 0.878637451573	 
113.0	 1.08580635701	 1.08114236344	 
113.0	 1.04064167713	 1.27468131194	 
113.0	 0.999075852721	 1.44190740296	 
113.0	 0.950102339189	 1.56433651025	 
113.0	 0.853544492892	 1.62187940367	 
113.0	 0.673477066458	 1.59906116721	 
113.0	 0.423323903564	 1.51661310061	 
113.0	 0.139266177822	 1.4119072755	 
113.0	 -0.146481131857	 1.30903547398	 
113.0	 -0.410560575724	 1.20312450553	 
113.0	 -0.631959525828	 1.08624012398	 
113.0	 -0.805372330636	 0.960078706432	 
113.0	 -0.93661781817	 0.83315707622	 
113.0	 -1.03214239722	 0.71077062391	 
113.0	 -1.09973242377	 0.586712629791	 
113.0	 -1.14728149864	 0.452474899751	 
113.0	 -1.17801584201	 0.303555720401	 
113.0	 -1.1901625554	 0.139744623115	 
113.0	 -1.18338999881	 -0.0372350048592	 
113.0	 -1.16663597563	 -0.216187285087	 
113.0	 -1.1519638847	 -0.382891133292	 
113.0	 -1.14854450615	 -0.537620719936	 
113.0	 -1.16084495182	 -0.704203057589	 
113.0	 -1.19128668897	 -0.902270238529	 
113.0	 -1.22760291161	 -1.09366577457	 
113.0	 -1.24967308033	 -1.20947129395	 
113.0	 -1.23213455668	 -1.21375411998	 
113.0	 -1.13663420211	 -1.15421444056	 
113.0	 -0.926726433308	 -1.08961607762	 
113.0	 -0.629741759956	 -1.04830873383	 
113.0	 -0.324897174496	 -1.03389801732	 
114.0	 -0.373105641462	 -1.25892973635	 
114.0	 -0.106619518346	 -1.26599554436	 
114.0	 0.1168926284	 -1.26411132889	 
114.0	 0.311005669893	 -1.25327708994	 
114.0	 0.483404194974	 -1.23349282751	 
114.0	 0.634532772155	 -1.2047585416	 
114.0	 0.764117779706	 -1.16672882644	 
114.0	 0.870115939328	 -1.11682435431	 
114.0	 0.949813278831	 -1.05150319815	 
114.0	 1.00405431138	 -0.959356089242	 
114.0	 1.04035334707	 -0.814239453617	 
114.0	 1.06651762353	 -0.59339218091	 
114.0	 1.08554862954	 -0.328651896338	 
114.0	 1.09749018734	 -0.0854431416719	 
114.0	 1.10295934867	 0.0952220386982	 
114.0	 1.10437709135	 0.245201424281	 
114.0	 1.10442579014	 0.408008215517	 
114.0	 1.10442579014	 0.594487866923	 
114.0	 1.10442579014	 0.784985896218	 
114.0	 1.10286742887	 0.962122388962	 
114.0	 1.09089086673	 1.12464718877	 
114.0	 1.05752257631	 1.27576980336	 
114.0	 0.99287122554	 1.40640233368	 
114.0	 0.888573849436	 1.49009290411	 
114.0	 0.738412033412	 1.5036318659	 
114.0	 0.551681234092	 1.45862539265	 
114.0	 0.344838035058	 1.38271808929	 
114.0	 0.134377497946	 1.29761435725	 
114.0	 -0.0632053156078	 1.2119626646	 
114.0	 -0.232800553983	 1.13212097361	 
114.0	 -0.377638770633	 1.0567299237	 
114.0	 -0.513939668606	 0.978964209108	 
114.0	 -0.654993007308	 0.890534259968	 
114.0	 -0.803136328645	 0.778542004117	 
114.0	 -0.958126138666	 0.629904944969	 
114.0	 -1.11336071188	 0.452408963747	 
114.0	 -1.25542817448	 0.276191557308	 
114.0	 -1.37156723913	 0.12627195998	 
114.0	 -1.4544283967	 -0.00648832385915	 
114.0	 -1.49856940717	 -0.142774175204	 
114.0	 -1.50249390167	 -0.294567278399	 
114.0	 -1.47111317653	 -0.459694090042	 
114.0	 -1.41120872191	 -0.633758613339	 
114.0	 -1.34123417259	 -0.803945248496	 
114.0	 -1.28581234469	 -0.952957734035	 
114.0	 -1.24568527685	 -1.06879052091	 
114.0	 -1.16142668446	 -1.15284159175	 
114.0	 -0.969019570252	 -1.20869360384	 
114.0	 -0.681191152476	 -1.2417570991	 
114.0	 -0.373105641462	 -1.25892973635	 
115.0	 0.357892838508	 -1.23670485706	 
115.0	 0.52921899026	 -1.19136824834	 
115.0	 0.663778899353	 -1.1319616576	 
115.0	 0.776211517577	 -1.05844815809	 
115.0	 0.874851391182	 -0.967344226917	 
115.0	 0.956683839571	 -0.84896175918	 
115.0	 1.01792728813	 -0.693554453405	 
115.0	 1.06234505925	 -0.501982555406	 
115.0	 1.10022660945	 -0.284280690805	 
115.0	 1.14086076458	 -0.0505367336133	 
115.0	 1.18545361304	 0.190818493612	 
115.0	 1.23191203191	 0.432030149593	 
115.0	 1.27621956914	 0.665345387094	 
115.0	 1.3088552833	 0.883011358884	 
115.0	 1.31937631505	 1.07727521773	 
115.0	 1.29990706574	 1.24038411639	 
115.0	 1.24600593838	 1.36458520765	 
115.0	 1.15388607483	 1.44276373867	 
115.0	 1.02458497046	 1.47522280433	 
115.0	 0.862252606817	 1.46705120763	 
115.0	 0.669615951651	 1.4234175134	 
115.0	 0.442430400006	 1.34949028646	 
115.0	 0.174508744893	 1.25047117802	 
115.0	 -0.121618374999	 1.1369342398	 
115.0	 -0.394168412296	 1.03071943508	 
115.0	 -0.588823620402	 0.953900842792	 
115.0	 -0.706634463394	 0.901309898106	 
115.0	 -0.80401961602	 0.840535392452	 
115.0	 -0.932556047862	 0.742642697909	 
115.0	 -1.08625126244	 0.615713753	 
115.0	 -1.23166050332	 0.485481413946	 
115.0	 -1.34216673038	 0.369180729262	 
115.0	 -1.4148562507	 0.25489004201	 
115.0	 -1.45181702374	 0.124615089474	 
115.0	 -1.45435888743	 -0.0338955412589	 
115.0	 -1.4225855913	 -0.223991845906	 
115.0	 -1.35689670317	 -0.446292126146	 
115.0	 -1.26341512693	 -0.673254336054	 
115.0	 -1.15254253432	 -0.856283744971	 
115.0	 -1.03379986677	 -0.95747163592	 
