93.0	 1.36617916693	 0.308176859261	 
93.0	 1.36002458064	 -0.105665762226	 
93.0	 1.35012263779	 -0.420083557012	 
93.0	 1.3381839089	 -0.577099562362	 
93.0	 1.30059506215	 -0.644234151304	 
93.0	 1.21325697547	 -0.701355454664	 
93.0	 1.08949273276	 -0.774490484399	 
93.0	 0.969127451577	 -0.851533715577	 
93.0	 0.875283373968	 -0.922081371934	 
93.0	 0.772086214709	 -0.984303528473	 
93.0	 0.612930140287	 -1.03814300004	 
93.0	 0.399782061455	 -1.08204935506	 
93.0	 0.186633982623	 -1.1128727818	 
93.0	 0.0207077913125	 -1.12738502521	 
93.0	 -0.102011004607	 -1.12235783028	 
93.0	 -0.20289220382	 -1.09466460447	 
93.0	 -0.292697450717	 -1.0481261634	 
93.0	 -0.364930241179	 -0.997849742812	 
93.0	 -0.416360217242	 -0.958900375979	 
93.0	 -0.487850877223	 -0.936552981729	 
93.0	 -0.643682576091	 -0.93083328946	 
93.0	 -0.901464147301	 -0.932623286826	 
93.0	 -1.16094627881	 -0.909946509214	 
93.0	 -1.3097523711	 -0.82927590356	 
93.0	 -1.33477845294	 -0.689390813877	 
93.0	 -1.30368604489	 -0.515354184121	 
94.0	 -1.12967699175	 -0.0178966228906	 
94.0	 -1.1063880224	 0.197298489572	 
94.0	 -1.10414273228	 0.399611830438	 
94.0	 -1.07713927592	 0.616894146489	 
94.0	 -1.00491840642	 0.860374758178	 
94.0	 -0.876339177572	 1.1313897613	 
94.0	 -0.680275046344	 1.39713021593	 
94.0	 -0.407690592816	 1.60917562986	 
94.0	 -0.0797870925306	 1.75503224086	 
94.0	 0.260093422159	 1.84880294799	 
94.0	 0.583590474868	 1.8909873702	 
94.0	 0.878709371141	 1.86705779237	 
94.0	 1.13001710409	 1.76564361526	 
94.0	 1.3158702445	 1.58126043643	 
94.0	 1.43045891465	 1.32540823825	 
94.0	 1.5027134677	 1.04467529695	 
94.0	 1.55650227567	 0.779227756164	 
94.0	 1.58634482795	 0.535545967383	 
94.0	 1.5851718481	 0.312884840633	 
94.0	 1.56440685827	 0.10710320669	 
94.0	 1.53237601879	 -0.0893069335189	 
94.0	 1.44052244471	 -0.300175933781	 
94.0	 1.22939955971	 -0.549252347529	 
94.0	 0.97363279628	 -0.788202451091	 
94.0	 0.819215851253	 -0.93057257561	 
94.0	 0.763151956193	 -0.974126611459	 
94.0	 0.678019163442	 -0.986951843546	 
94.0	 0.500579897746	 -1.00138348346	 
94.0	 0.248765235098	 -1.00485415568	 
94.0	 -0.0274632900674	 -0.992942862378	 
94.0	 -0.23249776034	 -0.979227902732	 
94.0	 -0.315215930777	 -0.970850888594	 
94.0	 -0.341816403932	 -0.955366970026	 
94.0	 -0.378896116932	 -0.921319758866	 
94.0	 -0.433875051352	 -0.870837183946	 
94.0	 -0.500484181615	 -0.81097163945	 
94.0	 -0.568785871814	 -0.758881257205	 
94.0	 -0.628543068305	 -0.731732775919	 
94.0	 -0.676467129418	 -0.721171783264	 
94.0	 -0.713824998373	 -0.707779756586	 
94.0	 -0.757666873166	 -0.683648161968	 
94.0	 -0.833770418776	 -0.648996439886	 
94.0	 -0.929739481686	 -0.611736832911	 
94.0	 -0.998035761181	 -0.586659740946	 
94.0	 -1.03519960683	 -0.57839055773	 
94.0	 -1.09778385852	 -0.577521612639	 
94.0	 -1.19632597833	 -0.557223648699	 
94.0	 -1.24680366353	 -0.45968795601	 
94.0	 -1.19997157411	 -0.257892847334	 
94.0	 -1.12967699175	 -0.0178966228906	 
95.0	 -1.08157267034	 0.262127905342	 
95.0	 -1.071460958	 0.430871756173	 
95.0	 -1.06257240443	 0.610996218829	 
95.0	 -1.02949875866	 0.807155006899	 
95.0	 -0.952182599467	 1.01698386118	 
95.0	 -0.825668276289	 1.21831153554	 
95.0	 -0.647650394261	 1.38558846867	 
95.0	 -0.416529347631	 1.5060823431	 
95.0	 -0.1321329411	 1.59298284527	 
95.0	 0.205149446069	 1.66228223278	 
95.0	 0.574552722507	 1.71299088377	 
95.0	 0.925336804286	 1.71913689809	 
95.0	 1.20572663301	 1.65343691908	 
95.0	 1.40012760052	 1.50685877914	 
95.0	 1.53201156406	 1.29007734697	 
95.0	 1.62522549545	 1.01530099004	 
95.0	 1.67903248972	 0.703418992842	 
95.0	 1.67317651716	 0.3822131209	 
95.0	 1.59092696659	 0.0786985089629	 
95.0	 1.45664731735	 -0.189783647366	 
95.0	 1.31856228525	 -0.411509314149	 
95.0	 1.2174480618	 -0.577861387727	 
95.0	 1.14099264397	 -0.70105187299	 
95.0	 1.05461604942	 -0.802029597823	 
95.0	 0.92847762458	 -0.898210483574	 
95.0	 0.755724435489	 -0.990002793737	 
95.0	 0.536357030788	 -1.07274553984	 
95.0	 0.280426380283	 -1.14223771185	 
95.0	 0.031698775886	 -1.19582445047	 
95.0	 -0.159083503905	 -1.23116411191	 
95.0	 -0.266538934826	 -1.24279475844	 
95.0	 -0.325747547469	 -1.217815485	 
95.0	 -0.380342627185	 -1.14244805098	 
95.0	 -0.452482346467	 -1.01976570076	 
95.0	 -0.527340196356	 -0.881863496169	 
95.0	 -0.586728606912	 -0.763217759339	 
95.0	 -0.623195526808	 -0.680581289849	 
95.0	 -0.64281003694	 -0.628384529095	 
95.0	 -0.652674781879	 -0.599403988728	 
95.0	 -0.663339447261	 -0.58177923068	 
95.0	 -0.688546111392	 -0.559355419453	 
95.0	 -0.741009715852	 -0.517078757882	 
95.0	 -0.819109336216	 -0.455673729824	 
95.0	 -0.911479142267	 -0.386590216678	 
95.0	 -1.00605049303	 -0.31957205977	 
95.0	 -1.08647251616	 -0.248521875812	 
95.0	 -1.13427697201	 -0.159509521384	 
95.0	 -1.13627105156	 -0.041217960847	 
95.0	 -1.10946548707	 0.102433697648	 
95.0	 -1.08157267034	 0.262127905342	 
96.0	 -1.22093298134	 -0.324281346408	 
96.0	 -1.26144469781	 -0.149632428634	 
96.0	 -1.2924538621	 0.0296112537632	 
96.0	 -1.31020637952	 0.198746453991	 
96.0	 -1.31069038217	 0.347685202224	 
96.0	 -1.28864974031	 0.488617299604	 
96.0	 -1.23845338829	 0.640445553088	 
96.0	 -1.15509892163	 0.817852697126	 
96.0	 -1.03725554307	 1.01086973347	 
96.0	 -0.88492141957	 1.20060479509	 
96.0	 -0.698264351949	 1.36928034792	 
96.0	 -0.478643702538	 1.50711918412	 
96.0	 -0.227934456493	 1.60780606637	 
96.0	 0.0507985198174	 1.66548266978	 
96.0	 0.344151935205	 1.67814698977	 
96.0	 0.633399309528	 1.64578261647	 
96.0	 0.900176801837	 1.56838954986	 
96.0	 1.13050737503	 1.44596778996	 
96.0	 1.3130905564	 1.27851733676	 
96.0	 1.43742783443	 1.0666364669	 
96.0	 1.50338967329	 0.819045660753	 
96.0	 1.51831928748	 0.550318937339	 
96.0	 1.4897805454	 0.275284155932	 
96.0	 1.42630799394	 0.0109416037619	 
96.0	 1.33726067242	 -0.223863175837	 
96.0	 1.23178918665	 -0.410969922691	 
96.0	 1.1136476313	 -0.549328404888	 
96.0	 0.981193589954	 -0.654998418772	 
96.0	 0.832916778832	 -0.744490519406	 
96.0	 0.67884980824	 -0.825088981331	 
96.0	 0.542614787414	 -0.893215939281	 
96.0	 0.448217392151	 -0.944744310034	 
96.0	 0.401728697454	 -0.978891889612	 
96.0	 0.384334236586	 -0.999517733301	 
96.0	 0.375415130236	 -1.01082276876	 
96.0	 0.356359922402	 -1.01700792363	 
96.0	 0.311847259967	 -1.02227412559	 
96.0	 0.226929198198	 -1.03078401256	 
96.0	 0.0949383085083	 -1.04206716819	 
96.0	 -0.0747108435172	 -1.04665509536	 
96.0	 -0.270741538515	 -1.03406855134	 
96.0	 -0.478267697326	 -0.999598244244	 
96.0	 -0.674062310239	 -0.951868759241	 
96.0	 -0.833737815196	 -0.901374894273	 
96.0	 -0.943095375552	 -0.853158583019	 
96.0	 -1.01608514362	 -0.797196811402	 
96.0	 -1.07147675269	 -0.720887480203	 
96.0	 -1.12391554082	 -0.614984993109	 
96.0	 -1.17435996615	 -0.481382639292	 
96.0	 -1.22093298134	 -0.324281346408	 
97.0	 -1.04731923728	 -0.0654917522422	 
97.0	 -1.077900429	 0.0625248327696	 
97.0	 -1.11244865818	 0.179370390716	 
97.0	 -1.14921376123	 0.29875481845	 
97.0	 -1.18552529103	 0.433386757806	 
97.0	 -1.21024149011	 0.586758189097	 
97.0	 -1.20765513726	 0.757393934944	 
97.0	 -1.16213333918	 0.943564253957	 
97.0	 -1.06125002086	 1.1379570507	 
97.0	 -0.896077360154	 1.32717055307	 
97.0	 -0.657929878589	 1.49749486422	 
97.0	 -0.351974059063	 1.6352200873	 
97.0	 -0.0142819398531	 1.72663632546	 
97.0	 0.314892716574	 1.75803368183	 
97.0	 0.601936570891	 1.71859213281	 
97.0	 0.845695465837	 1.6116177006	 
97.0	 1.05491779936	 1.4447259414	 
97.0	 1.23740368325	 1.22621049651	 
97.0	 1.38990127034	 0.972235503598	 
97.0	 1.50202841739	 0.704042839871	 
97.0	 1.56350816382	 0.442747777584	 
97.0	 1.57277236307	 0.201253868544	 
97.0	 1.53956592597	 -0.0182026507391	 
97.0	 1.47438637693	 -0.214100865618	 
97.0	 1.38562196912	 -0.386388569406	 
97.0	 1.27597227586	 -0.538974643643	 
97.0	 1.14718746073	 -0.676429053945	 
97.0	 1.00196709704	 -0.802164868792	 
97.0	 0.848699437973	 -0.912663252269	 
97.0	 0.697882007925	 -1.00183512953	 
97.0	 0.559448735409	 -1.06408076937	 
97.0	 0.434848755874	 -1.10118550503	 
97.0	 0.318999594266	 -1.12061970696	 
97.0	 0.206650759829	 -1.12990595232	 
97.0	 0.0925517618071	 -1.1309248854	 
97.0	 -0.0285478905574	 -1.11681215454	 
97.0	 -0.161897391603	 -1.07995235399	 
97.0	 -0.30744099538	 -1.01765525972	 
97.0	 -0.447734108399	 -0.943374700058	 
97.0	 -0.561774767635	 -0.873867215592	 
97.0	 -0.632444039669	 -0.823549524529	 
97.0	 -0.671321006784	 -0.789545595173	 
97.0	 -0.702847286838	 -0.761228734142	 
97.0	 -0.75050739589	 -0.727974203922	 
97.0	 -0.817670895799	 -0.679918476582	 
97.0	 -0.889268143459	 -0.607895818446	 
97.0	 -0.949625105935	 -0.502857772818	 
97.0	 -0.991057311884	 -0.365193482613	 
97.0	 -1.02070508302	 -0.21280374764	 
97.0	 -1.04731923728	 -0.0654917522422	 
98.0	 -0.95150801617	 -0.518557610721	 
98.0	 -0.933864737705	 -0.342122779504	 
98.0	 -0.927364582481	 -0.168313141064	 
98.0	 -0.929385639147	 0.000246111822838	 
98.0	 -0.937114815317	 0.161148552443	 
98.0	 -0.943341854775	 0.317019373574	 
98.0	 -0.936459337479	 0.475515387483	 
98.0	 -0.90466866235	 0.644512172499	 
98.0	 -0.834860272634	 0.828822582047	 
98.0	 -0.708680788874	 1.02100856993	 
98.0	 -0.506465875939	 1.21056936503	 
98.0	 -0.210189893293	 1.38694950473	 
98.0	 0.160482823933	 1.53833562153	 
98.0	 0.548197964941	 1.65165644307	 
98.0	 0.893962524334	 1.71378600546	 
98.0	 1.15276702392	 1.71444230365	 
98.0	 1.33553609434	 1.65471916798	 
98.0	 1.46717789341	 1.5385543876	 
98.0	 1.57178123168	 1.37015920926	 
98.0	 1.65458993185	 1.16003440407	 
98.0	 1.70200282877	 0.924970267503	 
98.0	 1.69959941004	 0.682030552603	 
98.0	 1.63689203023	 0.446310117839	 
98.0	 1.51912451205	 0.225028243349	 
98.0	 1.35547354524	 0.0234353146859	 
98.0	 1.15525237739	 -0.153355011387	 
98.0	 0.930915087435	 -0.303373840286	 
98.0	 0.698056585588	 -0.42779703961	 
98.0	 0.472408339955	 -0.527937205747	 
98.0	 0.267953877742	 -0.605763233281	 
98.0	 0.0916849625501	 -0.665869209569	 
98.0	 -0.0511545829182	 -0.713505520168	 
98.0	 -0.15573060961	 -0.753867859113	 
98.0	 -0.226631462389	 -0.790894015572	 
98.0	 -0.277867980037	 -0.827263873836	 
98.0	 -0.323860674983	 -0.865602626682	 
98.0	 -0.375971163081	 -0.90766040263	 
98.0	 -0.433325473881	 -0.95168707316	 
98.0	 -0.491990740357	 -0.995057445495	 
98.0	 -0.548252588094	 -1.03517367262	 
98.0	 -0.603421972768	 -1.07006685995	 
98.0	 -0.663835180144	 -1.09839706533	 
98.0	 -0.736046988598	 -1.11885169238	 
98.0	 -0.82246081687	 -1.1283680162	 
98.0	 -0.908874645142	 -1.1168827978	 
98.0	 -0.976935093958	 -1.07258266969	 
98.0	 -1.00902619643	 -0.984201179532	 
98.0	 -1.00449247472	 -0.853050923717	 
98.0	 -0.979638940038	 -0.693023547356	 
98.0	 -0.95150801617	 -0.518557610721	 
99.0	 -1.0664847231	 -0.0834955004098	 
99.0	 -1.08881922199	 0.0711488987331	 
99.0	 -1.11139773043	 0.22567046979	 
99.0	 -1.12250779013	 0.385964960907	 
99.0	 -1.11070501973	 0.556848576503	 
99.0	 -1.06583903507	 0.737926603404	 
99.0	 -0.978149374835	 0.927234112094	 
99.0	 -0.838311570009	 1.12148928964	 
99.0	 -0.639546730355	 1.30972205257	 
99.0	 -0.375997355848	 1.4781794936	 
99.0	 -0.0466934449952	 1.61345623853	 
99.0	 0.314637672125	 1.70464201862	 
99.0	 0.659254135243	 1.74190626879	 
99.0	 0.9419226745	 1.7165281949	 
99.0	 1.14847040201	 1.62940853625	 
99.0	 1.28071722232	 1.48640209829	 
99.0	 1.34251820033	 1.29414967428	 
99.0	 1.35825808703	 1.06732970033	 
99.0	 1.36484761569	 0.825524699841	 
99.0	 1.39643732046	 0.587427572211	 
99.0	 1.44727899727	 0.358703762923	 
99.0	 1.48287007735	 0.135630045609	 
99.0	 1.46969451495	 -0.085257715605	 
99.0	 1.4025016567	 -0.299293332895	 
99.0	 1.30004941885	 -0.494904737227	 
99.0	 1.18120787305	 -0.660668916566	 
99.0	 1.04988117207	 -0.793637996839	 
99.0	 0.89500754977	 -0.899339241933	 
99.0	 0.705419438968	 -0.983586114773	 
99.0	 0.487098250791	 -1.04960237283	 
99.0	 0.266214962365	 -1.09756290219	 
99.0	 0.0697555045806	 -1.12746770285	 
99.0	 -0.0908370914929	 -1.13931677481	 
99.0	 -0.225686680309	 -1.13311011806	 
99.0	 -0.346426289955	 -1.10886772418	 
99.0	 -0.459121845274	 -1.06801075248	 
99.0	 -0.560714966184	 -1.01425683172	 
99.0	 -0.647311666989	 -0.951546696317	 
99.0	 -0.716248176797	 -0.885059597262	 
99.0	 -0.767249984866	 -0.822380168885	 
99.0	 -0.800332103502	 -0.771352136016	 
99.0	 -0.819263177559	 -0.735500408841	 
99.0	 -0.836486184785	 -0.708369475801	 
99.0	 -0.865656128212	 -0.682097059906	 
99.0	 -0.913517584241	 -0.647893276224	 
99.0	 -0.967723288503	 -0.594405482978	 
99.0	 -1.01265774199	 -0.509843303403	 
99.0	 -1.03816436499	 -0.387912117936	 
99.0	 -1.05220253927	 -0.240555518585	 
99.0	 -1.0664847231	 -0.0834955004098	 
100.0	 -1.12361265119	 -0.653477527021	 
100.0	 -1.17781847619	 -0.515829891606	 
100.0	 -1.23002176453	 -0.367869990844	 
100.0	 -1.28688217351	 -0.215600775627	 
100.0	 -1.34616620154	 -0.0468339195926	 
100.0	 -1.3947093511	 0.172978649912	 
100.0	 -1.41557755488	 0.470007519864	 
100.0	 -1.37179801528	 0.807361822638	 
100.0	 -1.21878231107	 1.1232785794	 
100.0	 -0.949996857519	 1.37919010818	 
100.0	 -0.630237743407	 1.58010288845	 
100.0	 -0.327156769272	 1.7345932558	 
100.0	 -0.0539877725438	 1.83791793319	 
100.0	 0.209526586953	 1.8771397727	 
100.0	 0.477152677171	 1.84506018468	 
100.0	 0.742230084361	 1.75162261784	 
100.0	 0.994382027624	 1.60949252729	 
100.0	 1.22323172606	 1.42324607997	 
100.0	 1.41840239876	 1.18990695422	 
100.0	 1.56804675441	 0.911762797095	 
100.0	 1.65342763585	 0.61711996761	 
100.0	 1.65433947671	 0.341626402297	 
100.0	 1.57645293703	 0.108073191509	 
100.0	 1.46197459102	 -0.0789029541261	 
100.0	 1.34962989715	 -0.218982335338	 
100.0	 1.23043105801	 -0.334368141787	 
100.0	 1.07351130663	 -0.457548294194	 
100.0	 0.874915242256	 -0.600273664943	 
100.0	 0.689244641814	 -0.729249348563	 
100.0	 0.574112651564	 -0.808031056602	 
100.0	 0.525598246557	 -0.836483260058	 
100.0	 0.496199720695	 -0.840185391884	 
100.0	 0.443541310388	 -0.840185391884	 
100.0	 0.345916849514	 -0.840185391884	 
100.0	 0.187440942403	 -0.840185391884	 
100.0	 -0.0109730731798	 -0.840185391884	 
100.0	 -0.188997624538	 -0.840185391884	 
100.0	 -0.295934057405	 -0.839795547626	 
100.0	 -0.344633705039	 -0.836483260058	 
100.0	 -0.369503620221	 -0.827035031778	 
100.0	 -0.393803939543	 -0.811750565975	 
100.0	 -0.422655478558	 -0.796637971261	 
100.0	 -0.460209050484	 -0.788228349023	 
100.0	 -0.516909263262	 -0.793052800648	 
100.0	 -0.606530805637	 -0.817614575836	 
100.0	 -0.731363575678	 -0.857544451235	 
100.0	 -0.864752638742	 -0.881146573167	 
100.0	 -0.97691007283	 -0.854295325895	 
100.0	 -1.05990994776	 -0.772104761905	 
100.0	 -1.12361265119	 -0.653477527021	 
101.0	 -1.20367806267	 0.0607878408428	 
101.0	 -1.23290614793	 0.295120028502	 
101.0	 -1.26304428463	 0.523490407853	 
101.0	 -1.26502320538	 0.749627815665	 
101.0	 -1.2011293444	 0.975643106413	 
101.0	 -1.02302402611	 1.20165839716	 
101.0	 -0.6974914929	 1.42429147644	 
101.0	 -0.29334349691	 1.61828558098	 
101.0	 0.0804870970859	 1.74985272647	 
101.0	 0.365346506612	 1.80351946055	 
101.0	 0.596967906157	 1.79816429239	 
101.0	 0.817460572473	 1.75422481097	 
101.0	 1.02527428095	 1.66793722342	 
101.0	 1.19199296207	 1.52064780405	 
101.0	 1.29914752917	 1.30195228906	 
101.0	 1.358524395	 1.02622214125	 
101.0	 1.38678430763	 0.71279516207	 
101.0	 1.38773826507	 0.390362439301	 
101.0	 1.35320021586	 0.0963476694668	 
101.0	 1.28065050231	 -0.137911945241	 
101.0	 1.19627117025	 -0.311163489245	 
101.0	 1.1341867683	 -0.431020424794	 
101.0	 1.10696372331	 -0.508070695908	 
101.0	 1.09672830544	 -0.557100467975	 
101.0	 1.08236236317	 -0.591974385874	 
101.0	 1.03551999257	 -0.617087195957	 
101.0	 0.924648961887	 -0.632462385804	 
101.0	 0.742367252502	 -0.638099955415	 
101.0	 0.533694050991	 -0.633999904789	 
101.0	 0.3482032128	 -0.620479316252	 
101.0	 0.205028436672	 -0.602053493499	 
101.0	 0.10174298876	 -0.586211946748	 
101.0	 0.0253851482349	 -0.587109704432	 
101.0	 -0.0714488499748	 -0.641465009944	 
101.0	 -0.241012387235	 -0.788403950586	 
101.0	 -0.470241575506	 -1.00417783086	 
101.0	 -0.676112776492	 -1.19769429346	 
101.0	 -0.788340761393	 -1.28853159034	 
101.0	 -0.82551583104	 -1.27307272599	 
101.0	 -0.83639100192	 -1.17410835955	 
101.0	 -0.855274569562	 -1.02528628386	 
101.0	 -0.892965867226	 -0.877855296771	 
101.0	 -0.956188883876	 -0.779138100407	 
101.0	 -1.03418854237	 -0.726074520029	 
101.0	 -1.10689280222	 -0.6887128454	 
101.0	 -1.15930857273	 -0.637816085995	 
101.0	 -1.18942808265	 -0.546577757039	 
101.0	 -1.1979037596	 -0.390521048068	 
101.0	 -1.19601314101	 -0.176988947172	 
101.0	 -1.20367806267	 0.0607878408428	 
102.0	 -1.01664836913	 0.269520702948	 
102.0	 -0.969027920529	 0.395165084087	 
102.0	 -0.930374233631	 0.512868751483	 
102.0	 -0.883025505082	 0.635169674204	 
102.0	 -0.810034320442	 0.773369670441	 
102.0	 -0.701029293069	 0.927391654904	 
102.0	 -0.549183070892	 1.09102608232	 
102.0	 -0.348370010486	 1.25781814307	 
102.0	 -0.110512315526	 1.41628762378	 
102.0	 0.132779780465	 1.54947220021	 
102.0	 0.34897595291	 1.64015724082	 
102.0	 0.521675179492	 1.67644421296	 
102.0	 0.670463041533	 1.65829550273	 
102.0	 0.819794343676	 1.58727835627	 
102.0	 0.987312237877	 1.4649600197	 
102.0	 1.15736370351	 1.29290773917	 
102.0	 1.30413781806	 1.07268876079	 
102.0	 1.40356555225	 0.806876464037	 
102.0	 1.45185624365	 0.5097405282	 
102.0	 1.4583020471	 0.203096632487	 
102.0	 1.43247113134	 -0.0911973636947	 
102.0	 1.38618513011	 -0.354533024586	 
102.0	 1.33419300779	 -0.57252303068	 
102.0	 1.29142004491	 -0.731079503228	 
102.0	 1.26100249468	 -0.82669196568	 
102.0	 1.21428174137	 -0.884377071701	 
102.0	 1.1172927785	 -0.933912497827	 
102.0	 0.943145787226	 -0.9996347516	 
102.0	 0.707344107324	 -1.07327790603	 
102.0	 0.441109781641	 -1.13448757447	 
102.0	 0.175103700801	 -1.16407439525	 
102.0	 -0.0687952366392	 -1.16057769499	 
102.0	 -0.275468527008	 -1.13618437961	 
102.0	 -0.430198000844	 -1.10334534896	 
102.0	 -0.531851491264	 -1.0692873491	 
102.0	 -0.600355135388	 -1.03313968772	 
102.0	 -0.657445463882	 -0.993334886512	 
102.0	 -0.720466401186	 -0.947355367724	 
102.0	 -0.792363526843	 -0.889569261397	 
102.0	 -0.873136840853	 -0.813707582997	 
102.0	 -0.961974805994	 -0.715373684704	 
102.0	 -1.05206811777	 -0.604008657226	 
102.0	 -1.13391925466	 -0.495255706637	 
102.0	 -1.19812106718	 -0.403915518447	 
102.0	 -1.23730309862	 -0.327559286823	 
102.0	 -1.24596191093	 -0.247964079855	 
102.0	 -1.21874468619	 -0.146436869193	 
102.0	 -1.15871568856	 -0.016038508116	 
102.0	 -1.08455724825	 0.128360585087	 
102.0	 -1.01664836913	 0.269520702948	 
103.0	 -0.95213864148	 0.493396864008	 
103.0	 -0.892753395323	 0.635121776679	 
103.0	 -0.8326852985	 0.748890895321	 
103.0	 -0.761691591039	 0.847037658476	 
103.0	 -0.670395107476	 0.940969039406	 
103.0	 -0.557386574105	 1.03356379753	 
103.0	 -0.425550872401	 1.12310456135	 
103.0	 -0.277864075115	 1.20791894269	 
103.0	 -0.11864281008	 1.28875582274	 
103.0	 0.0463339105604	 1.36900539619	 
103.0	 0.21123844413	 1.45214451809	 
103.0	 0.375620109191	 1.53168932363	 
103.0	 0.551024934985	 1.57893226631	 
103.0	 0.750622184335	 1.56215878989	 
103.0	 0.98123617285	 1.45681686836	 
103.0	 1.21867635571	 1.27336577964	 
103.0	 1.42929026246	 1.03294595099	 
103.0	 1.58151863087	 0.756265377981	 
103.0	 1.66816262524	 0.45897469383	 
103.0	 1.69773981404	 0.153461717317	 
103.0	 1.67896727376	 -0.147883731581	 
103.0	 1.61813503452	 -0.430480004669	 
103.0	 1.51838030739	 -0.676898191366	 
103.0	 1.38262959521	 -0.86953231903	 
103.0	 1.21380940083	 -0.998845485613	 
103.0	 1.01484622709	 -1.07706297823	 
103.0	 0.788666576861	 -1.12004207502	 
103.0	 0.541054520424	 -1.14230195215	 
103.0	 0.294916120756	 -1.15034413715	 
103.0	 0.0795060010086	 -1.14769734209	 
103.0	 -0.0780178923744	 -1.13775854831	 
103.0	 -0.182025803648	 -1.12202656226	 
103.0	 -0.261158440701	 -1.10053897156	 
103.0	 -0.344445989206	 -1.0732740241	 
103.0	 -0.446828065564	 -1.03890484203	 
103.0	 -0.561403903794	 -0.994081602529	 
103.0	 -0.679394139868	 -0.93528116208	 
103.0	 -0.792610780109	 -0.86182868365	 
103.0	 -0.894804259616	 -0.782385677929	 
103.0	 -0.98012157269	 -0.707523663666	 
103.0	 -1.04370862661	 -0.645859603256	 
103.0	 -1.08809391982	 -0.591565066029	 
103.0	 -1.11911485003	 -0.532337153385	 
103.0	 -1.14229145193	 -0.456065168247	 
103.0	 -1.15656303083	 -0.355040602765	 
103.0	 -1.15483639415	 -0.225590397976	 
103.0	 -1.12985540453	 -0.0642742423461	 
103.0	 -1.0805665932	 0.123730430189	 
103.0	 -1.01742566838	 0.317255784737	 
103.0	 -0.95213864148	 0.493396864008	 
104.0	 -0.92292115602	 0.380000908344	 
104.0	 -0.869907667089	 0.555364179523	 
104.0	 -0.815001110139	 0.719887827359	 
104.0	 -0.750510896344	 0.872302346418	 
104.0	 -0.668760613885	 1.011335631	 
104.0	 -0.56416784741	 1.13533150716	 
104.0	 -0.435438463696	 1.24184727	 
104.0	 -0.281803403861	 1.32834390865	 
104.0	 -0.102707839353	 1.39228241224	 
104.0	 0.0964571749024	 1.43112376989	 
104.0	 0.303726886613	 1.44232897073	 
104.0	 0.506796353656	 1.4233590039	 
104.0	 0.694211254342	 1.37223651498	 
104.0	 0.863539210962	 1.29294125234	 
104.0	 1.01778178181	 1.19304093992	 
104.0	 1.16001520241	 1.08015261034	 
104.0	 1.29200512275	 0.959729878677	 
104.0	 1.40890889887	 0.826317877877	 
104.0	 1.50380575927	 0.671031321865	 
104.0	 1.56977464075	 0.484999081542	 
104.0	 1.60008951604	 0.265789045675	 
104.0	 1.5885202614	 0.0273411197327	 
104.0	 1.5289144058	 -0.213841125611	 
104.0	 1.41535284453	 -0.441374502159	 
104.0	 1.25187094892	 -0.644010856599	 
104.0	 1.0559702635	 -0.817448586001	 
104.0	 0.84610820143	 -0.957879174056	 
104.0	 0.639846049036	 -1.06193788241	 
104.0	 0.442120555253	 -1.13251186807	 
104.0	 0.248536147762	 -1.1771098194	 
104.0	 0.0544784732655	 -1.20334876904	 
104.0	 -0.143036115657	 -1.21794846679	 
104.0	 -0.336577292028	 -1.22189845658	 
104.0	 -0.514618973996	 -1.21393462613	 
104.0	 -0.665626620178	 -1.1927876626	 
104.0	 -0.7817423764	 -1.15771600995	 
104.0	 -0.86679998544	 -1.10965634013	 
104.0	 -0.926951918358	 -1.0498781586	 
104.0	 -0.968346912354	 -0.97965713437	 
104.0	 -0.996862007827	 -0.900717433405	 
104.0	 -1.01792314798	 -0.815527859524	 
104.0	 -1.03691374498	 -0.726627423597	 
104.0	 -1.05885701002	 -0.636290872887	 
104.0	 -1.08181576883	 -0.54168642634	 
104.0	 -1.09755720582	 -0.435363468073	 
104.0	 -1.09762167328	 -0.309704965466	 
104.0	 -1.07483303856	 -0.15844216963	 
104.0	 -1.03249763642	 0.0136822351145	 
104.0	 -0.97904045967	 0.196548608936	 
104.0	 -0.92292115602	 0.380000908344	 
105.0	 -0.918686978859	 0.369827607708	 
105.0	 -0.844834426231	 0.598500712922	 
105.0	 -0.775450484233	 0.800790117942	 
105.0	 -0.702123650503	 0.97566116786	 
105.0	 -0.616442422681	 1.12207920777	 
105.0	 -0.511075131513	 1.2387439335	 
105.0	 -0.384241796655	 1.32298927249	 
105.0	 -0.235941606815	 1.37171145959	 
105.0	 -0.0661745619924	 1.38180653006	 
105.0	 0.123690278184	 1.35186700196	 
105.0	 0.323182345672	 1.29176361086	 
105.0	 0.518118182715	 1.21596795363	 
105.0	 0.694303379079	 1.13896519901	 
105.0	 0.839206931979	 1.07364003392	 
105.0	 0.954775644209	 1.01894702578	 
105.0	 1.05041084824	 0.966668212436	 
105.0	 1.13557548423	 0.908526354604	 
105.0	 1.21890172667	 0.836448589286	 
105.0	 1.29936409918	 0.744737927721	 
105.0	 1.36970638292	 0.629230203238	 
105.0	 1.42256851332	 0.485786796197	 
105.0	 1.4507121707	 0.310919438624	 
105.0	 1.44884659878	 0.111543593089	 
105.0	 1.4132473976	 -0.0970579253899	 
105.0	 1.34023453487	 -0.299365293169	 
105.0	 1.22634702787	 -0.480268237507	 
105.0	 1.07316203327	 -0.634076156402	 
105.0	 0.887294847213	 -0.76451811859	 
105.0	 0.675579815357	 -0.875732743709	 
105.0	 0.444933680481	 -0.971796280708	 
105.0	 0.205182132836	 -1.05458304368	 
105.0	 -0.0302322339047	 -1.12322952288	 
105.0	 -0.247640728404	 -1.17670106342	 
105.0	 -0.433510956819	 -1.21396939712	 
105.0	 -0.582488374822	 -1.23438946138	 
105.0	 -0.701894104839	 -1.23791016211	 
105.0	 -0.80013964923	 -1.22453149933	 
105.0	 -0.885613236341	 -1.19426694508	 
105.0	 -0.963886938864	 -1.14876009182	 
105.0	 -1.03506343627	 -1.09282046823	 
105.0	 -1.09861700966	 -1.03162134884	 
105.0	 -1.15401747802	 -0.97032004131	 
105.0	 -1.19922200156	 -0.908661075295	 
105.0	 -1.22847971854	 -0.833120489244	 
105.0	 -1.23548200218	 -0.728178459514	 
105.0	 -1.21392194974	 -0.57831865522	 
105.0	 -1.16127339264	 -0.37568436523	 
105.0	 -1.0868075013	 -0.136319825951	 
105.0	 -1.00209009146	 0.119081864425	 
105.0	 -0.918686978859	 0.369827607708	 
106.0	 -1.09078139848	 -0.308214482711	 
106.0	 -1.17952965438	 -0.13239150914	 
106.0	 -1.2615511366	 0.0453056477772	 
106.0	 -1.3248871364	 0.221349113507	 
106.0	 -1.35945583501	 0.393179973194	 
106.0	 -1.36423509203	 0.562916444477	 
106.0	 -1.34093273832	 0.734086114788	 
106.0	 -1.29068491795	 0.909035158503	 
106.0	 -1.21128607665	 1.08320903447	 
106.0	 -1.09932110884	 1.24955543882	 
106.0	 -0.951525963824	 1.40086093326	 
106.0	 -0.765721085736	 1.52879232099	 
106.0	 -0.540196210724	 1.6245318536	 
106.0	 -0.274804524281	 1.67925984474	 
106.0	 0.0170093240937	 1.68415660809	 
106.0	 0.314802526845	 1.63040245731	 
106.0	 0.598537059019	 1.51099281876	 
106.0	 0.853165685138	 1.33850478908	 
106.0	 1.06668624992	 1.1374630249	 
106.0	 1.22811324684	 0.93134247649	 
106.0	 1.33967336253	 0.727053046554	 
106.0	 1.41311509407	 0.519566480321	 
106.0	 1.46004241802	 0.304114204218	 
106.0	 1.48587509747	 0.0850495028762	 
106.0	 1.4907800366	 -0.125526250367	 
106.0	 1.47440132148	 -0.315559484188	 
106.0	 1.42819701726	 -0.479758386784	 
106.0	 1.33543916826	 -0.619592905878	 
106.0	 1.17992611263	 -0.736802359984	 
106.0	 0.973221300003	 -0.832351258746	 
106.0	 0.759576165334	 -0.906291925985	 
106.0	 0.584531566992	 -0.958670871767	 
106.0	 0.467103320035	 -0.991641339826	 
106.0	 0.389501844188	 -1.01027981759	 
106.0	 0.331261253099	 -1.01986017316	 
106.0	 0.274351724575	 -1.02439863676	 
106.0	 0.204736068002	 -1.02585021013	 
106.0	 0.108845064001	 -1.02597423697	 
106.0	 -0.0150474700894	 -1.02597423697	 
106.0	 -0.145666777853	 -1.02597423697	 
106.0	 -0.259144240926	 -1.02596648529	 
106.0	 -0.343812833161	 -1.0240050238	 
106.0	 -0.416202394088	 -1.01366486029	 
106.0	 -0.496802444972	 -0.987891394088	 
106.0	 -0.598038831623	 -0.940462612101	 
106.0	 -0.710059410988	 -0.867456739742	 
106.0	 -0.819197921524	 -0.765346404899	 
106.0	 -0.915883058527	 -0.633070632609	 
106.0	 -1.00413303489	 -0.477753429768	 
106.0	 -1.09078139848	 -0.308214482711	 
107.0	 -0.845672809893	 -0.648099332386	 
107.0	 -0.901923918161	 -0.502104152279	 
107.0	 -0.967934129098	 -0.387696193569	 
107.0	 -1.04621237562	 -0.273155255207	 
107.0	 -1.13519242936	 -0.135805739709	 
107.0	 -1.22180664004	 0.0215011565806	 
107.0	 -1.29099458822	 0.191464138683	 
107.0	 -1.33076742553	 0.369764431582	 
107.0	 -1.33534834717	 0.558115204016	 
107.0	 -1.29980203256	 0.758724779344	 
107.0	 -1.22401242373	 0.961634670802	 
107.0	 -1.11495314671	 1.13898762859	 
107.0	 -0.979859704123	 1.26255354649	 
107.0	 -0.817863238729	 1.33220731103	 
107.0	 -0.619344070923	 1.37817065953	 
107.0	 -0.375441204265	 1.43035275259	 
107.0	 -0.0960165819207	 1.49009398536	 
107.0	 0.194202199436	 1.53605170333	 
107.0	 0.471109532007	 1.54683075569	 
107.0	 0.721032149239	 1.50682449815	 
107.0	 0.936354311554	 1.40378737609	 
107.0	 1.11047086207	 1.23005939724	 
107.0	 1.24319436843	 1.00913887754	 
107.0	 1.33702932931	 0.77759356519	 
107.0	 1.39483873546	 0.565252799884	 
107.0	 1.42115294099	 0.369565458915	 
107.0	 1.42099936244	 0.178330121021	 
107.0	 1.39990247873	 -0.0143828973628	 
107.0	 1.36505413216	 -0.193455979234	 
107.0	 1.32398393554	 -0.33939377771	 
107.0	 1.28085658789	 -0.441849548503	 
107.0	 1.23181463256	 -0.512287363061	 
107.0	 1.17171340122	 -0.565362556073	 
107.0	 1.08588925456	 -0.616570734646	 
107.0	 0.94328487419	 -0.682854632523	 
107.0	 0.712596755552	 -0.780703643722	 
107.0	 0.412427516572	 -0.90495516033	 
107.0	 0.124235358141	 -1.02317638922	 
107.0	 -0.0700570311364	 -1.10276512482	 
107.0	 -0.159783659135	 -1.1426798864	 
107.0	 -0.200271178214	 -1.17110838566	 
107.0	 -0.246383884866	 -1.21502619909	 
107.0	 -0.316119718776	 -1.27249551673	 
107.0	 -0.402416454185	 -1.32192445075	 
107.0	 -0.497545619228	 -1.34170935544	 
107.0	 -0.592225731157	 -1.31326255699	 
107.0	 -0.676407414457	 -1.21948764157	 
107.0	 -0.742338235259	 -1.05112356175	 
107.0	 -0.7954102419	 -0.843581159347	 
107.0	 -0.845672809893	 -0.648099332386	 
108.0	 -1.18446081858	 -0.57269701462	 
108.0	 -1.21629498675	 -0.419662541906	 
108.0	 -1.2419865272	 -0.281196176762	 
108.0	 -1.26743236254	 -0.138774232742	 
108.0	 -1.29583001843	 0.0229471750802	 
108.0	 -1.31734713146	 0.203963147454	 
108.0	 -1.31822501533	 0.399643704932	 
108.0	 -1.28536259688	 0.60570263209	 
108.0	 -1.20950370394	 0.819866677043	 
108.0	 -1.08278385346	 1.04059119428	 
108.0	 -0.899449130883	 1.26398661917	 
108.0	 -0.668719236501	 1.46950487015	 
108.0	 -0.406293383073	 1.62938924775	 
108.0	 -0.127758488444	 1.71856765293	 
108.0	 0.152501460804	 1.73558488288	 
108.0	 0.420721859716	 1.69114592395	 
108.0	 0.663675503283	 1.5961398612	 
108.0	 0.873877503646	 1.4623576813	 
108.0	 1.04734659023	 1.30214065721	 
108.0	 1.18063137409	 1.12727261517	 
108.0	 1.27679549079	 0.941862895116	 
108.0	 1.34359784698	 0.744489960903	 
108.0	 1.38866777825	 0.534297009119	 
108.0	 1.41556864853	 0.322401191179	 
108.0	 1.42441019331	 0.130090312557	 
108.0	 1.41502860918	 -0.0219894345646	 
108.0	 1.38349261439	 -0.135381690721	 
108.0	 1.32210344888	 -0.233819929174	 
108.0	 1.22330032174	 -0.341442250962	 
108.0	 1.08901992031	 -0.464757623437	 
108.0	 0.932380353967	 -0.589520158916	 
108.0	 0.767089280394	 -0.700456257864	 
108.0	 0.604506721732	 -0.789666822219	 
108.0	 0.452735187861	 -0.859485402325	 
108.0	 0.319557260133	 -0.912999279257	 
108.0	 0.207149732247	 -0.953295734089	 
108.0	 0.108501690459	 -0.983462047895	 
108.0	 0.0157761655663	 -1.00658148185	 
108.0	 -0.07576690349	 -1.02525088957	 
108.0	 -0.164852921458	 -1.04112244882	 
108.0	 -0.249533523606	 -1.05573980013	 
108.0	 -0.332180020178	 -1.07064658405	 
108.0	 -0.425146131323	 -1.0873864411	 
108.0	 -0.542178545998	 -1.10749346456	 
108.0	 -0.68774602587	 -1.12557998719	 
108.0	 -0.840684659008	 -1.11713518808	 
108.0	 -0.975442553768	 -1.05437617562	 
108.0	 -1.07353519963	 -0.922470282758	 
108.0	 -1.13993188645	 -0.749561438127	 
108.0	 -1.18446081858	 -0.57269701462	 
109.0	 -0.562395921511	 -0.567606786175	 
109.0	 -0.610653266528	 -0.415863339433	 
109.0	 -0.703955886643	 -0.297816146665	 
109.0	 -0.820144116401	 -0.197185992017	 
109.0	 -0.945300399037	 -0.10314091955	 
109.0	 -1.08034466889	 -0.0146551617113	 
109.0	 -1.2268305426	 0.0692050708039	 
109.0	 -1.36982487625	 0.166136952908	 
109.0	 -1.48013391882	 0.308337539845	 
109.0	 -1.53190851855	 0.519421312631	 
109.0	 -1.52466037978	 0.762767389189	 
109.0	 -1.46824414544	 0.977204749541	 
109.0	 -1.36973049503	 1.12381118787	 
109.0	 -1.2280942337	 1.22787185097	 
109.0	 -1.0410329824	 1.32558578162	 
109.0	 -0.813292647207	 1.42986074938	 
109.0	 -0.559047012946	 1.52244981087	 
109.0	 -0.292517690862	 1.5838386372	 
109.0	 -0.020830745817	 1.60506425173	 
109.0	 0.253465529188	 1.58397100183	 
109.0	 0.524775443857	 1.51765649528	 
109.0	 0.772738086241	 1.39915232937	 
109.0	 0.972710985456	 1.22037579897	 
109.0	 1.11253139728	 0.987193435377	 
109.0	 1.20620786876	 0.734723653689	 
109.0	 1.2708383778	 0.500576919195	 
109.0	 1.31878290841	 0.294964217949	 
109.0	 1.35766345073	 0.10069705676	 
109.0	 1.3925698089	 -0.0980420214105	 
109.0	 1.41011793436	 -0.296721337066	 
109.0	 1.38811552384	 -0.481105680781	 
109.0	 1.31400139744	 -0.639700573102	 
109.0	 1.2080259789	 -0.770498892281	 
109.0	 1.09713708522	 -0.873525850627	 
109.0	 0.993633663481	 -0.950319399128	 
109.0	 0.887108912313	 -1.00476223371	 
109.0	 0.766143127689	 -1.041094108	 
109.0	 0.632785003805	 -1.06578011224	 
109.0	 0.499152213609	 -1.08694899907	 
109.0	 0.37528985797	 -1.11157430701	 
109.0	 0.258289638863	 -1.13994130869	 
109.0	 0.140741994539	 -1.17000541408	 
109.0	 0.015879452264	 -1.19811714111	 
109.0	 -0.121480407187	 -1.2166986145	 
109.0	 -0.275594346486	 -1.21740175784	 
109.0	 -0.429876702578	 -1.18644103964	 
109.0	 -0.543645777713	 -1.10374465877	 
109.0	 -0.581241082332	 -0.95312193428	 
109.0	 -0.567835840404	 -0.75883271232	 
109.0	 -0.562395921511	 -0.567606786175	 
110.0	 -1.17641625023	 -0.508467530253	 
110.0	 -1.27449538201	 -0.368780373313	 
110.0	 -1.35522747043	 -0.23606534242	 
110.0	 -1.40126547215	 -0.0993138174992	 
110.0	 -1.39743907651	 0.0513070057625	 
110.0	 -1.3486150345	 0.214806419513	 
110.0	 -1.27045871918	 0.384360574304	 
110.0	 -1.17833949415	 0.553345474711	 
110.0	 -1.07679095371	 0.722070925046	 
110.0	 -0.958526171487	 0.898410670933	 
110.0	 -0.815679051835	 1.09057163864	 
110.0	 -0.644395397118	 1.29625853087	 
110.0	 -0.449772084073	 1.48974420252	 
110.0	 -0.238117128465	 1.6421310259	 
110.0	 -0.0157385460577	 1.72936951522	 
110.0	 0.211055647384	 1.75110848192	 
110.0	 0.435957436097	 1.71422654672	 
110.0	 0.652814557792	 1.62540023384	 
110.0	 0.857285384335	 1.48893615622	 
110.0	 1.04619643866	 1.3076119518	 
110.0	 1.21636007013	 1.08438526984	 
110.0	 1.36328076619	 0.830202348225	 
110.0	 1.48076405534	 0.566386884049	 
110.0	 1.56250254485	 0.314945244746	 
110.0	 1.60256895831	 0.0912500848402	 
110.0	 1.59606118871	 -0.107216987396	 
110.0	 1.53824822424	 -0.285960281999	 
110.0	 1.42662329056	 -0.449140445767	 
110.0	 1.27200681527	 -0.592867154685	 
110.0	 1.0901607386	 -0.710264913925	 
110.0	 0.896571239254	 -0.795047801425	 
110.0	 0.702477098643	 -0.849824860144	 
110.0	 0.515847443353	 -0.884052494725	 
110.0	 0.344547823905	 -0.907303787592	 
110.0	 0.195275639751	 -0.925584212815	 
110.0	 0.072917656192	 -0.939369451508	 
110.0	 -0.0177959715944	 -0.948659639579	 
110.0	 -0.0756404761521	 -0.954011052115	 
110.0	 -0.110881257555	 -0.957802910141	 
110.0	 -0.136134347331	 -0.962787368675	 
110.0	 -0.164015777009	 -0.971364306892	 
110.0	 -0.207141578116	 -0.983330065323	 
110.0	 -0.278127782183	 -0.997314070767	 
110.0	 -0.388713217161	 -1.01152273361	 
110.0	 -0.533299947383	 -1.01591089189	 
110.0	 -0.690397575537	 -0.99286923848	 
110.0	 -0.838022744562	 -0.924639238304	 
110.0	 -0.963962279294	 -0.806923452262	 
110.0	 -1.07413177462	 -0.660401777026	 
110.0	 -1.17641625023	 -0.508467530253	 
111.0	 -0.990920667368	 -0.752044932964	 
111.0	 -1.10061241029	 -0.619582851944	 
111.0	 -1.19986174062	 -0.468852973073	 
111.0	 -1.27822624577	 -0.320028324652	 
111.0	 -1.32629305768	 -0.189635597856	 
111.0	 -1.34412637784	 -0.060636553361	 
111.0	 -1.3368979078	 0.102096277349	 
111.0	 -1.30968145681	 0.332413484814	 
111.0	 -1.26356466876	 0.624892509216	 
111.0	 -1.19528676066	 0.93126850867	 
111.0	 -1.10135764617	 1.20120305322	 
111.0	 -0.976319424302	 1.40431556225	 
111.0	 -0.810323739719	 1.55475405293	 
111.0	 -0.592928179831	 1.67269155358	 
111.0	 -0.319114542282	 1.77146716783	 
111.0	 -0.0103788127111	 1.83101495878	 
111.0	 0.303694149961	 1.82107787447	 
111.0	 0.594634805237	 1.71430195265	 
111.0	 0.846962169019	 1.51711060101	 
111.0	 1.05357497102	 1.25771907876	 
111.0	 1.20769724573	 0.964723774267	 
111.0	 1.30976989502	 0.667418166057	 
111.0	 1.36960878672	 0.396001277501	 
111.0	 1.39765358316	 0.180709406407	 
111.0	 1.4026659412	 0.0375967135933	 
111.0	 1.38888195659	 -0.0555316979853	 
111.0	 1.3597824335	 -0.127254285089	 
111.0	 1.31752641596	 -0.203048918329	 
111.0	 1.25635321598	 -0.2898153545	 
111.0	 1.16756563604	 -0.387564883858	 
111.0	 1.04384006411	 -0.495752834638	 
111.0	 0.898477813294	 -0.605684631643	 
111.0	 0.760657304904	 -0.702391887872	 
111.0	 0.659514159254	 -0.770941996471	 
111.0	 0.597111075126	 -0.808232212861	 
111.0	 0.533547722934	 -0.829496078989	 
111.0	 0.425318691288	 -0.851543123508	 
111.0	 0.247909836501	 -0.885747613716	 
111.0	 0.0390577171357	 -0.925667795277	 
111.0	 -0.150766005954	 -0.961217154039	 
111.0	 -0.277921330285	 -0.983600249663	 
111.0	 -0.349258478517	 -0.993563484197	 
111.0	 -0.394257541661	 -0.996129941686	 
111.0	 -0.441713279055	 -0.996087852281	 
111.0	 -0.504766113299	 -0.993185177654	 
111.0	 -0.582206271556	 -0.982549508844	 
111.0	 -0.672287851198	 -0.959132275715	 
111.0	 -0.772697449593	 -0.917336749672	 
111.0	 -0.880068656382	 -0.85054908301	 
111.0	 -0.990920667368	 -0.752044932964	 
112.0	 -0.998713735184	 -0.844323057457	 
112.0	 -1.10290582258	 -0.731701416769	 
112.0	 -1.20172891352	 -0.596784062051	 
112.0	 -1.29518300801	 -0.43558516733	 
112.0	 -1.38110128968	 -0.245487331384	 
112.0	 -1.4468577998	 -0.0304784885722	 
112.0	 -1.47667490509	 0.203463027606	 
112.0	 -1.45751475555	 0.450135962193	 
112.0	 -1.392342626	 0.702039644633	 
112.0	 -1.28991623536	 0.951203071718	 
112.0	 -1.15821767144	 1.18876379767	 
112.0	 -0.999664494973	 1.39953380798	 
112.0	 -0.814266336243	 1.56558783317	 
112.0	 -0.602886069683	 1.67123168346	 
112.0	 -0.373896773093	 1.72028510877	 
112.0	 -0.139538480052	 1.72661546193	 
112.0	 0.0890561884502	 1.70255413533	 
112.0	 0.313046291915	 1.64296655604	 
112.0	 0.541090535558	 1.53206146736	 
112.0	 0.780313910949	 1.35559849397	 
112.0	 1.01556703673	 1.12245621894	 
112.0	 1.21564775719	 0.858174678501	 
112.0	 1.35050762593	 0.588425277677	 
112.0	 1.41638968656	 0.334757036864	 
112.0	 1.43186892336	 0.115217430936	 
112.0	 1.41590118093	 -0.0531292226652	 
112.0	 1.37988188033	 -0.173272293418	 
112.0	 1.32764601902	 -0.268254837722	 
112.0	 1.26260200806	 -0.361518964909	 
112.0	 1.18507799084	 -0.461625215842	 
112.0	 1.09177569833	 -0.559613996728	 
112.0	 0.979404565746	 -0.645625837657	 
112.0	 0.854445282254	 -0.714561683918	 
112.0	 0.73693685098	 -0.767927897477	 
112.0	 0.647631630236	 -0.807727527799	 
112.0	 0.587282923093	 -0.836674069932	 
112.0	 0.523866217978	 -0.858645416615	 
112.0	 0.422514996265	 -0.877611824186	 
112.0	 0.272116896251	 -0.895659623428	 
112.0	 0.107693662648	 -0.911216281437	 
112.0	 -0.0305114138954	 -0.922299832625	 
112.0	 -0.122000072185	 -0.929665566363	 
112.0	 -0.191903173311	 -0.940394340765	 
112.0	 -0.271761859376	 -0.962448725489	 
112.0	 -0.381946130311	 -0.997206633029	 
112.0	 -0.511962816711	 -1.02785415754	 
112.0	 -0.646034356645	 -1.03446330443	 
112.0	 -0.771885048774	 -1.00267919674	 
112.0	 -0.888860461054	 -0.9366418971	 
112.0	 -0.998713735184	 -0.844323057457	 
113.0	 -1.28124854254	 -0.267634487658	 
113.0	 -1.30942753771	 -0.108443210826	 
113.0	 -1.31490109532	 0.0544630519829	 
113.0	 -1.29955088144	 0.224799286743	 
113.0	 -1.26488752551	 0.4057921193	 
113.0	 -1.2090062239	 0.596172767282	 
113.0	 -1.12816148539	 0.792249727094	 
113.0	 -1.01868559431	 0.990087773714	 
113.0	 -0.879496662346	 1.17979559646	 
113.0	 -0.712333627731	 1.34498451176	 
113.0	 -0.519083174341	 1.46897670925	 
113.0	 -0.302695754618	 1.54349520016	 
113.0	 -0.0684952291718	 1.57900633833	 
113.0	 0.177873403704	 1.58851257467	 
113.0	 0.430255190975	 1.58098913183	 
113.0	 0.680002459865	 1.5457256594	 
113.0	 0.917707065733	 1.46600618812	 
113.0	 1.13386775631	 1.32703957012	 
113.0	 1.3179030636	 1.13642776746	 
113.0	 1.45853460624	 0.916219909848	 
113.0	 1.5446730987	 0.688448340795	 
113.0	 1.57303189752	 0.465132278255	 
113.0	 1.55046026732	 0.245283535959	 
113.0	 1.48448710258	 0.0270526929875	 
113.0	 1.3840019515	 -0.186484700911	 
113.0	 1.26156402928	 -0.378970507613	 
113.0	 1.13034499861	 -0.531829797238	 
113.0	 1.00208747807	 -0.630921223416	 
113.0	 0.879971529823	 -0.688668616531	 
113.0	 0.764002357499	 -0.727345748303	 
113.0	 0.654044481134	 -0.768306358122	 
113.0	 0.54793523916	 -0.81889621159	 
113.0	 0.441951441593	 -0.875677708352	 
113.0	 0.332352986683	 -0.934924396424	 
113.0	 0.21679359942	 -0.99222186346	 
113.0	 0.0950874362382	 -1.04208935854	 
113.0	 -0.0327650382525	 -1.07895495308	 
113.0	 -0.164862179772	 -1.09949882553	 
113.0	 -0.29307054469	 -1.10778324425	 
113.0	 -0.407981802519	 -1.10938068822	 
113.0	 -0.502114448857	 -1.10859558785	 
113.0	 -0.582227428325	 -1.10036070227	 
113.0	 -0.661462296947	 -1.0754083798	 
113.0	 -0.752419805974	 -1.02477990883	 
113.0	 -0.856417400439	 -0.946013950611	 
113.0	 -0.964429215911	 -0.842605252089	 
113.0	 -1.06706476289	 -0.71827466983	 
113.0	 -1.15677423945	 -0.577348740713	 
113.0	 -1.22942327673	 -0.425277853667	 
113.0	 -1.28124854254	 -0.267634487658	 
114.0	 -1.14448925025	 -0.178728181946	 
114.0	 -1.13527214371	 -0.00870219558896	 
114.0	 -1.11893551591	 0.163130322362	 
114.0	 -1.09266671648	 0.344477240039	 
114.0	 -1.0540393538	 0.539870881759	 
114.0	 -1.00249149292	 0.738515339446	 
114.0	 -0.938023019383	 0.924995817735	 
114.0	 -0.859063719858	 1.08712387378	 
114.0	 -0.754873884422	 1.23155732923	 
114.0	 -0.611394839092	 1.37177554429	 
114.0	 -0.417203453471	 1.51782201918	 
114.0	 -0.179624223456	 1.65527523728	 
114.0	 0.0859057196377	 1.75912696773	 
114.0	 0.363719034281	 1.8052750682	 
114.0	 0.636427095513	 1.77787224209	 
114.0	 0.885755000522	 1.66532156019	 
114.0	 1.09441066042	 1.4586702628	 
114.0	 1.25578372883	 1.17711227765	 
114.0	 1.36978121752	 0.857014951829	 
114.0	 1.43691813815	 0.534206574083	 
114.0	 1.46470130077	 0.233870696641	 
114.0	 1.46567638952	 -0.026480614863	 
114.0	 1.45212488758	 -0.230533533325	 
114.0	 1.42978299488	 -0.379911114474	 
114.0	 1.39882736041	 -0.491471967596	 
114.0	 1.35890640287	 -0.582317925112	 
114.0	 1.30158217115	 -0.664010789219	 
114.0	 1.21033034432	 -0.742572331898	 
114.0	 1.06886385013	 -0.82354140724	 
114.0	 0.87942745276	 -0.904839092562	 
114.0	 0.666083527225	 -0.975418023761	 
114.0	 0.453898721278	 -1.02385188851	 
114.0	 0.256742184608	 -1.04485156375	 
114.0	 0.0729457372076	 -1.04164371563	 
114.0	 -0.100246047777	 -1.01811168141	 
114.0	 -0.261577915247	 -0.980199608664	 
114.0	 -0.403221230109	 -0.937229247452	 
114.0	 -0.516792975822	 -0.898800305941	 
114.0	 -0.600557219733	 -0.870262124904	 
114.0	 -0.665687654926	 -0.848709199364	 
114.0	 -0.724827302761	 -0.83029182931	 
114.0	 -0.787142340852	 -0.812218986159	 
114.0	 -0.853764249826	 -0.794146143007	 
114.0	 -0.924689825166	 -0.776067654445	 
114.0	 -0.997592587512	 -0.753884951918	 
114.0	 -1.0637274099	 -0.71219170818	 
114.0	 -1.1132507027	 -0.633646709692	 
114.0	 -1.13968979932	 -0.508221981125	 
114.0	 -1.14775877319	 -0.350159248432	 
114.0	 -1.14448925025	 -0.178728181946	 
115.0	 -0.567582274129	 -0.0629580344684	 
115.0	 -0.404465227921	 0.0682547953857	 
115.0	 -0.313399883105	 0.189398535179	 
115.0	 -0.273971590954	 0.308025002457	 
115.0	 -0.265990864307	 0.431476242056	 
115.0	 -0.27444693204	 0.562269526491	 
115.0	 -0.289507739067	 0.698097355956	 
115.0	 -0.30156639187	 0.836442457937	 
115.0	 -0.301216140543	 0.974577787208	 
115.0	 -0.279850809644	 1.10893720771	 
115.0	 -0.229064367343	 1.23574481066	 
115.0	 -0.140851069041	 1.35111980094	 
115.0	 -0.0164117764283	 1.44876899726	 
115.0	 0.133846042517	 1.51998683216	 
115.0	 0.299114632586	 1.55596285186	 
115.0	 0.470387531104	 1.54956478422	 
115.0	 0.645863445537	 1.50037308382	 
115.0	 0.825542375885	 1.40964638692	 
115.0	 1.00904905287	 1.27861710818	 
115.0	 1.18737701381	 1.10791456575	 
115.0	 1.34288860265	 0.897564981196	 
115.0	 1.45757089404	 0.647568354532	 
115.0	 1.51801426576	 0.362749458074	 
115.0	 1.5292223082	 0.0672321534264	 
115.0	 1.50080191487	 -0.210034925486	 
115.0	 1.44218485363	 -0.440968457166	 
115.0	 1.35877500209	 -0.617387305938	 
115.0	 1.2519483476	 -0.751012521953	 
115.0	 1.12290575184	 -0.854430467785	 
115.0	 0.971046783974	 -0.938759097044	 
115.0	 0.788565843017	 -1.00924272747	 
115.0	 0.565856035449	 -1.06965726783	 
115.0	 0.294286167875	 -1.1235688542	 
115.0	 -0.0123338502731	 -1.16971885031	 
115.0	 -0.317753006731	 -1.20202384759	 
115.0	 -0.584744589113	 -1.21419066475	 
115.0	 -0.785288491322	 -1.20181407488	 
115.0	 -0.928191032417	 -1.16804066864	 
115.0	 -1.03146513775	 -1.11790499104	 
115.0	 -1.11289857109	 -1.05641536554	 
115.0	 -1.18510038019	 -0.987977019033	 
115.0	 -1.25550089676	 -0.916392081883	 
115.0	 -1.33130529094	 -0.845436462861	 
115.0	 -1.41151284464	 -0.776578570935	 
115.0	 -1.46229928694	 -0.70205681585	 
115.0	 -1.44163445869	 -0.611802107545	 
115.0	 -1.30971479847	 -0.496243566145	 
115.0	 -1.07794849232	 -0.357269146036	 
115.0	 -0.808955473793	 -0.208225635866	 
115.0	 -0.567582274129	 -0.0629580344684	 
116.0	 -1.18539679638	 0.108940790185	 
116.0	 -1.14351506582	 0.26931805175	 
116.0	 -1.09246936706	 0.404693814493	 
116.0	 -1.03630262723	 0.526098151423	 
116.0	 -0.978171989778	 0.644198641053	 
116.0	 -0.913080862601	 0.766326060547	 
116.0	 -0.831638341157	 0.898012876649	 
116.0	 -0.724639196082	 1.04437711132	 
116.0	 -0.589051398385	 1.19980003176	 
116.0	 -0.428577137986	 1.34695039744	 
116.0	 -0.247264732607	 1.46792272318	 
116.0	 -0.0503053007148	 1.54870881625	 
116.0	 0.154560299834	 1.58399585816	 
116.0	 0.359246214731	 1.56964757152	 
116.0	 0.556214431255	 1.50451696491	 
116.0	 0.74060485184	 1.40206903401	 
116.0	 0.908374349682	 1.28022655807	 
116.0	 1.05541344738	 1.15453036526	 
116.0	 1.176839021	 1.01281843836	 
116.0	 1.26726881977	 0.825055956636	 
116.0	 1.32149914723	 0.561939692801	 
116.0	 1.3415909978	 0.234187201127	 
116.0	 1.33904245632	 -0.0954955533242	 
116.0	 1.325975383	 -0.360969529309	 
116.0	 1.31028882565	 -0.521352918693	 
116.0	 1.28849295615	 -0.603882376081	 
116.0	 1.25519720496	 -0.647163157008	 
116.0	 1.20486479168	 -0.685911258798	 
116.0	 1.1310828685	 -0.731538994149	 
116.0	 1.02711375591	 -0.786818043384	 
116.0	 0.887189544496	 -0.854059206799	 
116.0	 0.720060925478	 -0.928889060444	 
116.0	 0.545655037582	 -1.00178865131	 
116.0	 0.383911996834	 -1.06318326325	 
116.0	 0.238300734557	 -1.10809404386	 
116.0	 0.0867598457867	 -1.13866572955	 
116.0	 -0.0949653707382	 -1.15765549815	 
116.0	 -0.319419702037	 -1.1664274701	 
116.0	 -0.560764484557	 -1.16177951989	 
116.0	 -0.785308658682	 -1.13957537014	 
116.0	 -0.962926128118	 -1.09638466814	 
116.0	 -1.08983810362	 -1.03399428572	 
116.0	 -1.17407473694	 -0.956529470191	 
116.0	 -1.22372188239	 -0.867777894148	 
116.0	 -1.24686539427	 -0.764637519777	 
116.0	 -1.2515911269	 -0.63769057116	 
116.0	 -1.24595086086	 -0.477390315845	 
116.0	 -1.23448092679	 -0.284979883913	 
116.0	 -1.21519466688	 -0.0817232135207	 
116.0	 -1.18539679638	 0.108940790185	 
117.0	 -1.05569868965	 -0.0856145018787	 
117.0	 -1.02635477002	 0.0653964999773	 
117.0	 -1.01338885205	 0.210416982751	 
117.0	 -1.00042293408	 0.364423244148	 
117.0	 -0.971542082957	 0.541684367815	 
117.0	 -0.921481941011	 0.740203514056	 
117.0	 -0.855628726046	 0.941717919839	 
117.0	 -0.779831724365	 1.12725760807	 
117.0	 -0.69643065049	 1.28184628104	 
117.0	 -0.593726931814	 1.40648235861	 
117.0	 -0.456512423949	 1.50615794	 
117.0	 -0.270310143293	 1.58542831577	 
117.0	 -0.0374598043676	 1.63880217675	 
117.0	 0.222882180183	 1.65074161409	 
117.0	 0.490828236928	 1.60527191023	 
117.0	 0.748050602117	 1.49224246338	 
117.0	 0.982460750723	 1.32479913488	 
117.0	 1.1835299674	 1.12191190181	 
117.0	 1.34114386125	 0.902301136296	 
117.0	 1.45471750364	 0.678946296361	 
117.0	 1.53319542821	 0.45908592589	 
117.0	 1.58593649304	 0.249708963813	 
117.0	 1.61840003203	 0.0559739126714	 
117.0	 1.62044728223	 -0.124282470536	 
117.0	 1.57803995653	 -0.295053865197	 
117.0	 1.47777344048	 -0.460084345737	 
