55.0	 -1.00085007662	 1.1990689457	 
55.0	 -1.15614583627	 1.00197174348	 
55.0	 -1.27317457242	 0.790982420502	 
55.0	 -1.35064286496	 0.581992570057	 
55.0	 -1.38990704258	 0.386450446068	 
55.0	 -1.39854575403	 0.20537015126	 
55.0	 -1.38502987292	 0.0382696246571	 
55.0	 -1.35783027288	 -0.115333194711	 
55.0	 -1.32443609459	 -0.255827649856	 
55.0	 -1.28311164038	 -0.382731860892	 
55.0	 -1.22706682187	 -0.4950865953	 
55.0	 -1.14945977959	 -0.591927731135	 
55.0	 -1.04349932364	 -0.672302555105	 
55.0	 -0.907341114617	 -0.736372176745	 
55.0	 -0.748169378304	 -0.786330559005	 
55.0	 -0.574129185492	 -0.824588006747	 
55.0	 -0.393365606972	 -0.853554824834	 
55.0	 -0.213518119434	 -0.875685322944	 
55.0	 -0.03870021821	 -0.893740697556	 
55.0	 0.12847612569	 -0.910612831598	 
55.0	 0.285404489611	 -0.929194090907	 
55.0	 0.429501949829	 -0.952315029343	 
55.0	 0.559330788136	 -0.979793832775	 
55.0	 0.675090867802	 -1.00714116503	 
55.0	 0.777107991661	 -1.02953641639	 
55.0	 0.865707962542	 -1.04215897712	 
55.0	 0.941175786529	 -1.0401882375	 
55.0	 1.00358183801	 -1.01880358779	 
55.0	 1.05292615779	 -0.973184418283	 
55.0	 1.08920874586	 -0.89851011924	 
55.0	 1.11245000061	 -0.790103443675	 
55.0	 1.12325714082	 -0.647411403786	 
55.0	 1.12289812943	 -0.47452481752	 
55.0	 1.11267617778	 -0.275782233631	 
55.0	 1.09389449718	 -0.0555222008722	 
56.0	 1.09980370967	 -0.0442701772764	 
56.0	 1.04449079478	 0.237864701711	 
56.0	 0.982002606688	 0.512953241407	 
56.0	 0.915504707101	 0.769934327809	 
56.0	 0.846498119401	 0.998393095153	 
56.0	 0.761161610367	 1.19386346314	 
56.0	 0.637416285956	 1.3550853448	 
56.0	 0.453934310954	 1.48091299688	 
56.0	 0.211863807234	 1.57245259146	 
56.0	 -0.0631285382367	 1.63326686936	 
56.0	 -0.344161830631	 1.66701828834	 
56.0	 -0.609947667472	 1.67215829243	 
56.0	 -0.85167523534	 1.63551186584	 
56.0	 -1.0622220204	 1.54233085656	 
56.0	 -1.23543065339	 1.38302981548	 
56.0	 -1.36986150721	 1.17325920233	 
56.0	 -1.46551423012	 0.936368376328	 
56.0	 -1.52254514615	 0.694676814425	 
56.0	 -1.54292784625	 0.458509740324	 
56.0	 -1.52980835162	 0.230454149826	 
56.0	 -1.48634378247	 0.0130336156075	 
56.0	 -1.41536309578	 -0.188680136727	 
56.0	 -1.31926895288	 -0.366305240786	 
56.0	 -1.20043740094	 -0.511244919869	 
56.0	 -1.06238901355	 -0.618753485704	 
56.0	 -0.911731138692	 -0.694471590551	 
56.0	 -0.755586290213	 -0.745773310413	 
56.0	 -0.60039009414	 -0.779632700429	 
56.0	 -0.448462477312	 -0.800626967921	 
56.0	 -0.300597331341	 -0.8124446075	 
56.0	 -0.157557556599	 -0.818728412709	 
56.0	 -0.0196797578133	 -0.822459148939	 
56.0	 0.113027623518	 -0.82610795099	 
56.0	 0.240569472521	 -0.832110084704	 
56.0	 0.363243781887	 -0.841535246291	 
56.0	 0.481802861034	 -0.853336499034	 
56.0	 0.597037826822	 -0.866284830266	 
56.0	 0.708620359696	 -0.87915122732	 
56.0	 0.812552785112	 -0.89070667753	 
56.0	 0.90408676051	 -0.899722168227	 
56.0	 0.979216795143	 -0.905283313989	 
56.0	 1.03942753745	 -0.908801021356	 
56.0	 1.08866433251	 -0.912728399612	 
56.0	 1.13066402821	 -0.918746616702	 
56.0	 1.16481340445	 -0.913183286029	 
56.0	 1.1865115713	 -0.86829155001	 
56.0	 1.19103519806	 -0.75597502593	 
56.0	 1.17624147302	 -0.565770294438	 
56.0	 1.14477578965	 -0.319932256217	 
56.0	 1.09980370967	 -0.0442701772764	 
57.0	 0.986976288865	 -1.09799017771	 
57.0	 1.07777682856	 -1.07162537916	 
57.0	 1.13596590681	 -1.02037695052	 
57.0	 1.16921680867	 -0.930025674601	 
57.0	 1.18509624578	 -0.787219875728	 
57.0	 1.1887197415	 -0.598561333313	 
57.0	 1.18275163091	 -0.39060528185	 
57.0	 1.16974967569	 -0.190774497354	 
57.0	 1.15163219711	 -0.0192128708515	 
57.0	 1.12775975475	 0.133051246602	 
57.0	 1.09685346777	 0.282268388942	 
57.0	 1.05754120359	 0.444138941822	 
57.0	 1.00630603991	 0.621709880353	 
57.0	 0.937486264662	 0.80537476911	 
57.0	 0.845326914074	 0.984977024383	 
57.0	 0.725245331796	 1.15069861525	 
57.0	 0.577348091231	 1.29407572196	 
57.0	 0.40291407322	 1.40698307754	 
57.0	 0.203302088656	 1.48154932961	 
57.0	 -0.0182906603581	 1.51574316143	 
57.0	 -0.256828580513	 1.5133732919	 
57.0	 -0.507196148444	 1.47850235449	 
57.0	 -0.761506932302	 1.41570081189	 
57.0	 -1.00079086628	 1.33157044349	 
57.0	 -1.20330697609	 1.2332208579	 
57.0	 -1.34804697958	 1.12727499407	 
57.0	 -1.43085451402	 1.00916238934	 
57.0	 -1.46442513609	 0.863119179411	 
57.0	 -1.46218709461	 0.672894830342	 
57.0	 -1.43618318419	 0.430702627955	 
57.0	 -1.39291438241	 0.162611137108	 
57.0	 -1.33749621264	 -0.0968472575854	 
57.0	 -1.27480440809	 -0.314134670333	 
57.0	 -1.20419952834	 -0.478586688238	 
57.0	 -1.11952695934	 -0.602412371304	 
57.0	 -1.01439229689	 -0.698815278352	 
57.0	 -0.884852325059	 -0.778967651464	 
57.0	 -0.736768581038	 -0.845916465752	 
57.0	 -0.578453790291	 -0.900677379589	 
57.0	 -0.41811410488	 -0.944308370444	 
57.0	 -0.261504488587	 -0.978840755058	 
57.0	 -0.111928716918	 -1.00727918945	 
57.0	 0.027416008024	 -1.03267064872	 
57.0	 0.155463952206	 -1.05721572602	 
57.0	 0.279675253866	 -1.07972948658	 
57.0	 0.409641519309	 -1.09818061365	 
57.0	 0.554394844474	 -1.11055895005	 
57.0	 0.710098586838	 -1.11534100821	 
57.0	 0.860047365418	 -1.11148997022	 
57.0	 0.986976288865	 -1.09799017771	 
58.0	 0.788217122298	 -0.929635930644	 
58.0	 0.96612928411	 -0.937175194961	 
58.0	 1.10732422569	 -0.939952818656	 
58.0	 1.21251490276	 -0.908208547849	 
58.0	 1.28254795026	 -0.813546140292	 
58.0	 1.32134462471	 -0.658941621374	 
58.0	 1.33590080426	 -0.478743284118	 
58.0	 1.33334604621	 -0.308663433181	 
58.0	 1.31938399645	 -0.173899083518	 
58.0	 1.29401465496	 -0.057586091262	 
58.0	 1.25581211028	 0.0676549771588	 
58.0	 1.20339501067	 0.228186746641	 
58.0	 1.13640687828	 0.426985242574	 
58.0	 1.05551610911	 0.643639890836	 
58.0	 0.96143565887	 0.856723308632	 
58.0	 0.852383138246	 1.04857774533	 
58.0	 0.716594777645	 1.21662397891	 
58.0	 0.539811462409	 1.36205241955	 
58.0	 0.308680125796	 1.48580547528	 
58.0	 0.0306868029975	 1.58312150547	 
58.0	 -0.265843368852	 1.64353482085	 
58.0	 -0.551679204711	 1.65633173002	 
58.0	 -0.801748427976	 1.61436977205	 
58.0	 -1.00761439581	 1.52479140786	 
58.0	 -1.16499937382	 1.39831032886	 
58.0	 -1.26993754573	 1.24529302349	 
58.0	 -1.32563721235	 1.06812031204	 
58.0	 -1.34248079154	 0.861187346715	 
58.0	 -1.33116261928	 0.618542076729	 
58.0	 -1.30142642393	 0.34058130547	 
58.0	 -1.25921350325	 0.0530972529681	 
58.0	 -1.20951454738	 -0.211769006583	 
58.0	 -1.15706774129	 -0.422893207665	 
58.0	 -1.10080365138	 -0.572537684269	 
58.0	 -1.03384522548	 -0.676351369895	 
58.0	 -0.949062906257	 -0.751000006716	 
58.0	 -0.842654263143	 -0.810371713211	 
58.0	 -0.724125372572	 -0.857244113075	 
58.0	 -0.606309437734	 -0.891617206309	 
58.0	 -0.501668330707	 -0.91361499397	 
58.0	 -0.414123308022	 -0.926213501447	 
58.0	 -0.33905501066	 -0.935240778458	 
58.0	 -0.271472748492	 -0.94664887578	 
58.0	 -0.204365790146	 -0.964009023878	 
58.0	 -0.122643239279	 -0.981369171976	 
58.0	 -0.0091941583037	 -0.990396448986	 
58.0	 0.152171489211	 -0.983204387632	 
58.0	 0.356463013135	 -0.962173808222	 
58.0	 0.577508996779	 -0.939952818656	 
58.0	 0.788217122298	 -0.929635930644	 
59.0	 0.94208752414	 -1.09405724506	 
59.0	 1.07755957191	 -1.06048843027	 
59.0	 1.15419810285	 -0.98857743639	 
59.0	 1.18635433907	 -0.855317345619	 
59.0	 1.18837950265	 -0.654109773889	 
59.0	 1.17462481569	 -0.424666521356	 
59.0	 1.15940315187	 -0.214618843073	 
59.0	 1.15163164233	 -0.0445438623121	 
59.0	 1.14931489594	 0.119696439021	 
59.0	 1.14912491397	 0.318295517759	 
59.0	 1.14688711139	 0.562922011718	 
59.0	 1.13718147832	 0.823281301991	 
59.0	 1.11433492025	 1.06627355214	 
59.0	 1.06860671382	 1.2734833256	 
59.0	 0.985864043161	 1.44235091997	 
59.0	 0.852691926905	 1.57092483253	 
59.0	 0.670358446935	 1.65442653151	 
59.0	 0.451789754617	 1.68583287844	 
59.0	 0.20997428005	 1.65920103747	 
59.0	 -0.044717575326	 1.58013970115	 
59.0	 -0.303435565407	 1.46096494377	 
59.0	 -0.556937121778	 1.31407545909	 
59.0	 -0.793161216949	 1.15186994092	 
59.0	 -0.998864613548	 0.986747083038	 
59.0	 -1.16371450956	 0.828398303351	 
59.0	 -1.29129090227	 0.673591346647	 
59.0	 -1.3893203242	 0.515242266526	 
59.0	 -1.46356571151	 0.348367574744	 
59.0	 -1.51319972699	 0.17503305931	 
59.0	 -1.53601044576	 -0.00121392879854	 
59.0	 -1.52860373305	 -0.175403420893	 
59.0	 -1.48476699502	 -0.33917384258	 
59.0	 -1.39794212757	 -0.483706538332	 
59.0	 -1.26689157024	 -0.6032316625	 
59.0	 -1.0995408629	 -0.69723006417	 
59.0	 -0.904927050419	 -0.765804792394	 
59.0	 -0.699548342103	 -0.812799907319	 
59.0	 -0.509300107759	 -0.846771184234	 
59.0	 -0.359584880077	 -0.876355816195	 
59.0	 -0.253844729349	 -0.905786625664	 
59.0	 -0.175183581397	 -0.935217435132	 
59.0	 -0.106636230028	 -0.964648244601	 
59.0	 -0.0399554430637	 -0.994079054069	 
59.0	 0.0271799074967	 -1.02350986354	 
59.0	 0.0985409618349	 -1.05267665112	 
59.0	 0.190857480327	 -1.07912678927	 
59.0	 0.327266667608	 -1.09932548517	 
59.0	 0.52260936222	 -1.10993304822	 
59.0	 0.744102159013	 -1.1087675424	 
59.0	 0.94208752414	 -1.09405724506	 
60.0	 1.23216269158	 -0.792007955303	 
60.0	 1.27007165422	 -0.660680105572	 
60.0	 1.27410839724	 -0.497728158246	 
60.0	 1.25374257344	 -0.301043840154	 
60.0	 1.21835278126	 -0.0689361405195	 
60.0	 1.175223369	 0.190688916257	 
60.0	 1.12954443483	 0.460328270605	 
60.0	 1.08641502257	 0.722061600555	 
60.0	 1.04656356705	 0.96025254674	 
60.0	 0.993236067167	 1.16840060021	 
60.0	 0.905307912831	 1.34228921462	 
60.0	 0.762337401612	 1.4777238048	 
60.0	 0.559589707111	 1.57101489271	 
60.0	 0.308036878965	 1.61897810739	 
60.0	 0.0193338744606	 1.6184510391	 
60.0	 -0.291586392375	 1.56978506669	 
60.0	 -0.596679180566	 1.48738672351	 
60.0	 -0.8646217924	 1.38917633154	 
60.0	 -1.06512347951	 1.29217380441	 
60.0	 -1.19162832841	 1.19268966406	 
60.0	 -1.26131526053	 1.06632504075	 
60.0	 -1.29239514663	 0.88778065642	 
60.0	 -1.3011363646	 0.643352735432	 
60.0	 -1.29603732079	 0.365719511969	 
60.0	 -1.28365392867	 0.0991547226651	 
60.0	 -1.27026893866	 -0.113473411298	 
60.0	 -1.25588235075	 -0.261623524055	 
60.0	 -1.23421141455	 -0.36708110506	 
60.0	 -1.19870021656	 -0.453037159216	 
60.0	 -1.14412830717	 -0.537939076784	 
60.0	 -1.07061709219	 -0.621259789474	 
60.0	 -0.979623441271	 -0.697728614351	 
60.0	 -0.872497994005	 -0.762206635556	 
60.0	 -0.748148098142	 -0.812585579918	 
60.0	 -0.603037809608	 -0.849787816949	 
60.0	 -0.433524954251	 -0.874867483236	 
60.0	 -0.240095155291	 -0.889581473089	 
60.0	 -0.0397452254413	 -0.898497711716	 
60.0	 0.146400225213	 -0.90688688205	 
60.0	 0.297945021417	 -0.919865938771	 
60.0	 0.411246989017	 -0.939016086758	 
60.0	 0.499417954963	 -0.962382781092	 
60.0	 0.576298181037	 -0.987857748598	 
60.0	 0.654028247746	 -1.01245426895	 
60.0	 0.737950010514	 -1.0296718332	 
60.0	 0.831705643495	 -1.03213148523	 
60.0	 0.938512400523	 -1.01258603602	 
60.0	 1.05181436812	 -0.966818939227	 
60.0	 1.15528246551	 -0.893644291182	 
60.0	 1.23216269158	 -0.792007955303	 
61.0	 0.637528141953	 -1.09756085283	 
61.0	 0.772226308883	 -1.04384401158	 
61.0	 0.888337649517	 -0.975280289066	 
61.0	 0.988565702225	 -0.894344165492	 
61.0	 1.07548727702	 -0.803381241896	 
61.0	 1.1487644316	 -0.701772898224	 
61.0	 1.20514447136	 -0.585936293338	 
61.0	 1.24124797335	 -0.452159706922	 
61.0	 1.25504728378	 -0.297762452078	 
61.0	 1.24992182562	 -0.124187975598	 
61.0	 1.23060279101	 0.0660892423069	 
61.0	 1.20170872468	 0.270491618084	 
61.0	 1.1652672804	 0.484070191312	 
61.0	 1.120715221	 0.699504624697	 
61.0	 1.06737666191	 0.909371477608	 
61.0	 1.00130894298	 1.10542248267	 
61.0	 0.905502301982	 1.27611006557	 
61.0	 0.759680201133	 1.40906182525	 
61.0	 0.544819305337	 1.49247242904	 
61.0	 0.270719941187	 1.52757911703	 
61.0	 -0.0239939030367	 1.52866170213	 
61.0	 -0.299445036372	 1.51056706558	 
61.0	 -0.524768062424	 1.4838117483	 
61.0	 -0.705144763069	 1.4415909297	 
61.0	 -0.854768714752	 1.37276944882	 
61.0	 -0.987523713478	 1.26649567892	 
61.0	 -1.11016860517	 1.11843927962	 
61.0	 -1.22233728568	 0.930791196936	 
61.0	 -1.32335387042	 0.706025911087	 
61.0	 -1.41074011587	 0.450329622599	 
61.0	 -1.47480834287	 0.184735413266	 
61.0	 -1.50406851336	 -0.0660119148003	 
61.0	 -1.48746709805	 -0.27778617954	 
61.0	 -1.42399027007	 -0.440689460109	 
61.0	 -1.3226639049	 -0.559052096877	 
61.0	 -1.19295038684	 -0.637823050267	 
61.0	 -1.04374886302	 -0.683807140858	 
61.0	 -0.881705531952	 -0.711232629865	 
61.0	 -0.712903354955	 -0.736183638661	 
61.0	 -0.543523859868	 -0.774254547743	 
61.0	 -0.382015604099	 -0.829775697481	 
61.0	 -0.239094174626	 -0.895813388117	 
61.0	 -0.12557372493	 -0.964944179017	 
61.0	 -0.046410742024	 -1.03015704292	 
61.0	 0.0168689529565	 -1.08609060602	 
61.0	 0.0885972053443	 -1.12779590792	 
61.0	 0.192204681015	 -1.15045286735	 
61.0	 0.33039491834	 -1.15220562417	 
61.0	 0.485144328184	 -1.13416253929	 
61.0	 0.637528141953	 -1.09756085283	 
62.0	 0.134323752392	 -0.987152715649	 
62.0	 0.381336038514	 -1.02713771764	 
62.0	 0.607049813433	 -1.07694253744	 
62.0	 0.805546332981	 -1.13024031257	 
62.0	 0.970906852994	 -1.18070418055	 
62.0	 1.0984559766	 -1.22109353606	 
62.0	 1.18991066274	 -1.23946999601	 
62.0	 1.24903645081	 -1.22238966414	 
62.0	 1.27959981439	 -1.15640795767	 
62.0	 1.2855229179	 -1.03128400024	 
62.0	 1.27176295869	 -0.858075155679	 
62.0	 1.24369936774	 -0.656527239586	 
62.0	 1.20671282158	 -0.446411697217	 
62.0	 1.1655786706	 -0.245386900614	 
62.0	 1.11980368612	 -0.052719658681	 
62.0	 1.06618188173	 0.141792918142	 
62.0	 1.00148485151	 0.348431981387	 
62.0	 0.922776473223	 0.575838384907	 
62.0	 0.830518422192	 0.813584522019	 
62.0	 0.727364501219	 1.03894055344	 
62.0	 0.61600504856	 1.22897160267	 
62.0	 0.498845591974	 1.36197248253	 
62.0	 0.373735521556	 1.43590944968	 
62.0	 0.234859887054	 1.46456980719	 
62.0	 0.0762999443034	 1.46218899566	 
62.0	 -0.107414661153	 1.44259055055	 
62.0	 -0.311441320453	 1.41012418983	 
62.0	 -0.520624461413	 1.35966581392	 
62.0	 -0.71936012214	 1.28567941816	 
62.0	 -0.892238954331	 1.18281015984	 
62.0	 -1.03072224784	 1.05209893844	 
62.0	 -1.13481405062	 0.902538939228	 
62.0	 -1.20505243033	 0.74362045593	 
62.0	 -1.2420252757	 0.58477031837	 
62.0	 -1.24930974019	 0.431607522468	 
62.0	 -1.23511633759	 0.283848921603	 
62.0	 -1.20805415033	 0.140703657964	 
62.0	 -1.17670984134	 0.0013849927912	 
62.0	 -1.14695731582	 -0.134395407491	 
62.0	 -1.11940189988	 -0.265957899452	 
62.0	 -1.09404359351	 -0.392511625283	 
62.0	 -1.07086952628	 -0.513262676023	 
62.0	 -1.04550374675	 -0.626382803217	 
62.0	 -1.00287496341	 -0.727508253623	 
62.0	 -0.926303079048	 -0.811893880381	 
62.0	 -0.799111525473	 -0.874795985925	 
62.0	 -0.612362816315	 -0.914649178282	 
62.0	 -0.381268364882	 -0.939805596334	 
62.0	 -0.125736674278	 -0.960546391612	 
62.0	 0.134323752392	 -0.987152715649	 
63.0	 -1.20107588834	 0.0823881231758	 
63.0	 -1.17548436981	 0.227386990229	 
63.0	 -1.13419993899	 0.353781459533	 
63.0	 -1.07722259586	 0.47080272081	 
63.0	 -1.0045625737	 0.587647929812	 
63.0	 -0.917741597982	 0.708487298555	 
63.0	 -0.821376769472	 0.827196392747	 
63.0	 -0.720464199031	 0.936390260608	 
63.0	 -0.619822620795	 1.02888059109	 
63.0	 -0.519347743826	 1.10293676371	 
63.0	 -0.413492439782	 1.16286211514	 
63.0	 -0.296427912665	 1.21327224024	 
63.0	 -0.162785863722	 1.25822117334	 
63.0	 -0.0120821707476	 1.29580686356	 
63.0	 0.153225538573	 1.32053989733	 
63.0	 0.330639208813	 1.3268815608	 
63.0	 0.516896700225	 1.30941414982	 
63.0	 0.704883172448	 1.26333012074	 
63.0	 0.886272216233	 1.18401380864	 
63.0	 1.05274051758	 1.06685858237	 
63.0	 1.19744296497	 0.911003508468	 
63.0	 1.31729296349	 0.725111563391	 
63.0	 1.40979245772	 0.519337055834	 
63.0	 1.4724591843	 0.303790526525	 
63.0	 1.50348450715	 0.0867155497342	 
63.0	 1.50197105674	 -0.126169887105	 
63.0	 1.46708614792	 -0.32932707016	 
63.0	 1.39815880653	 -0.517432413913	 
63.0	 1.29679622478	 -0.688193037058	 
63.0	 1.16628966305	 -0.841556418034	 
63.0	 1.0099698619	 -0.977522556839	 
63.0	 0.832260563802	 -1.09590503694	 
63.0	 0.644565613498	 -1.19532695308	 
63.0	 0.461034088908	 -1.27394318777	 
63.0	 0.295818984382	 -1.32990764311	 
63.0	 0.155803880969	 -1.36175797878	 
63.0	 0.0247561560146	 -1.3692521754	 
63.0	 -0.118141319046	 -1.35239023299	 
63.0	 -0.293455020777	 -1.31119904258	 
63.0	 -0.503512576408	 -1.24766223853	 
63.0	 -0.720359718586	 -1.16701222891	 
63.0	 -0.913187097036	 -1.07478772756	 
63.0	 -1.05246369931	 -0.97621519012	 
63.0	 -1.13336062117	 -0.870487115086	 
63.0	 -1.17339191834	 -0.751338310378	 
63.0	 -1.19087666395	 -0.612306943191	 
63.0	 -1.2024283858	 -0.448541841949	 
63.0	 -1.21073142276	 -0.268346105363	 
63.0	 -1.21166839884	 -0.0864461491359	 
63.0	 -1.20107588834	 0.0823881231758	 
64.0	 -1.11148504933	 -0.0949419394178	 
64.0	 -1.02747842974	 0.107026032564	 
64.0	 -0.938340766774	 0.325591965339	 
64.0	 -0.847463767071	 0.544082452838	 
64.0	 -0.75821134905	 0.745860249153	 
64.0	 -0.669843008104	 0.919629098236	 
64.0	 -0.573212817651	 1.06503052342	 
64.0	 -0.458145657771	 1.18304531329	 
64.0	 -0.314911020066	 1.27463818527	 
64.0	 -0.146118424239	 1.34032780702	 
64.0	 0.0319796231379	 1.38013969899	 
64.0	 0.202424588866	 1.39407386118	 
64.0	 0.34975850363	 1.38256421554	 
64.0	 0.474438843868	 1.35064699466	 
64.0	 0.586508992753	 1.30613041264	 
64.0	 0.696144070204	 1.25686077821	 
64.0	 0.811592546215	 1.20747016348	 
64.0	 0.931388249112	 1.14638367083	 
64.0	 1.05101001834	 1.05692975428	 
64.0	 1.16593489224	 0.922457031237	 
64.0	 1.27135319306	 0.735517177951	 
64.0	 1.36172623109	 0.512061810922	 
64.0	 1.43140116194	 0.271706701995	 
64.0	 1.47473586196	 0.0338909144049	 
64.0	 1.48654551243	 -0.189484171112	 
64.0	 1.46226392558	 -0.396713967495	 
64.0	 1.39736882588	 -0.586817686151	 
64.0	 1.28782097257	 -0.758624065206	 
64.0	 1.13638606542	 -0.90827847603	 
64.0	 0.950860158205	 -1.02994268934	 
64.0	 0.739157233075	 -1.11773197357	 
64.0	 0.509533736274	 -1.16734609679	 
64.0	 0.272433149885	 -1.18460372013	 
64.0	 0.0391591043199	 -1.17930320584	 
64.0	 -0.178983655048	 -1.16125177022	 
64.0	 -0.373275373443	 -1.13842183615	 
64.0	 -0.543216377501	 -1.11295131742	 
64.0	 -0.689937236101	 -1.0858210026	 
64.0	 -0.814584985217	 -1.05798787113	 
64.0	 -0.919504899163	 -1.02867641403	 
64.0	 -1.00903168298	 -0.994234678141	 
64.0	 -1.08768761217	 -0.95073950909	 
64.0	 -1.15967136674	 -0.894395354728	 
64.0	 -1.222928591	 -0.823872399055	 
64.0	 -1.26974908309	 -0.740071074748	 
64.0	 -1.29221886084	 -0.643972170399	 
64.0	 -1.28353890154	 -0.536035649222	 
64.0	 -1.24601605628	 -0.412467893559	 
64.0	 -1.18640363445	 -0.267398234142	 
64.0	 -1.11148504933	 -0.0949419394178	 
65.0	 -0.19693591867	 -1.09789002877	 
65.0	 0.042115203254	 -1.09132373108	 
65.0	 0.262252855354	 -1.08200382468	 
65.0	 0.464222113714	 -1.06993030958	 
65.0	 0.648757371716	 -1.055091215	 
65.0	 0.815015148066	 -1.0357064437	 
65.0	 0.958920641896	 -1.00637496339	 
65.0	 1.0760033967	 -0.961252380085	 
65.0	 1.16197608802	 -0.894554153614	 
65.0	 1.21763415324	 -0.802156964706	 
65.0	 1.24939247023	 -0.681774119945	 
65.0	 1.26395672374	 -0.531213971587	 
65.0	 1.26757934674	 -0.348931293247	 
65.0	 1.26170544317	 -0.140237003949	 
65.0	 1.24488465253	 0.085428506368	 
65.0	 1.21562682264	 0.318568097464	 
65.0	 1.17302782384	 0.549588862973	 
65.0	 1.11913839584	 0.768415020211	 
65.0	 1.05693850382	 0.96481893511	 
65.0	 0.98939714767	 1.12858134205	 
65.0	 0.914759481612	 1.25300310111	 
65.0	 0.819259685202	 1.34033543674	 
65.0	 0.687251160677	 1.3942310952	 
65.0	 0.503497096466	 1.41835667779	 
65.0	 0.270240520892	 1.41696978696	 
65.0	 0.0133707648087	 1.39512751715	 
65.0	 -0.239544356675	 1.35794371311	 
65.0	 -0.462152482563	 1.31022009294	 
65.0	 -0.645224436458	 1.25236116878	 
65.0	 -0.792188857051	 1.18152094642	 
65.0	 -0.906771124764	 1.09477722887	 
65.0	 -0.992621388923	 0.988838997612	 
65.0	 -1.05290935987	 0.858059875076	 
65.0	 -1.09061579411	 0.695867134827	 
65.0	 -1.10872127861	 0.495688438373	 
65.0	 -1.1109807549	 0.258088462266	 
65.0	 -1.10361155564	 0.00632706994445	 
65.0	 -1.09331936559	 -0.231834867124	 
65.0	 -1.08677369528	 -0.428852837984	 
65.0	 -1.08801181481	 -0.572925939559	 
65.0	 -1.09670069518	 -0.678392323122	 
65.0	 -1.1120952603	 -0.762054621403	 
65.0	 -1.13284943319	 -0.840107174873	 
65.0	 -1.14600362654	 -0.916989918485	 
65.0	 -1.12809387854	 -0.98651097351	 
65.0	 -1.0552777545	 -1.04209539671	 
65.0	 -0.907612853867	 -1.07805496824	 
65.0	 -0.697008354739	 -1.09594333836	 
65.0	 -0.450926771304	 -1.10085041029	 
65.0	 -0.19693591867	 -1.09789002877	 
66.0	 0.0397532396771	 -0.925133340969	 
66.0	 0.184277910193	 -0.911192131964	 
66.0	 0.288140937128	 -0.924890302158	 
66.0	 0.390980760736	 -0.95896117188	 
66.0	 0.520025699907	 -1.00557713314	 
66.0	 0.667478700979	 -1.05532745699	 
66.0	 0.819409961694	 -1.09852937205	 
66.0	 0.962217065596	 -1.12623998676	 
66.0	 1.08295971174	 -1.13101276616	 
66.0	 1.16895023704	 -1.10554619337	 
66.0	 1.21654148008	 -1.0406813697	 
66.0	 1.23538588671	 -0.924526976391	 
66.0	 1.23605156511	 -0.745561922126	 
66.0	 1.22515777989	 -0.507882536502	 
66.0	 1.20505996372	 -0.232448328774	 
66.0	 1.17793787707	 0.0591069603992	 
66.0	 1.14654145159	 0.34772672198	 
66.0	 1.11407332388	 0.616400539808	 
66.0	 1.08274342988	 0.849168208027	 
66.0	 1.04459540394	 1.04012128719	 
66.0	 0.985769829016	 1.18918788446	 
66.0	 0.894030510858	 1.2970443675	 
66.0	 0.768769904316	 1.36900480701	 
66.0	 0.614258130918	 1.41232857013	 
66.0	 0.433739600305	 1.43293551701	 
66.0	 0.225482639734	 1.43031935786	 
66.0	 -0.0137262578316	 1.40205907119	 
66.0	 -0.279261191025	 1.34956408491	 
66.0	 -0.540194108743	 1.28709612676	 
66.0	 -0.760149958205	 1.23156931759	 
66.0	 -0.921116667087	 1.18822599962	 
66.0	 -1.04886060672	 1.1344822967	 
66.0	 -1.1752465406	 1.04383991245	 
66.0	 -1.30889596745	 0.901473643751	 
66.0	 -1.41840057339	 0.71266182032	 
66.0	 -1.469117451	 0.484895920398	 
66.0	 -1.45266057939	 0.233852193749	 
66.0	 -1.39371386626	 -0.0144845833903	 
66.0	 -1.31859280401	 -0.234191092874	 
66.0	 -1.24401926316	 -0.413798170555	 
66.0	 -1.17783021625	 -0.555223013052	 
66.0	 -1.1263662228	 -0.661543783313	 
66.0	 -1.08145917977	 -0.744035904606	 
66.0	 -1.0250786187	 -0.819546945586	 
66.0	 -0.939724468863	 -0.901781731668	 
66.0	 -0.813855699115	 -0.977510669512	 
66.0	 -0.638877750531	 -1.02018632914	 
66.0	 -0.41272018514	 -1.01009915038	 
66.0	 -0.170439459877	 -0.967117597083	 
66.0	 0.0397532396771	 -0.925133340969	 
67.0	 0.213136141904	 -1.04805048063	 
67.0	 0.369941426313	 -0.992452992876	 
67.0	 0.515111553926	 -0.949141259026	 
67.0	 0.659635283939	 -0.92666189048	 
67.0	 0.813895377798	 -0.932804767429	 
67.0	 0.974336648706	 -0.957954952039	 
67.0	 1.12346596162	 -0.975092688455	 
67.0	 1.24318418374	 -0.956441489603	 
67.0	 1.32024016428	 -0.880634826964	 
67.0	 1.36077468043	 -0.751946006242	 
67.0	 1.37577649139	 -0.581058291696	 
67.0	 1.37593809079	 -0.378654947586	 
67.0	 1.36513786423	 -0.15541923817	 
67.0	 1.34044008927	 0.0779655722914	 
67.0	 1.29861277792	 0.31081621954	 
67.0	 1.23653167511	 0.533339711338	 
67.0	 1.15150345751	 0.739304143535	 
67.0	 1.04094253471	 0.923367884	 
67.0	 0.902451848966	 1.08036735501	 
67.0	 0.73797059306	 1.20923423014	 
67.0	 0.553774210361	 1.31299543425	 
67.0	 0.356326676868	 1.39485594664	 
67.0	 0.151445570977	 1.45641825693	 
67.0	 -0.057637119312	 1.49287489622	 
67.0	 -0.268335803601	 1.49781590594	 
67.0	 -0.477835959006	 1.46514292274	 
67.0	 -0.678057615532	 1.39592427306	 
67.0	 -0.855655356066	 1.2983949731	 
67.0	 -0.997054831014	 1.18110163425	 
67.0	 -1.09288327518	 1.0513444871	 
67.0	 -1.15057426096	 0.911438238911	 
67.0	 -1.18176294515	 0.762451216097	 
67.0	 -1.19786901867	 0.605407231487	 
67.0	 -1.20535645754	 0.440306285082	 
67.0	 -1.2057335228	 0.266124564056	 
67.0	 -1.20029300967	 0.0817937419843	 
67.0	 -1.18968131574	 -0.111617854708	 
67.0	 -1.17195924822	 -0.304495288187	 
67.0	 -1.14454121669	 -0.485086967768	 
67.0	 -1.10485509739	 -0.642019668375	 
67.0	 -1.05063849871	 -0.772622573943	 
67.0	 -0.979938761237	 -0.882927277419	 
67.0	 -0.89081669217	 -0.979343737358	 
67.0	 -0.78165629751	 -1.06561109625	 
67.0	 -0.652134378458	 -1.13478523233	 
67.0	 -0.502250935014	 -1.17725120776	 
67.0	 -0.332261832894	 -1.18386147752	 
67.0	 -0.148307849295	 -1.15621853125	 
67.0	 0.0375853271027	 -1.10667489325	 
67.0	 0.213136141904	 -1.04805048063	 
68.0	 1.04872611537	 -0.159898930192	 
68.0	 1.04204051694	 -0.00971268507522	 
68.0	 1.03696600183	 0.149915260133	 
68.0	 1.03144188208	 0.31854106483	 
68.0	 1.0234074697	 0.495720888413	 
68.0	 1.01053454337	 0.680710772668	 
68.0	 0.985479870127	 0.867140943576	 
68.0	 0.936446282243	 1.04364522464	 
68.0	 0.851481789448	 1.19868376021	 
68.0	 0.718637704358	 1.32071886211	 
68.0	 0.531659506092	 1.40194963994	 
68.0	 0.301669129686	 1.44597850545	 
68.0	 0.0430913909803	 1.45857538646	 
68.0	 -0.229648894187	 1.44551021082	 
68.0	 -0.502250819612	 1.4122288349	 
68.0	 -0.762024665637	 1.35996324152	 
68.0	 -0.997407459424	 1.2869985364	 
68.0	 -1.1968593483	 1.19155935712	 
68.0	 -1.34885781972	 1.071873009	 
68.0	 -1.44657303226	 0.926888746928	 
68.0	 -1.49419479342	 0.757251156835	 
68.0	 -1.49749302955	 0.563847919931	 
68.0	 -1.46223766698	 0.34756671742	 
68.0	 -1.3945157086	 0.110348087555	 
68.0	 -1.30339356223	 -0.135974276623	 
68.0	 -1.19957008451	 -0.374146113372	 
68.0	 -1.09376085292	 -0.58685763919	 
68.0	 -0.996600627573	 -0.756893607625	 
68.0	 -0.91083399921	 -0.876268389202	 
68.0	 -0.824805101469	 -0.953841455843	 
68.0	 -0.725325531295	 -1.00026498201	 
68.0	 -0.599206885636	 -1.02619114217	 
68.0	 -0.436232889694	 -1.0415023091	 
68.0	 -0.246914703593	 -1.05071230728	 
68.0	 -0.0505901783706	 -1.05604878748	 
68.0	 0.13337021899	 -1.05973095269	 
68.0	 0.285856949086	 -1.06392109476	 
68.0	 0.400476615224	 -1.06800797414	 
68.0	 0.489019211688	 -1.06741435262	 
68.0	 0.564673141531	 -1.05725798357	 
68.0	 0.640626807807	 -1.03265662036	 
68.0	 0.727178592866	 -0.989617253736	 
68.0	 0.819422480132	 -0.928825152247	 
68.0	 0.907470057335	 -0.852498629667	 
68.0	 0.981430022186	 -0.76285688901	 
68.0	 1.03168201183	 -0.662084397452	 
68.0	 1.05640004927	 -0.551366341678	 
68.0	 1.06253442786	 -0.43076274521	 
68.0	 1.05750362432	 -0.300273608048	 
68.0	 1.04872611537	 -0.159898930192	 
69.0	 -0.0870417993998	 -1.27635374441	 
69.0	 0.177683091844	 -1.28188472167	 
69.0	 0.471308435566	 -1.25780409394	 
69.0	 0.761523795993	 -1.21268364161	 
69.0	 1.01601873735	 -1.15509514508	 
69.0	 1.20379871302	 -1.09316777385	 
69.0	 1.31853600571	 -1.02673379245	 
69.0	 1.37581001556	 -0.94825681381	 
69.0	 1.3919616526	 -0.849944310296	 
69.0	 1.3833297807	 -0.72400580341	 
69.0	 1.36272562421	 -0.566183505234	 
69.0	 1.33219537774	 -0.383000071689	 
69.0	 1.29173904128	 -0.183027283164	 
69.0	 1.24135661483	 0.0251630799492	 
69.0	 1.18093644128	 0.233233520492	 
69.0	 1.10891499543	 0.435892906352	 
69.0	 1.02271342103	 0.629980511821	 
69.0	 0.919732027839	 0.812379325849	 
69.0	 0.797374473947	 0.979970776147	 
69.0	 0.653950556112	 1.12921378048	 
69.0	 0.489897927455	 1.25557509005	 
69.0	 0.305959356614	 1.35437918828	 
69.0	 0.102877612228	 1.42095055859	 
69.0	 -0.117580695696	 1.4512131997	 
69.0	 -0.344028447725	 1.44672444618	 
69.0	 -0.55980734113	 1.41212819956	 
69.0	 -0.748205081544	 1.3520999764	 
69.0	 -0.89260480168	 1.27130212035	 
69.0	 -0.98570614426	 1.17311090549	 
69.0	 -1.03721244309	 1.05855538261	 
69.0	 -1.05863661206	 0.928414804481	 
69.0	 -1.06149156507	 0.783468423856	 
69.0	 -1.05627316429	 0.62506456464	 
69.0	 -1.04638441736	 0.458520216946	 
69.0	 -1.03220786965	 0.290842410688	 
69.0	 -1.01411490548	 0.129044420731	 
69.0	 -0.992479885454	 -0.0199416624209	 
69.0	 -0.967822217471	 -0.153140217305	 
69.0	 -0.940868719152	 -0.273233157542	 
69.0	 -0.912362159135	 -0.383337494185	 
69.0	 -0.883045306057	 -0.486570238283	 
69.0	 -0.853102875486	 -0.585853246176	 
69.0	 -0.819783665778	 -0.683081665268	 
69.0	 -0.779374391794	 -0.779814196238	 
69.0	 -0.728161210341	 -0.877609344611	 
69.0	 -0.662331456331	 -0.977854855542	 
69.0	 -0.575229556306	 -1.07702603979	 
69.0	 -0.456998897889	 -1.16606693811	 
69.0	 -0.29761210446	 -1.23562651737	 
69.0	 -0.0870417993998	 -1.27635374441	 
70.0	 -0.69660725608	 -0.972364929852	 
70.0	 -0.470647034374	 -0.982077269142	 
70.0	 -0.234462007196	 -0.978743639869	 
70.0	 0.000389349703395	 -0.96883723254	 
70.0	 0.222363779972	 -0.958815327228	 
70.0	 0.422165988826	 -0.952785173624	 
70.0	 0.595104267775	 -0.950041409047	 
70.0	 0.737050589766	 -0.949289395396	 
70.0	 0.844079853062	 -0.949255708485	 
70.0	 0.917899072947	 -0.949255708485	 
70.0	 0.96644206564	 -0.949255708485	 
70.0	 0.997964885249	 -0.949255708485	 
70.0	 1.02040397851	 -0.948110157065	 
70.0	 1.03830593725	 -0.932523429307	 
70.0	 1.05417563652	 -0.881881885256	 
70.0	 1.07048989256	 -0.775471315282	 
70.0	 1.08907616056	 -0.598856828654	 
70.0	 1.10848765819	 -0.369265401264	 
70.0	 1.126247945	 -0.113880799386	 
70.0	 1.13987769951	 0.140130005058	 
70.0	 1.14585071854	 0.374136480333	 
70.0	 1.13797896991	 0.591213072739	 
70.0	 1.10965761033	 0.797832972784	 
70.0	 1.05425048089	 1.00023611612	 
70.0	 0.963785622923	 1.19471271934	 
70.0	 0.828484040338	 1.36409326089	 
70.0	 0.638438468207	 1.49025280735	 
70.0	 0.385665674238	 1.55642411587	 
70.0	 0.0892879874855	 1.56496693987	 
70.0	 -0.211535266863	 1.53238010726	 
70.0	 -0.477175029091	 1.47549391335	 
70.0	 -0.674004319418	 1.40878567671	 
70.0	 -0.806726495749	 1.33170619264	 
70.0	 -0.895120012333	 1.23779641325	 
70.0	 -0.958997895877	 1.12058403195	 
70.0	 -1.01405454073	 0.976018664112	 
70.0	 -1.06288739094	 0.807751460259	 
70.0	 -1.10549644652	 0.620960972796	 
70.0	 -1.14189774107	 0.420844610944	 
70.0	 -1.1732740035	 0.213971911743	 
70.0	 -1.20274502268	 0.00919055101362	 
70.0	 -1.23361322025	 -0.184437004531	 
70.0	 -1.2686439547	 -0.358117783472	 
70.0	 -1.30022458297	 -0.508266437718	 
70.0	 -1.3113556003	 -0.636007894048	 
70.0	 -1.28469929306	 -0.742636790565	 
70.0	 -1.20498477956	 -0.829349552801	 
70.0	 -1.0738209945	 -0.896540504224	 
70.0	 -0.901059398368	 -0.944212296575	 
70.0	 -0.69660725608	 -0.972364929852	 
71.0	 0.0824272095544	 -0.885316726682	 
71.0	 0.215649225242	 -0.966404419029	 
71.0	 0.357049945848	 -1.02795587711	 
71.0	 0.506629371374	 -1.07630717691	 
71.0	 0.663729248985	 -1.11737793429	 
71.0	 0.821632036797	 -1.15325420449	 
71.0	 0.970354645617	 -1.18395601265	 
71.0	 1.10010851126	 -1.20924188386	 
71.0	 1.20722172698	 -1.22233996092	 
71.0	 1.2946949234	 -1.20935452521	 
71.0	 1.36586078369	 -1.15605052602	 
71.0	 1.4228724771	 -1.05267040636	 
71.0	 1.46525152157	 -0.899446489005	 
71.0	 1.49216335538	 -0.697962792952	 
71.0	 1.50017238668	 -0.451735136361	 
71.0	 1.47312887758	 -0.173722202623	 
71.0	 1.39100429454	 0.120236522326	 
71.0	 1.23582980234	 0.414222625381	 
71.0	 1.01359157833	 0.6914083492	 
71.0	 0.745730646601	 0.934379262739	 
71.0	 0.453865494122	 1.12606597731	 
71.0	 0.156500023491	 1.26319274164	 
71.0	 -0.131907817942	 1.36040222731	 
71.0	 -0.39717641549	 1.43352648905	 
71.0	 -0.628745039606	 1.49343408743	 
71.0	 -0.825818445694	 1.53760709712	 
71.0	 -0.989231195482	 1.56129346115	 
71.0	 -1.11999894029	 1.55888184112	 
71.0	 -1.22022238531	 1.51961225022	 
71.0	 -1.29240455632	 1.43081566544	 
71.0	 -1.33865856362	 1.28101745316	 
71.0	 -1.3552533599	 1.07666140267	 
71.0	 -1.33395905381	 0.837984940623	 
71.0	 -1.26664639592	 0.585570536067	 
71.0	 -1.15816820813	 0.339413984328	 
71.0	 -1.03349952285	 0.118601736501	 
71.0	 -0.919344419526	 -0.0578597003912	 
71.0	 -0.834649386361	 -0.1780057811	 
71.0	 -0.772932619398	 -0.252954519833	 
71.0	 -0.722510254466	 -0.298546106536	 
71.0	 -0.672624234537	 -0.329674543806	 
71.0	 -0.619358795991	 -0.354240918389	 
71.0	 -0.561864911363	 -0.377012071445	 
71.0	 -0.499265816894	 -0.402820160473	 
71.0	 -0.429850681649	 -0.43808042329	 
71.0	 -0.351144092517	 -0.490659293779	 
71.0	 -0.260655552453	 -0.568396766397	 
71.0	 -0.157255209125	 -0.67086871517	 
71.0	 -0.0423379139712	 -0.782316771578	 
71.0	 0.0824272095544	 -0.885316726682	 
72.0	 -0.281940725677	 -0.609020733582	 
72.0	 -0.170734063107	 -0.724675085285	 
72.0	 -0.0456734690455	 -0.836871235531	 
72.0	 0.0849931345027	 -0.947285888056	 
72.0	 0.214575260147	 -1.05644444551	 
72.0	 0.343900099691	 -1.15931502282	 
72.0	 0.476060162423	 -1.24919114618	 
72.0	 0.612421711792	 -1.32011484096	 
72.0	 0.744267644683	 -1.37050109818	 
72.0	 0.859231112222	 -1.40034773462	 
72.0	 0.947060062473	 -1.40890529592	 
72.0	 1.0125554633	 -1.3901024171	 
72.0	 1.06703215583	 -1.33556478989	 
72.0	 1.12117860929	 -1.23714468206	 
72.0	 1.18000479193	 -1.08874657691	 
72.0	 1.24559684809	 -0.885331630399	 
72.0	 1.31906753072	 -0.624139926494	 
72.0	 1.39128920323	 -0.326902708184	 
72.0	 1.44688615795	 -0.030294253776	 
72.0	 1.47026768782	 0.230844712011	 
72.0	 1.44413450135	 0.44946024416	 
72.0	 1.34995595835	 0.638523872946	 
72.0	 1.17051985782	 0.810802657574	 
72.0	 0.912072886451	 0.967791686165	 
72.0	 0.600787664745	 1.10141165642	 
72.0	 0.263341065434	 1.2036982256	 
72.0	 -0.076554135723	 1.27632809743	 
72.0	 -0.398149259934	 1.33061902214	 
72.0	 -0.681097897512	 1.3780037095	 
72.0	 -0.913658019278	 1.42034047885	 
72.0	 -1.09421757029	 1.44821567848	 
72.0	 -1.22182711323	 1.45151013933	 
72.0	 -1.29923125691	 1.41743462902	 
72.0	 -1.33430036343	 1.32949501115	 
72.0	 -1.33528235479	 1.17124831831	 
72.0	 -1.310425153	 0.948964996733	 
72.0	 -1.26797668007	 0.706142054384	 
72.0	 -1.21616069415	 0.489570004915	 
72.0	 -1.16027712952	 0.327019253967	 
72.0	 -1.09994741942	 0.209320327981	 
72.0	 -1.0341417063	 0.123065123305	 
72.0	 -0.962113344469	 0.0562273022741	 
72.0	 -0.88377016735	 -2.63264182315e-05	 
72.0	 -0.799113852991	 -0.0540781898519	 
72.0	 -0.709362661355	 -0.113519302211	 
72.0	 -0.619095974595	 -0.183754194875	 
72.0	 -0.533468114695	 -0.269812433255	 
72.0	 -0.454544334342	 -0.374044240751	 
72.0	 -0.374138505505	 -0.489908180421	 
72.0	 -0.281940725677	 -0.609020733582	 
73.0	 -1.32590849373	 0.173267888935	 
73.0	 -1.35404358024	 0.367817395053	 
73.0	 -1.34568332837	 0.549201851	 
73.0	 -1.30270732636	 0.716246679811	 
73.0	 -1.22699516247	 0.867777304517	 
73.0	 -1.12018513133	 1.00284532899	 
73.0	 -0.982674977609	 1.12166520869	 
73.0	 -0.814464882593	 1.22482406216	 
73.0	 -0.615554846281	 1.31290917789	 
73.0	 -0.387334739094	 1.38594140099	 
73.0	 -0.140434290014	 1.44017586108	 
73.0	 0.110747443397	 1.47033149335	 
73.0	 0.351800284611	 1.47112270145	 
73.0	 0.569459431188	 1.43771811996	 
73.0	 0.760429077355	 1.36923987495	 
73.0	 0.926546390092	 1.26684572002	 
73.0	 1.06969095764	 1.13171023214	 
73.0	 1.19149485045	 0.965443016789	 
73.0	 1.29071274463	 0.774710885813	 
73.0	 1.36424293282	 0.569443364872	 
73.0	 1.40895276796	 0.359624358185	 
73.0	 1.42199978375	 0.154985192872	 
73.0	 1.40518356024	 -0.038783301131	 
73.0	 1.36403711114	 -0.219239922843	 
73.0	 1.30419920119	 -0.38403551833	 
73.0	 1.23106059388	 -0.530906579895	 
73.0	 1.1443080245	 -0.659559463297	 
73.0	 1.03792420015	 -0.771670387749	 
73.0	 0.905643826682	 -0.869001218702	 
73.0	 0.741511309336	 -0.953285499436	 
73.0	 0.55050468053	 -1.0252568874	 
73.0	 0.351196536986	 -1.08440581015	 
73.0	 0.163009290544	 -1.13014497919	 
73.0	 0.0051719797683	 -1.16188710604	 
73.0	 -0.114688753336	 -1.17904490222	 
73.0	 -0.206929981432	 -1.18103107924	 
73.0	 -0.283455763387	 -1.16725834863	 
73.0	 -0.356132631572	 -1.13715471586	 
73.0	 -0.432286411688	 -1.09199875691	 
73.0	 -0.510424201616	 -1.03666313092	 
73.0	 -0.588039883699	 -0.976433434227	 
73.0	 -0.662633141478	 -0.916582121706	 
73.0	 -0.733670264711	 -0.857926684423	 
73.0	 -0.805438338928	 -0.790364038475	 
73.0	 -0.882949599441	 -0.702148414193	 
73.0	 -0.97121452912	 -0.581536477614	 
73.0	 -1.07140049826	 -0.422126399088	 
73.0	 -1.17268289387	 -0.234183888409	 
73.0	 -1.26190459826	 -0.0312165806948	 
73.0	 -1.32590849373	 0.173267888935	 
74.0	 1.20300747136	 -0.199344041284	 
74.0	 1.26568059434	 -0.00880526973745	 
74.0	 1.2995333955	 0.188700114244	 
74.0	 1.309052057	 0.38561259504	 
74.0	 1.29872276101	 0.574372657029	 
74.0	 1.27303168971	 0.74742078459	 
74.0	 1.23609206254	 0.897515161425	 
74.0	 1.18532167205	 1.0231173095	 
74.0	 1.11234694556	 1.12762198587	 
74.0	 1.00860335347	 1.21458660966	 
74.0	 0.865526366176	 1.28756859997	 
74.0	 0.674558074172	 1.35012242769	 
74.0	 0.43373417601	 1.40286610694	 
74.0	 0.160056923561	 1.43797091641	 
74.0	 -0.126081946031	 1.44609863092	 
74.0	 -0.404290695623	 1.41791102528	 
74.0	 -0.654177588071	 1.34406987433	 
74.0	 -0.856680125395	 1.21644471863	 
74.0	 -1.00818821487	 1.04094537558	 
74.0	 -1.11506105749	 0.832539905713	 
74.0	 -1.18382400913	 0.606347340265	 
74.0	 -1.22100242569	 0.377486710481	 
74.0	 -1.2331142038	 0.161046955122	 
74.0	 -1.22546604362	 -0.0327692534807	 
74.0	 -1.20082476916	 -0.204005732418	 
74.0	 -1.16163738886	 -0.353996513857	 
74.0	 -1.1103509112	 -0.484075629968	 
74.0	 -1.04941234462	 -0.595577112918	 
74.0	 -0.981140771368	 -0.689834994877	 
74.0	 -0.906839323215	 -0.768183308012	 
74.0	 -0.827326653347	 -0.831956084491	 
74.0	 -0.74341843125	 -0.882487356485	 
74.0	 -0.655930326411	 -0.921111156159	 
74.0	 -0.565675490816	 -0.949167005529	 
74.0	 -0.473316026547	 -0.968323817265	 
74.0	 -0.379279908336	 -0.980761059559	 
74.0	 -0.283974970925	 -0.98870211936	 
74.0	 -0.187809049057	 -0.994370383615	 
74.0	 -0.0911899774746	 -0.999989239271	 
74.0	 0.00580858368342	 -1.00684513985	 
74.0	 0.104982916155	 -1.01098173754	 
74.0	 0.208779375712	 -1.00662005623	 
74.0	 0.319644970812	 -0.987979289859	 
74.0	 0.440026709913	 -0.949278632363	 
74.0	 0.572210481572	 -0.88486090084	 
74.0	 0.71359570993	 -0.792818171063	 
74.0	 0.855932552687	 -0.675577055882	 
74.0	 0.990656480245	 -0.535805619634	 
74.0	 1.109202963	 -0.376171926655	 
74.0	 1.20300747136	 -0.199344041284	 
75.0	 1.20696877032	 0.167666173643	 
75.0	 1.15648835961	 0.42381327034	 
75.0	 1.09567232344	 0.666389735769	 
75.0	 1.02908049657	 0.89024216565	 
75.0	 0.959714218529	 1.09030183695	 
75.0	 0.87622871051	 1.26227952676	 
75.0	 0.75954760542	 1.40230611003	 
75.0	 0.591276507308	 1.50660382333	 
75.0	 0.373490692676	 1.57375554409	 
75.0	 0.130595387952	 1.60491932496	 
75.0	 -0.111910810873	 1.60137836362	 
75.0	 -0.336262787563	 1.56332333602	 
75.0	 -0.541949840625	 1.4885073579	 
75.0	 -0.730795903964	 1.37435372711	 
75.0	 -0.903512717122	 1.22107901388	 
75.0	 -1.05537548065	 1.04255363764	 
75.0	 -1.18000083119	 0.856813495403	 
75.0	 -1.27159046035	 0.68043218983	 
75.0	 -1.33115203532	 0.512972317776	 
75.0	 -1.36408417527	 0.343021633653	 
75.0	 -1.37581977133	 0.159259826063	 
75.0	 -1.37027906545	 -0.0389486915241	 
75.0	 -1.34941731476	 -0.238359670109	 
75.0	 -1.31505629148	 -0.424806337707	 
75.0	 -1.26769886093	 -0.587227325577	 
75.0	 -1.20429081202	 -0.722936501266	 
75.0	 -1.12118427693	 -0.830645513705	 
75.0	 -1.01542398736	 -0.909764902514	 
75.0	 -0.888204597481	 -0.963892825461	 
75.0	 -0.742259486181	 -0.998180141932	 
75.0	 -0.580324554314	 -1.01768749493	 
75.0	 -0.405135702737	 -1.02608754391	 
75.0	 -0.219428832308	 -1.02598447582	 
75.0	 -0.0260130264171	 -1.01994704003	 
75.0	 0.167911679551	 -1.01006681882	 
75.0	 0.348339274622	 -0.997695785552	 
75.0	 0.500679863794	 -0.984122100414	 
75.0	 0.616793522781	 -0.969852896565	 
75.0	 0.709682423377	 -0.952835210434	 
75.0	 0.79667393768	 -0.930492339881	 
75.0	 0.89260516003	 -0.900797279223	 
75.0	 0.993908475708	 -0.865785623151	 
75.0	 1.08876722492	 -0.829313835866	 
75.0	 1.1656717092	 -0.794530329271	 
75.0	 1.21994792903	 -0.750420051643	 
75.0	 1.25318811115	 -0.672984426343	 
75.0	 1.26721330721	 -0.537903584242	 
75.0	 1.26354720006	 -0.337241473618	 
75.0	 1.24316169878	 -0.0934625471909	 
75.0	 1.20696877032	 0.167666173643	 
76.0	 1.23343447305	 -0.309648946444	 
76.0	 1.17179976724	 -0.0225083045225	 
76.0	 1.11708455023	 0.296584189245	 
76.0	 1.07506930032	 0.618280167236	 
76.0	 1.03829349873	 0.928639154832	 
76.0	 0.99082523604	 1.22354291335	 
76.0	 0.92086151593	 1.49193846886	 
76.0	 0.823219840611	 1.71176720955	 
76.0	 0.690980721282	 1.86194091323	 
76.0	 0.507998684071	 1.92903980211	 
76.0	 0.259580493497	 1.90383334121	 
76.0	 -0.0252717955221	 1.80350452641	 
76.0	 -0.289920885755	 1.66199332479	 
76.0	 -0.510575695333	 1.49648273223	 
76.0	 -0.715085031039	 1.29774221375	 
76.0	 -0.926513855548	 1.05938139898	 
76.0	 -1.13102319125	 0.795459102731	 
76.0	 -1.30645928389	 0.52552512473	 
76.0	 -1.44126117685	 0.273531519839	 
76.0	 -1.5308158776	 0.0658208148024	 
76.0	 -1.57745835767	 -0.0981986913396	 
76.0	 -1.59411638627	 -0.260940123408	 
76.0	 -1.58847828428	 -0.4517991851	 
76.0	 -1.54362974575	 -0.633711728276	 
76.0	 -1.438783829	 -0.756974872286	 
76.0	 -1.27963558656	 -0.818109415484	 
76.0	 -1.08895099082	 -0.843363212461	 
76.0	 -0.888926508969	 -0.853800817398	 
76.0	 -0.700434508452	 -0.861682274186	 
76.0	 -0.540389295233	 -0.875315064307	 
76.0	 -0.41032853349	 -0.890225928502	 
76.0	 -0.307034518554	 -0.898935766635	 
76.0	 -0.216696748082	 -0.896166606142	 
76.0	 -0.11889845882	 -0.878131560877	 
76.0	 -0.00677711248929	 -0.845327659649	 
76.0	 0.105344233841	 -0.804855313978	 
76.0	 0.206317514879	 -0.763743931269	 
76.0	 0.304984299649	 -0.726466770783	 
76.0	 0.414272357355	 -0.696668710431	 
76.0	 0.536516659525	 -0.675793500559	 
76.0	 0.667203877045	 -0.663864809203	 
76.0	 0.80085252187	 -0.660882636364	 
76.0	 0.93065700625	 -0.666846982042	 
76.0	 1.05046667347	 -0.681757846237	 
76.0	 1.15720619518	 -0.705615228948	 
76.0	 1.24777176775	 -0.73614699849	 
76.0	 1.30979088961	 -0.744667492315	 
76.0	 1.32518176902	 -0.685828748842	 
76.0	 1.29199385051	 -0.536720106895	 
76.0	 1.23343447305	 -0.309648946444	 
77.0	 1.17094071179	 0.331694754093	 
77.0	 1.13202423275	 0.596561973217	 
77.0	 1.07700024834	 0.850232540878	 
77.0	 1.00249137842	 1.08481484129	 
77.0	 0.905120242815	 1.29242085065	 
77.0	 0.78150946138	 1.46569309632	 
77.0	 0.628281653956	 1.598360618	 
77.0	 0.442059440385	 1.68428549232	 
77.0	 0.219843608705	 1.71754531565	 
77.0	 -0.0308691349354	 1.69819935592	 
77.0	 -0.29097792337	 1.63292014531	 
77.0	 -0.540781372353	 1.52872245341	 
77.0	 -0.761823285586	 1.39208763837	 
77.0	 -0.948854316199	 1.22383953118	 
77.0	 -1.10457963074	 1.02139442223	 
77.0	 -1.23181371269	 0.782121772919	 
77.0	 -1.33314967874	 0.506954304955	 
77.0	 -1.41006446017	 0.214791572745	 
77.0	 -1.46368397847	 -0.0698167922126	 
77.0	 -1.49512753633	 -0.322336125071	 
77.0	 -1.50280213868	 -0.525347638618	 
77.0	 -1.47821843055	 -0.679525563856	 
77.0	 -1.41180716818	 -0.78837728558	 
77.0	 -1.29433004765	 -0.855476707035	 
77.0	 -1.13066533616	 -0.887235142441	 
77.0	 -0.944787855179	 -0.893902286616	 
77.0	 -0.762027955882	 -0.886000293948	 
77.0	 -0.606163689293	 -0.87364262947	 
77.0	 -0.479104471709	 -0.861185187319	 
77.0	 -0.366593968645	 -0.848727745167	 
77.0	 -0.253996866091	 -0.836270303016	 
77.0	 -0.128837627679	 -0.823724324808	 
77.0	 0.00756656320571	 -0.810435867669	 
77.0	 0.148473927632	 -0.795528617548	 
77.0	 0.287130132307	 -0.778125994318	 
77.0	 0.417950876509	 -0.758080460061	 
77.0	 0.539072477697	 -0.73756277785	 
77.0	 0.649369142485	 -0.719203486282	 
77.0	 0.747731475025	 -0.705611838051	 
77.0	 0.834243256481	 -0.697848203758	 
77.0	 0.910969295432	 -0.694401350751	 
77.0	 0.980161178649	 -0.693517586633	 
77.0	 1.04392402532	 -0.692986902444	 
77.0	 1.10153267147	 -0.681781603583	 
77.0	 1.14970197307	 -0.640898433373	 
77.0	 1.18505454998	 -0.551046775439	 
77.0	 1.20455463738	 -0.395929343623	 
77.0	 1.20795644303	 -0.18369537967	 
77.0	 1.19637653671	 0.0655684737603	 
77.0	 1.17094071179	 0.331694754093	 
78.0	 1.14567535663	 0.464254117912	 
78.0	 1.10472907834	 0.774229381218	 
78.0	 1.0542405886	 1.07104712117	 
78.0	 0.979293326972	 1.33704129244	 
78.0	 0.866778213476	 1.5555567089	 
78.0	 0.712310809313	 1.71481756446	 
78.0	 0.51413568947	 1.80451836651	 
78.0	 0.272751272262	 1.81747701266	 
78.0	 0.00181450507707	 1.76474915794	 
78.0	 -0.280254842136	 1.66399174245	 
78.0	 -0.556128592661	 1.53142314132	 
78.0	 -0.816276674171	 1.37298175564	 
78.0	 -1.05454347769	 1.19015754695	 
78.0	 -1.26441671811	 0.984526197707	 
78.0	 -1.43616224294	 0.758564327967	 
78.0	 -1.55838698075	 0.515212444847	 
78.0	 -1.62106226238	 0.257973003333	 
78.0	 -1.62902667282	 -0.00363053459373	 
78.0	 -1.59618990326	 -0.256401049851	 
78.0	 -1.53584129973	 -0.48726871674	 
78.0	 -1.45109133524	 -0.68560342953	 
78.0	 -1.3377147364	 -0.842533348558	 
78.0	 -1.19189688934	 -0.949749480574	 
78.0	 -1.0198057564	 -1.00807848379	 
78.0	 -0.836088480765	 -1.02610682107	 
78.0	 -0.655405701495	 -1.01275952575	 
78.0	 -0.4865318659	 -0.979077876156	 
78.0	 -0.332355229554	 -0.938219395644	 
78.0	 -0.195410156749	 -0.903145965122	 
78.0	 -0.0751476732748	 -0.877766360056	 
78.0	 0.0326112227786	 -0.85533109588	 
78.0	 0.132253755067	 -0.828582832354	 
78.0	 0.228167147248	 -0.794952938753	 
78.0	 0.324738622977	 -0.758378704262	 
78.0	 0.426275073446	 -0.723254176678	 
78.0	 0.531453048083	 -0.692398979326	 
78.0	 0.62972114546	 -0.666052303962	 
78.0	 0.709731994392	 -0.64420648303	 
78.0	 0.767326872452	 -0.625926074895	 
78.0	 0.812308482501	 -0.608473762635	 
78.0	 0.856072038168	 -0.58891167486	 
78.0	 0.907120355929	 -0.565919554545	 
78.0	 0.967272162777	 -0.54191531705	 
78.0	 1.03739861966	 -0.519831801932	 
78.0	 1.11381514421	 -0.494263383339	 
78.0	 1.18025073494	 -0.436767268223	 
78.0	 1.21828048063	 -0.31495822271	 
78.0	 1.21649017348	 -0.108801645987	 
78.0	 1.18673131551	 0.16075027052	 
78.0	 1.14567535663	 0.464254117912	 
79.0	 1.13636594252	 0.716203279656	 
79.0	 1.09717983214	 0.986558276898	 
79.0	 1.04604724481	 1.19961107505	 
79.0	 0.976156592768	 1.35692336928	 
79.0	 0.880705589504	 1.46007124905	 
79.0	 0.754265771976	 1.51275689861	 
79.0	 0.594222121598	 1.52303651823	 
79.0	 0.398304109121	 1.49949943127	 
79.0	 0.164643017668	 1.45067098629	 
79.0	 -0.097477716205	 1.38330093591	 
79.0	 -0.366444969037	 1.30217595514	 
79.0	 -0.620007554211	 1.21198112944	 
79.0	 -0.837496421305	 1.11684016569	 
79.0	 -1.01502314688	 1.01492261547	 
79.0	 -1.15880631473	 0.900811830018	 
79.0	 -1.27520340675	 0.769041876295	 
79.0	 -1.36932182189	 0.61476097903	 
79.0	 -1.43996573432	 0.436214097107	 
79.0	 -1.48395712652	 0.232620027534	 
79.0	 -1.49812001345	 0.00321356100954	 
79.0	 -1.48043003795	 -0.246235666992	 
79.0	 -1.43179100226	 -0.493342352263	 
79.0	 -1.35356522392	 -0.713119372352	 
79.0	 -1.24716669389	 -0.880942424668	 
79.0	 -1.11621358371	 -0.987663650607	 
79.0	 -0.967305826873	 -1.04507134882	 
79.0	 -0.807255011116	 -1.06643992812	 
79.0	 -0.642696345638	 -1.06471018073	 
79.0	 -0.47778023802	 -1.04812294522	 
79.0	 -0.314820278676	 -1.02144475642	 
79.0	 -0.156086996853	 -0.989360699782	 
79.0	 -0.003667515672	 -0.956082802901	 
79.0	 0.141522305505	 -0.922802062697	 
79.0	 0.279027258462	 -0.889521322493	 
79.0	 0.408392996207	 -0.856240700761	 
79.0	 0.528504441193	 -0.82328492868	 
79.0	 0.636145440932	 -0.79201098215	 
79.0	 0.727683148629	 -0.763980556322	 
79.0	 0.799550859443	 -0.740743973058	 
79.0	 0.852994729116	 -0.723023969522	 
79.0	 0.897251688145	 -0.71016924704	 
79.0	 0.942312065215	 -0.701398958036	 
