12.0	 0.391450188914	 -0.692014716835	 
12.0	 0.462087157612	 -0.635252683305	 
12.0	 0.564064300918	 -0.559114565723	 
12.0	 0.711107640222	 -0.458236408108	 
12.0	 0.891683767499	 -0.33169766986	 
12.0	 1.08902628876	 -0.179498350977	 
13.0	 1.12858658446	 -0.169581647244	 
13.0	 1.24243467221	 -0.00546815016727	 
13.0	 1.33314760547	 0.174285462278	 
13.0	 1.39767974365	 0.366318504145	 
13.0	 1.43299012481	 0.567246197178	 
13.0	 1.43672884387	 0.770125239796	 
13.0	 1.40796120662	 0.960724852992	 
13.0	 1.3459258029	 1.12392195001	 
13.0	 1.24991112839	 1.24506152323	 
13.0	 1.12059079596	 1.32247992859	 
13.0	 0.960169787498	 1.36887661751	 
13.0	 0.770932333436	 1.3976943338	 
13.0	 0.555415312376	 1.42112130025	 
13.0	 0.318835267581	 1.43803990142	 
13.0	 0.0680227100209	 1.43931838723	 
13.0	 -0.190169668972	 1.41571487131	 
13.0	 -0.447990873515	 1.35886855748	 
13.0	 -0.693160435747	 1.2648613224	 
13.0	 -0.911973492861	 1.13117214172	 
13.0	 -1.09073713865	 0.95529222844	 
13.0	 -1.22097206433	 0.739613413507	 
13.0	 -1.30745519151	 0.498987968276	 
13.0	 -1.35703921152	 0.250219322481	 
13.0	 -1.37654793503	 0.00995953221957	 
13.0	 -1.37157323855	 -0.211596340263	 
13.0	 -1.34604046807	 -0.412988097064	 
13.0	 -1.30375667435	 -0.593375566696	 
13.0	 -1.24829231761	 -0.751853311734	 
13.0	 -1.17988479702	 -0.886596435349	 
13.0	 -1.09630764348	 -0.995100357147	 
13.0	 -0.995276626546	 -1.07484456267	 
13.0	 -0.875506960463	 -1.12424170015	 
13.0	 -0.742096488911	 -1.14766375892	 
13.0	 -0.602653306187	 -1.15182650206	 
13.0	 -0.464791051679	 -1.14345079159	 
13.0	 -0.33485723593	 -1.12786039051	 
13.0	 -0.215173172172	 -1.105936389	 
13.0	 -0.1072616807	 -1.07767878704	 
13.0	 -0.0126123112715	 -1.04309166377	 
13.0	 0.0697063379218	 -1.0024759181	 
13.0	 0.144645165682	 -0.95662525778	 
13.0	 0.217534043044	 -0.906379854301	 
13.0	 0.293663216755	 -0.852470571448	 
13.0	 0.377557249075	 -0.79351605308	 
13.0	 0.473048143647	 -0.726224448421	 
13.0	 0.583942951211	 -0.647235071524	 
13.0	 0.712951256809	 -0.553378445245	 
13.0	 0.853819643144	 -0.443046694749	 
13.0	 0.995917999717	 -0.315394485911	 
13.0	 1.12858658446	 -0.169581647244	 
14.0	 1.22154410076	 0.0431763699616	 
14.0	 1.30847279283	 0.222382611148	 
14.0	 1.3645017313	 0.40733800651	 
14.0	 1.38883231417	 0.593485299688	 
14.0	 1.38066430373	 0.776263500569	 
14.0	 1.3389558582	 0.950560129482	 
14.0	 1.26217035639	 1.11013331478	 
14.0	 1.14871059432	 1.24860289755	 
14.0	 0.99707096918	 1.35969326407	 
14.0	 0.808288233783	 1.44003041284	 
14.0	 0.586209938828	 1.48944833001	 
14.0	 0.334829094226	 1.50794701558	 
14.0	 0.0589336769014	 1.49567768666	 
14.0	 -0.228256669593	 1.4543954159	 
14.0	 -0.508443891015	 1.38682128154	 
14.0	 -0.763260141777	 1.29568963739	 
14.0	 -0.977059438669	 1.18277899578	 
14.0	 -1.14792009645	 1.04504828179	 
14.0	 -1.27823634591	 0.877940792196	 
14.0	 -1.37040447766	 0.676912546221	 
14.0	 -1.42702331049	 0.442967094446	 
14.0	 -1.45120661667	 0.191213287057	 
14.0	 -1.44614880411	 -0.0610313017854	 
14.0	 -1.41503670792	 -0.296596028127	 
14.0	 -1.36073413587	 -0.504577702801	 
14.0	 -1.28566791229	 -0.682551597151	 
14.0	 -1.19223384312	 -0.828694808631	 
14.0	 -1.08276569756	 -0.941467646989	 
14.0	 -0.958723277868	 -1.02332028574	 
14.0	 -0.820920331718	 -1.07965228888	 
14.0	 -0.670155461091	 -1.11593236406	 
14.0	 -0.508275531516	 -1.13726109822	 
14.0	 -0.343821803838	 -1.14638819507	 
14.0	 -0.187968405197	 -1.14513876976	 
14.0	 -0.0518943699382	 -1.1353353791	 
14.0	 0.0570391933193	 -1.11785331226	 
14.0	 0.14361190108	 -1.09055561634	 
14.0	 0.215011171183	 -1.05070793752	 
14.0	 0.27839340309	 -0.995629024299	 
14.0	 0.338657924848	 -0.926501647533	 
14.0	 0.396956657111	 -0.850924000229	 
14.0	 0.454088201863	 -0.777099143833	 
14.0	 0.511017400185	 -0.712708381989	 
14.0	 0.571921433589	 -0.655350771446	 
14.0	 0.643883032898	 -0.593506016182	 
14.0	 0.73408961595	 -0.515325249665	 
14.0	 0.848032283219	 -0.41027333425	 
14.0	 0.977348311264	 -0.278544356094	 
14.0	 1.106910063	 -0.125571552147	 
14.0	 1.22154410076	 0.0431763699616	 
15.0	 1.30022497188	 -0.238633218157	 
15.0	 1.38237723103	 -0.028763538302	 
15.0	 1.44245083424	 0.182549371443	 
15.0	 1.47318704532	 0.386646131737	 
15.0	 1.46732712808	 0.57486736324	 
15.0	 1.41927635678	 0.739903552795	 
15.0	 1.3319950948	 0.881385182961	 
15.0	 1.21118538467	 1.00116682085	 
15.0	 1.06255051912	 1.10110404775	 
15.0	 0.89139372826	 1.18281381567	 
15.0	 0.700358625878	 1.24632666915	 
15.0	 0.491003855952	 1.29102599014	 
15.0	 0.264884861952	 1.31629325153	 
15.0	 0.0247236699517	 1.32159690661	 
15.0	 -0.216604104652	 1.30716246005	 
15.0	 -0.440994828129	 1.27360521744	 
15.0	 -0.630301659987	 1.22154370588	 
15.0	 -0.768118832262	 1.15165754157	 
15.0	 -0.858280545113	 1.06533650143	 
15.0	 -0.917679042653	 0.964428530614	 
15.0	 -0.963424203061	 0.850789210412	 
15.0	 -1.01187118638	 0.726212734727	 
15.0	 -1.06730186284	 0.591511278316	 
15.0	 -1.12428798278	 0.446707212674	 
15.0	 -1.17712625346	 0.291800537801	 
15.0	 -1.22013498554	 0.126907227528	 
15.0	 -1.24812936745	 -0.0451893462148	 
15.0	 -1.2564214654	 -0.219038413395	 
15.0	 -1.24034494897	 -0.389073230152	 
15.0	 -1.19535225634	 -0.549779252778	 
15.0	 -1.12108883202	 -0.697484811845	 
15.0	 -1.02241358656	 -0.830809615935	 
15.0	 -0.904511331535	 -0.948516610858	 
15.0	 -0.772563678005	 -1.04938019663	 
15.0	 -0.631560206985	 -1.13286202558	 
15.0	 -0.486192852894	 -1.19948899118	 
15.0	 -0.341127946145	 -1.24987962051	 
15.0	 -0.201011563979	 -1.28464921918	 
15.0	 -0.068039150046	 -1.30402329186	 
15.0	 0.060353347001	 -1.30747029182	 
15.0	 0.187276814103	 -1.29437169197	 
15.0	 0.315838137577	 -1.26410753343	 
15.0	 0.44778799145	 -1.21557248539	 
15.0	 0.581552529373	 -1.14647141141	 
15.0	 0.715057826718	 -1.05433020311	 
15.0	 0.846229908848	 -0.936675408345	 
15.0	 0.972885133963	 -0.79247268849	 
15.0	 1.0924976567	 -0.625178290394	 
15.0	 1.20247507126	 -0.439121903726	 
15.0	 1.30022497188	 -0.238633218157	 
16.0	 1.2109242136	 0.0366691778815	 
16.0	 1.29184420918	 0.211661856884	 
16.0	 1.33253487971	 0.379858703692	 
16.0	 1.34185405822	 0.541259718305	 
16.0	 1.32838277047	 0.695804223652	 
16.0	 1.29433547472	 0.842035969974	 
16.0	 1.23556006174	 0.977103134835	 
16.0	 1.14762761501	 1.09809321872	 
16.0	 1.0275855235	 1.20257913871	 
16.0	 0.87838639824	 1.29007547821	 
16.0	 0.704459155745	 1.36058223723	 
16.0	 0.510232712534	 1.4139982873	 
16.0	 0.300135985127	 1.44789654551	 
16.0	 0.0785978900437	 1.45752397445	 
16.0	 -0.149952656196	 1.43802640827	 
16.0	 -0.381086737072	 1.3855205143	 
16.0	 -0.610375436064	 1.30000629252	 
16.0	 -0.833389836654	 1.18245457611	 
16.0	 -1.04553186231	 1.03389687532	 
16.0	 -1.23831275638	 0.856760273062	 
16.0	 -1.39935308206	 0.654867424958	 
16.0	 -1.51610424254	 0.432101663685	 
16.0	 -1.57897025203	 0.193802571683	 
16.0	 -1.59016556879	 -0.0488652695873	 
16.0	 -1.55485726209	 -0.283281028907	 
16.0	 -1.47833542666	 -0.497086809043	 
16.0	 -1.3687197428	 -0.683972194385	 
16.0	 -1.23695947634	 -0.84367425095	 
16.0	 -1.09412691857	 -0.976192978738	 
16.0	 -0.948833851633	 -1.08136657222	 
16.0	 -0.799850020926	 -1.15838600376	 
16.0	 -0.643484662686	 -1.20628044017	 
16.0	 -0.47646222407	 -1.22432175659	 
16.0	 -0.305057003482	 -1.21736411887	 
16.0	 -0.14509315057	 -1.19584398359	 
16.0	 -0.0128100259062	 -1.17044051562	 
16.0	 0.081212181045	 -1.14843496376	 
16.0	 0.149029965254	 -1.12351691238	 
16.0	 0.2083589928	 -1.08597802978	 
16.0	 0.276315180651	 -1.02659540085	 
16.0	 0.356220216195	 -0.947310691912	 
16.0	 0.437601557246	 -0.861230150785	 
16.0	 0.509386912504	 -0.781945441852	 
16.0	 0.565548034484	 -0.717708647063	 
16.0	 0.620232850957	 -0.655413518616	 
16.0	 0.69263333351	 -0.576614226268	 
16.0	 0.800972628238	 -0.463552613275	 
16.0	 0.941190895	 -0.314287013293	 
16.0	 1.08694530741	 -0.142692250388	 
16.0	 1.2109242136	 0.0366691778815	 
17.0	 1.21272712129	 -0.222566386581	 
17.0	 1.35923408087	 0.0494405139222	 
17.0	 1.47894655668	 0.335196157687	 
17.0	 1.56212110007	 0.612992002722	 
17.0	 1.59977886756	 0.863901973965	 
17.0	 1.58663173652	 1.08243086117	 
17.0	 1.51850371669	 1.26713060377	 
17.0	 1.39121904437	 1.41671555483	 
17.0	 1.20060195585	 1.53084369174	 
17.0	 0.942476687435	 1.6095145434	 
17.0	 0.616524880175	 1.65246935509	 
17.0	 0.249819787231	 1.65761194286	 
17.0	 -0.118712202333	 1.6220510144	 
17.0	 -0.452641899944	 1.54360440897	 
17.0	 -0.737687613761	 1.42628971437	 
17.0	 -0.970971256648	 1.27731672938	 
17.0	 -1.15031206138	 1.10376487428	 
17.0	 -1.28003531446	 0.911022418378	 
17.0	 -1.36843590587	 0.703445792114	 
17.0	 -1.42312907656	 0.485435592076	 
17.0	 -1.4417342425	 0.262191880906	 
17.0	 -1.41466699291	 0.0394908832857	 
17.0	 -1.3334638282	 -0.176577949825	 
17.0	 -1.2119752029	 -0.37468629751	 
17.0	 -1.08300500096	 -0.539055952849	 
17.0	 -0.97879939766	 -0.654490936448	 
17.0	 -0.904926077943	 -0.72243848444	 
17.0	 -0.840274236408	 -0.760989048485	 
17.0	 -0.763078225806	 -0.788653718576	 
17.0	 -0.667468823573	 -0.814408114705	 
17.0	 -0.566291736399	 -0.836001706951	 
17.0	 -0.473258204029	 -0.850616342144	 
17.0	 -0.392659077406	 -0.858890839356	 
17.0	 -0.315713744025	 -0.866260813986	 
17.0	 -0.232756631693	 -0.878456322374	 
17.0	 -0.139580373025	 -0.897080065473	 
17.0	 -0.0409234244933	 -0.916970140189	 
17.0	 0.0576429041663	 -0.932360215054	 
17.0	 0.150108703038	 -0.940220139416	 
17.0	 0.229612235407	 -0.942833832796	 
17.0	 0.289221420885	 -0.943090997518	 
17.0	 0.328886645092	 -0.94268867341	 
17.0	 0.364463100671	 -0.940567756396	 
17.0	 0.414039420287	 -0.935275357074	 
17.0	 0.491105278097	 -0.921259968093	 
17.0	 0.596444535996	 -0.881646590013	 
17.0	 0.728664763011	 -0.797622271984	 
17.0	 0.883871230315	 -0.655866623431	 
17.0	 1.04986508719	 -0.461286856031	 
17.0	 1.21272712129	 -0.222566386581	 
18.0	 1.1711113161	 -0.343711311256	 
18.0	 1.23336947813	 -0.157187755602	 
18.0	 1.27803384601	 0.0520317351697	 
18.0	 1.30332889923	 0.271371241787	 
18.0	 1.30747911728	 0.488254844978	 
18.0	 1.28864895079	 0.690358584783	 
18.0	 1.24387758701	 0.870081571908	 
18.0	 1.16920484372	 1.02401757305	 
18.0	 1.06063579978	 1.14890616469	 
18.0	 0.914177590581	 1.24148814812	 
18.0	 0.729382834312	 1.30061588366	 
18.0	 0.516623630003	 1.33158541611	 
18.0	 0.288328621228	 1.34091759251	 
18.0	 0.0569264515593	 1.33513325988	 
18.0	 -0.165630853523	 1.32027314279	 
18.0	 -0.373588693311	 1.29613497389	 
18.0	 -0.565526495766	 1.25815059085	 
18.0	 -0.740112620505	 1.20166224578	 
18.0	 -0.896015871803	 1.12201965626	 
18.0	 -1.03202538958	 1.0165928803	 
18.0	 -1.14721289411	 0.887496276493	 
18.0	 -1.24069062511	 0.737524493553	 
18.0	 -1.31157082235	 0.56947218021	 
18.0	 -1.35899418369	 0.386402741795	 
18.0	 -1.38236881339	 0.193904950846	 
18.0	 -1.38124933059	 -0.00104874353037	 
18.0	 -1.35519185516	 -0.191471719515	 
18.0	 -1.30376601348	 -0.370399401731	 
18.0	 -1.22786006604	 -0.533019600571	 
18.0	 -1.13076893068	 -0.678448475421	 
18.0	 -1.01604364845	 -0.806220251495	 
18.0	 -0.887235260338	 -0.915869154004	 
18.0	 -0.747813768414	 -1.00705696256	 
18.0	 -0.600684014048	 -1.08033501314	 
18.0	 -0.448510167323	 -1.13663345555	 
18.0	 -0.293955509004	 -1.17688383935	 
18.0	 -0.139693991656	 -1.20201024867	 
18.0	 0.0110803487166	 -1.21257294304	 
18.0	 0.154429785136	 -1.20861193265	 
18.0	 0.286359396455	 -1.19012721751	 
18.0	 0.402874261523	 -1.15711879763	 
18.0	 0.501313434031	 -1.10987829257	 
18.0	 0.586034009298	 -1.05023153251	 
18.0	 0.663692855261	 -0.980507099767	 
18.0	 0.740948173836	 -0.90303386828	 
18.0	 0.824263628938	 -0.8199949022	 
18.0	 0.914506415379	 -0.729378609687	 
18.0	 1.00624225316	 -0.624450328237	 
18.0	 1.09370070062	 -0.498223436033	 
18.0	 1.1711113161	 -0.343711311256	 
19.0	 -0.278130037961	 -0.871308905346	 
19.0	 -0.0630023994014	 -1.03006874405	 
19.0	 0.113907721706	 -1.17885414262	 
19.0	 0.274791141947	 -1.29771622082	 
19.0	 0.44101679581	 -1.36750761588	 
19.0	 0.615050329582	 -1.3875158678	 
19.0	 0.780454101349	 -1.37546341931	 
19.0	 0.919968587101	 -1.34987423065	 
19.0	 1.0204436733	 -1.32381006865	 
19.0	 1.08516688834	 -1.28848392653	 
19.0	 1.12153517108	 -1.22964660411	 
19.0	 1.13686840893	 -1.13370198955	 
19.0	 1.13671430604	 -1.00207500286	 
19.0	 1.12484838328	 -0.851211595921	 
19.0	 1.10496911009	 -0.698210808958	 
19.0	 1.0799530738	 -0.555184462123	 
19.0	 1.04938933336	 -0.414295495315	 
19.0	 1.01204506564	 -0.262719628371	 
19.0	 0.966841550373	 -0.0881966119649	 
19.0	 0.916244433854	 0.108561093893	 
19.0	 0.866263728907	 0.31386831986	 
19.0	 0.82306355125	 0.513475865755	 
19.0	 0.789315017694	 0.69550939809	 
19.0	 0.753717249422	 0.85759405017	 
19.0	 0.701476368712	 0.999729821993	 
19.0	 0.618106703626	 1.12191671356	 
19.0	 0.496211315302	 1.22415472487	 
19.0	 0.335481997954	 1.30644385593	 
19.0	 0.135918751583	 1.36878410673	 
19.0	 -0.0985744838575	 1.41022553059	 
19.0	 -0.348478008593	 1.42601839413	 
19.0	 -0.590368182895	 1.41046301726	 
19.0	 -0.801386410975	 1.35818626409	 
19.0	 -0.971670107686	 1.27132551464	 
19.0	 -1.10435269852	 1.15952866488	 
19.0	 -1.2031326529	 1.03277015492	 
19.0	 -1.27232485183	 0.899599504875	 
19.0	 -1.31870982261	 0.762866554788	 
19.0	 -1.34968450409	 0.623996224673	 
19.0	 -1.37246604844	 0.484413434548	 
19.0	 -1.39013651349	 0.345543104433	 
19.0	 -1.40164286283	 0.208810154346	 
19.0	 -1.40575227331	 0.0756395043038	 
19.0	 -1.39732798183	 -0.0532563856833	 
19.0	 -1.35561746547	 -0.180014895643	 
19.0	 -1.25596426136	 -0.307485865612	 
19.0	 -1.0751502003	 -0.438489449793	 
19.0	 -0.823037867435	 -0.575163028213	 
19.0	 -0.542570602264	 -0.718961206724	 
19.0	 -0.278130037961	 -0.871308905346	 
20.0	 -0.530165978437	 1.32799136515	 
20.0	 -0.868609180854	 1.28005427263	 
20.0	 -1.16262453173	 1.18519774655	 
20.0	 -1.39995607201	 1.04599271477	 
20.0	 -1.56889042418	 0.865197568643	 
20.0	 -1.67019358567	 0.649882359806	 
20.0	 -1.7171109289	 0.411428800169	 
20.0	 -1.72343040778	 0.161406065132	 
20.0	 -1.69910998905	 -0.0890451578833	 
20.0	 -1.63878769062	 -0.330498133365	 
20.0	 -1.5332715432	 -0.553954613779	 
20.0	 -1.37397599216	 -0.750603815084	 
20.0	 -1.16626301957	 -0.915946613512	 
20.0	 -0.929442144246	 -1.04979554557	 
20.0	 -0.683429299637	 -1.15215061127	 
20.0	 -0.445076429433	 -1.22408303054	 
20.0	 -0.218979518274	 -1.27094890311	 
20.0	 -0.00667056104349	 -1.29917554864	 
20.0	 0.190222697699	 -1.31494926232	 
20.0	 0.367870270752	 -1.31891277612	 
20.0	 0.520239928272	 -1.30616525878	 
20.0	 0.641203690735	 -1.27156485457	 
20.0	 0.72693157094	 -1.21168365968	 
20.0	 0.782785550969	 -1.12994957792	 
20.0	 0.816425605227	 -1.03150446502	 
20.0	 0.835447874997	 -0.921490176724	 
20.0	 0.845980339802	 -0.805048568761	 
20.0	 0.852682817406	 -0.687321496865	 
20.0	 0.86015129245	 -0.573450816769	 
20.0	 0.871194422215	 -0.466221700328	 
20.0	 0.881471554541	 -0.358992583888	 
20.0	 0.884854709902	 -0.242765219914	 
20.0	 0.875407408138	 -0.108916287853	 
20.0	 0.851597654365	 0.0425542122937	 
20.0	 0.816297938987	 0.203022959974	 
20.0	 0.772572251764	 0.363491707654	 
20.0	 0.723995247418	 0.516461915723	 
20.0	 0.676184240513	 0.660433876259	 
20.0	 0.635267210572	 0.795407589261	 
20.0	 0.607276387437	 0.921222371738	 
20.0	 0.596041758312	 1.03402183189	 
20.0	 0.603191067755	 1.12625386911	 
20.0	 0.630256310649	 1.19020569979	 
20.0	 0.670854174991	 1.22223517613	 
20.0	 0.686940121239	 1.23498269347	 
20.0	 0.632554302971	 1.24515928294	 
20.0	 0.463715700482	 1.26869934122	 
20.0	 0.181956308655	 1.30367467241	 
20.0	 -0.165678863047	 1.33029448803	 
20.0	 -0.530165978437	 1.32799136515	 
21.0	 1.03101560897	 -0.259044568004	 
21.0	 0.977440734532	 -0.058573690071	 
21.0	 0.93152658834	 0.159024027141	 
21.0	 0.896668265873	 0.384882034093	 
21.0	 0.876200594636	 0.610137817001	 
21.0	 0.864556600198	 0.826524957758	 
21.0	 0.83793936418	 1.02699777883	 
21.0	 0.770319821282	 1.20466007503	 
21.0	 0.636447753774	 1.35269635621	 
21.0	 0.432689569868	 1.46653134888	 
21.0	 0.1793107598	 1.54406653619	 
21.0	 -0.102186405092	 1.58333157377	 
21.0	 -0.390612583302	 1.58273749597	 
21.0	 -0.668097464095	 1.54474035748	 
21.0	 -0.918769796015	 1.47423253735	 
21.0	 -1.12678580018	 1.37613989643	 
21.0	 -1.27971379185	 1.25461343099	 
21.0	 -1.3823267021	 1.10989707988	 
21.0	 -1.44480784278	 0.941006119347	 
21.0	 -1.47733700578	 0.746964943447	 
21.0	 -1.48779796235	 0.530795434412	 
21.0	 -1.47823656099	 0.305683593364	 
21.0	 -1.4497845002	 0.0864070028666	 
21.0	 -1.40345543224	 -0.112452936958	 
21.0	 -1.3352276293	 -0.28468318423	 
21.0	 -1.23426762385	 -0.435391208691	 
21.0	 -1.08925843095	 -0.570488043368	 
21.0	 -0.890685266801	 -0.695425542266	 
21.0	 -0.654422559361	 -0.809186695609	 
21.0	 -0.415112971367	 -0.905972574622	 
21.0	 -0.207839156053	 -0.979872146281	 
21.0	 -0.0618560602879	 -1.02636701132	 
21.0	 0.0307981264573	 -1.04983237451	 
21.0	 0.0927223464742	 -1.05814124276	 
21.0	 0.14654911011	 -1.05917402187	 
21.0	 0.210911950644	 -1.05814901532	 
21.0	 0.291727946168	 -1.05181923554	 
21.0	 0.392392192156	 -1.03525882168	 
21.0	 0.51620637732	 -1.00361844272	 
21.0	 0.659675388832	 -0.957617509021	 
21.0	 0.808019409231	 -0.907221191786	 
21.0	 0.945394659635	 -0.8632663849	 
21.0	 1.0563990687	 -0.83587221608	 
21.0	 1.13416595153	 -0.821287975984	 
21.0	 1.17954884675	 -0.803217742053	 
21.0	 1.19367945286	 -0.764913587381	 
21.0	 1.17829043099	 -0.691197044598	 
21.0	 1.1400225041	 -0.579707422356	 
21.0	 1.08791303411	 -0.43434303393	 
21.0	 1.03101560897	 -0.259044568004	 
22.0	 1.00085344219	 0.0664201073671	 
22.0	 0.887727150447	 0.264817830671	 
22.0	 0.788200740776	 0.483917925103	 
22.0	 0.698565154426	 0.703018019535	 
22.0	 0.614982545889	 0.901847042238	 
22.0	 0.530652974134	 1.07005380765	 
22.0	 0.435814402599	 1.20720701637	 
22.0	 0.320576007964	 1.31330666839	 
22.0	 0.177725731556	 1.38909213413	 
22.0	 0.010766573303	 1.43826026556	 
22.0	 -0.17411970222	 1.46524728506	 
22.0	 -0.370699815733	 1.47433537953	 
22.0	 -0.571555649744	 1.46626391936	 
22.0	 -0.768084248552	 1.43822945846	 
22.0	 -0.95163114175	 1.38727451524	 
22.0	 -1.11416003539	 1.30896286731	 
22.0	 -1.25010734136	 1.19294332912	 
22.0	 -1.35452764798	 1.0273859743	 
22.0	 -1.42273311714	 0.80141589659	 
22.0	 -1.45596010173	 0.526123651955	 
22.0	 -1.46136914574	 0.234565258577	 
22.0	 -1.44637836664	 -0.0392482452624	 
22.0	 -1.4159331761	 -0.268945982057	 
22.0	 -1.36508816247	 -0.458717717391	 
22.0	 -1.28642520824	 -0.620393377625	 
22.0	 -1.17288679886	 -0.765402396816	 
22.0	 -1.02570928725	 -0.895962886158	 
22.0	 -0.854422893795	 -1.00508163398	 
22.0	 -0.668918441814	 -1.08536493629	 
22.0	 -0.478468578172	 -1.13237657073	 
22.0	 -0.289873243904	 -1.15351024126	 
22.0	 -0.109314203583	 -1.15911713344	 
22.0	 0.057258594384	 -1.15920955474	 
22.0	 0.209226973541	 -1.15600561635	 
22.0	 0.351304529376	 -1.14392923319	 
22.0	 0.488436673551	 -1.11706544208	 
22.0	 0.623920347172	 -1.07122447744	 
22.0	 0.754458609133	 -1.00911736406	 
22.0	 0.875106047772	 -0.935180324321	 
22.0	 0.981123310248	 -0.853849580606	 
22.0	 1.07251039656	 -0.769561355301	 
22.0	 1.15400665955	 -0.686751870792	 
22.0	 1.23055751088	 -0.609857349461	 
22.0	 1.30319324465	 -0.541342359302	 
22.0	 1.35728368469	 -0.475784850732	 
22.0	 1.37428353727	 -0.405791119777	 
22.0	 1.33652325866	 -0.323967462464	 
22.0	 1.24647555467	 -0.222920174818	 
22.0	 1.12675538071	 -0.095255552866	 
22.0	 1.00085344219	 0.0664201073671	 
23.0	 -0.792554652515	 -0.770576506133	 
23.0	 -0.572447932022	 -0.972284168736	 
23.0	 -0.330755108743	 -1.14392994356	 
23.0	 -0.0881988413538	 -1.2802504698	 
23.0	 0.134558342083	 -1.37600125277	 
23.0	 0.32573542723	 -1.42872440042	 
23.0	 0.491739795591	 -1.44166868647	 
23.0	 0.64120588828	 -1.41878163153	 
23.0	 0.782499327215	 -1.36407544022	 
23.0	 0.91652475711	 -1.28335759755	 
23.0	 1.03593805589	 -1.18442042896	 
23.0	 1.13296822655	 -1.07515897567	 
23.0	 1.20046503221	 -0.96317720094	 
23.0	 1.2378622102	 -0.852991804631	 
23.0	 1.24855903952	 -0.747260021325	 
23.0	 1.2360092966	 -0.648613531433	 
23.0	 1.20377994493	 -0.558476580751	 
23.0	 1.15600866476	 -0.47218523346	 
23.0	 1.09701261114	 -0.383160987282	 
23.0	 1.03110743259	 -0.284823044051	 
23.0	 0.961951860536	 -0.169923202507	 
23.0	 0.891534331703	 -0.0295163046706	 
23.0	 0.821581734315	 0.145608530899	 
23.0	 0.75376364256	 0.364237946459	 
23.0	 0.687304843189	 0.617062237799	 
23.0	 0.618122873927	 0.870291403047	 
23.0	 0.541900514219	 1.08839775665	 
23.0	 0.454219932814	 1.23805127184	 
23.0	 0.349245906024	 1.31688229828	 
23.0	 0.220095444114	 1.34540774148	 
23.0	 0.0598609941942	 1.34468104472	 
23.0	 -0.135836694454	 1.33309841671	 
23.0	 -0.35523069037	 1.31208649895	 
23.0	 -0.580203863621	 1.27639790197	 
23.0	 -0.792625066899	 1.22077036298	 
23.0	 -0.977593699368	 1.14295022365	 
23.0	 -1.13048206216	 1.05025096814	 
23.0	 -1.24869982294	 0.951883477893	 
23.0	 -1.32971533894	 0.856988360386	 
23.0	 -1.37526755072	 0.769592693554	 
23.0	 -1.39418583259	 0.685233581044	 
23.0	 -1.3959680698	 0.598647662031	 
23.0	 -1.38968527263	 0.504503098499	 
23.0	 -1.3761596846	 0.396144825473	 
23.0	 -1.348752572	 0.265720924384	 
23.0	 -1.30055638196	 0.105336353997	 
23.0	 -1.22492556858	 -0.0910073282313	 
23.0	 -1.11735439728	 -0.313819043362	 
23.0	 -0.974382017402	 -0.546044076887	 
23.0	 -0.792554652515	 -0.770576506133	 
24.0	 -0.366151840499	 -1.46500842817	 
24.0	 -0.152997564821	 -1.49730719031	 
24.0	 0.0576935278805	 -1.49030504986	 
24.0	 0.263458254631	 -1.44826997814	 
24.0	 0.461833432454	 -1.37546994646	 
24.0	 0.650039665358	 -1.27608160881	 
24.0	 0.823671828081	 -1.15381213407	 
24.0	 0.977803792246	 -1.01221823362	 
24.0	 1.1075091919	 -0.85485655023	 
24.0	 1.20862190275	 -0.685146510509	 
24.0	 1.28202988706	 -0.505595328066	 
24.0	 1.33068288247	 -0.31833808629	 
24.0	 1.35753670853	 -0.125508770843	 
24.0	 1.3654432693	 0.0704585408798	 
24.0	 1.35635001882	 0.264517861951	 
24.0	 1.33173871558	 0.450278349895	 
24.0	 1.29308726939	 0.621338047727	 
24.0	 1.24143569082	 0.771681399162	 
24.0	 1.17273341232	 0.899784755998	 
24.0	 1.07964562236	 1.00702247526	 
24.0	 0.954782772019	 1.09481721405	 
24.0	 0.791521303344	 1.16449749919	 
24.0	 0.59549128098	 1.21588604742	 
24.0	 0.382177924735	 1.24759450566	 
24.0	 0.167345605655	 1.25820021681	 
24.0	 -0.0335697296116	 1.24641389785	 
24.0	 -0.212685895543	 1.21401387019	 
24.0	 -0.369674467742	 1.16584605958	 
24.0	 -0.504535446208	 1.1068897659	 
24.0	 -0.617328224823	 1.04202995293	 
24.0	 -0.71020903899	 0.972821142501	 
24.0	 -0.787941277856	 0.896676878668	 
24.0	 -0.855451307373	 0.810751847222	 
24.0	 -0.917619878993	 0.712231470366	 
24.0	 -0.976590874194	 0.600145355442	 
24.0	 -1.030266026	 0.476381596762	 
24.0	 -1.07618215143	 0.343074179985	 
24.0	 -1.1118914624	 0.202355238355	 
24.0	 -1.13680895296	 0.0561327625238	 
24.0	 -1.15396741715	 -0.0941205751119	 
24.0	 -1.16681531113	 -0.246982117445	 
24.0	 -1.17878740672	 -0.401029756232	 
24.0	 -1.18867948113	 -0.555027448338	 
24.0	 -1.18391561683	 -0.708195257131	 
24.0	 -1.15020935257	 -0.859821854058	 
24.0	 -1.07327693544	 -1.00919501866	 
24.0	 -0.94477404803	 -1.15364658278	 
24.0	 -0.774889686627	 -1.28440507224	 
24.0	 -0.577417675895	 -1.39151188728	 
24.0	 -0.366151840499	 -1.46500842817	 
25.0	 0.635833051786	 -1.05827886043	 
25.0	 0.859266732611	 -0.933643567985	 
25.0	 1.07783434416	 -0.789716458381	 
25.0	 1.26963857471	 -0.635635760799	 
25.0	 1.41342416332	 -0.480158944869	 
25.0	 1.50270301764	 -0.323286010592	 
25.0	 1.54575421385	 -0.156259488336	 
25.0	 1.55149887897	 0.0300588510797	 
25.0	 1.52831746562	 0.240915028112	 
25.0	 1.482427729	 0.465986228315	 
25.0	 1.41950674991	 0.691057428518	 
25.0	 1.3447754152	 0.902061678708	 
25.0	 1.2529621498	 1.08833771151	 
25.0	 1.1283029168	 1.24262994217	 
25.0	 0.954577485298	 1.35783085912	 
25.0	 0.722459222505	 1.42886366836	 
25.0	 0.450195888202	 1.45877444628	 
25.0	 0.162928840305	 1.45263998687	 
25.0	 -0.114504692601	 1.41564285067	 
25.0	 -0.364262456512	 1.35539822867	 
25.0	 -0.575497172004	 1.28195394228	 
25.0	 -0.737665688986	 1.20546357951	 
25.0	 -0.845361263818	 1.13235774606	 
25.0	 -0.913722778686	 1.05417511862	 
25.0	 -0.963025522232	 0.958731391616	 
25.0	 -1.01288583621	 0.834349938873	 
25.0	 -1.06776428414	 0.681030760388	 
25.0	 -1.11696565124	 0.51045048234	 
25.0	 -1.14913577588	 0.334793410302	 
25.0	 -1.15589420543	 0.164043905787	 
25.0	 -1.14075532324	 -0.000613445940402	 
25.0	 -1.11020722169	 -0.160194003678	 
25.0	 -1.07055213632	 -0.315607359683	 
25.0	 -1.02381759601	 -0.465330475758	 
25.0	 -0.967756422915	 -0.605407683253	 
25.0	 -0.89993558241	 -0.731777546976	 
25.0	 -0.81981440013	 -0.8410555376	 
25.0	 -0.734421642803	 -0.932564749262	 
25.0	 -0.652678437432	 -1.00630518196	 
25.0	 -0.583100405245	 -1.06242490885	 
25.0	 -0.524876534697	 -1.10447768573	 
25.0	 -0.467869181468	 -1.13942295103	 
25.0	 -0.401535195464	 -1.17436821632	 
25.0	 -0.316953449682	 -1.21337491681	 
25.0	 -0.211690909487	 -1.2483201821	 
25.0	 -0.0849365633324	 -1.26803506543	 
25.0	 0.0640699121059	 -1.26160445971	 
25.0	 0.234923011055	 -1.22395157095	 
25.0	 0.426051398645	 -1.15583791826	 
25.0	 0.635833051786	 -1.05827886043	 
26.0	 -0.648349014067	 -1.1506111875	 
26.0	 -0.511644202605	 -1.25774905013	 
26.0	 -0.364240175933	 -1.33498797436	 
26.0	 -0.203057799442	 -1.38232796017	 
26.0	 -0.0250179385214	 -1.39976900758	 
26.0	 0.17248660796	 -1.38744727298	 
26.0	 0.38321647328	 -1.34805121507	 
26.0	 0.593075472246	 -1.28653604455	 
26.0	 0.787694310012	 -1.20793576638	 
26.0	 0.952706390698	 -1.11728326485	 
26.0	 1.07839813576	 -1.01767946011	 
26.0	 1.16925522666	 -0.906329643849	 
26.0	 1.2324623108	 -0.779318478901	 
26.0	 1.27520403562	 -0.63273062809	 
26.0	 1.30432707802	 -0.463179270831	 
26.0	 1.32228351285	 -0.274149843049	 
26.0	 1.32845214953	 -0.0739337376313	 
26.0	 1.32214873592	 0.129079037196	 
26.0	 1.30268353627	 0.326504636663	 
26.0	 1.26788281195	 0.511627202029	 
26.0	 1.21208798803	 0.681647752585	 
26.0	 1.12914079527	 0.834328952806	 
26.0	 1.01288296446	 0.967433467163	 
26.0	 0.858252949064	 1.07886740062	 
26.0	 0.670494540078	 1.16788469452	 
26.0	 0.460497936688	 1.23447778462	 
26.0	 0.239211173062	 1.2786466709	 
26.0	 0.0175684029719	 1.30039702657	 
26.0	 -0.194851357774	 1.30028839561	 
26.0	 -0.390942374377	 1.2798911993	 
26.0	 -0.563862125482	 1.24088343928	 
26.0	 -0.706768089734	 1.18494311721	 
26.0	 -0.814254366809	 1.11374823473	 
26.0	 -0.890933960805	 1.02897679348	 
26.0	 -0.945686384094	 0.932306795103	 
26.0	 -0.987406914439	 0.825416241253	 
26.0	 -1.02490034998	 0.709983133571	 
26.0	 -1.06256202107	 0.587685473704	 
26.0	 -1.09848195945	 0.460201263297	 
26.0	 -1.13026528264	 0.329208503995	 
26.0	 -1.15551710818	 0.196385197443	 
26.0	 -1.17167119067	 0.0628490308547	 
26.0	 -1.17525974439	 -0.0732301227833	 
26.0	 -1.16251955398	 -0.214648372566	 
26.0	 -1.12968723267	 -0.364202387902	 
26.0	 -1.07312256083	 -0.524496230114	 
26.0	 -0.992728589888	 -0.692593011107	 
26.0	 -0.892397999903	 -0.859316881663	 
26.0	 -0.776236303691	 -1.01515916579	 
26.0	 -0.648349014067	 -1.1506111875	 
27.0	 -0.349133436935	 -1.20828380446	 
27.0	 -0.173262027244	 -1.25821304302	 
27.0	 0.0115508015902	 -1.28508116125	 
27.0	 0.19891193488	 -1.29241515404	 
27.0	 0.382437781343	 -1.2837257619	 
27.0	 0.557151391889	 -1.26012289656	 
27.0	 0.720956471081	 -1.21779982767	 
27.0	 0.872109442186	 -1.15234781164	 
27.0	 1.00886672847	 -1.05947369141	 
27.0	 1.1294847532	 -0.938092371585	 
27.0	 1.23221993965	 -0.790665551164	 
27.0	 1.31532871108	 -0.619838476303	 
27.0	 1.37719605672	 -0.428305156229	 
27.0	 1.41757057633	 -0.219276796425	 
27.0	 1.43702217514	 0.00372388921782	 
27.0	 1.4361320454	 0.237169905828	 
27.0	 1.41464331971	 0.4760316335	 
27.0	 1.36807342835	 0.707702848204	 
27.0	 1.29061093384	 0.917194691307	 
27.0	 1.176452379	 1.08953295317	 
27.0	 1.02333172252	 1.21622824382	 
27.0	 0.837977250022	 1.30527964689	 
27.0	 0.628525652938	 1.367268147	 
27.0	 0.403091577766	 1.41259078028	 
27.0	 0.168849322942	 1.44379807613	 
27.0	 -0.0682988931043	 1.45282600039	 
27.0	 -0.302541147929	 1.43085706586	 
27.0	 -0.527772057128	 1.36982723838	 
27.0	 -0.733751976279	 1.27228704735	 
27.0	 -0.90718512975	 1.1486335289	 
27.0	 -1.03470409592	 1.00944766765	 
27.0	 -1.10599299905	 0.864420137536	 
27.0	 -1.13022367175	 0.717555931929	 
27.0	 -1.12423234776	 0.570623899497	 
27.0	 -1.10487227945	 0.425387537676	 
27.0	 -1.08537253454	 0.283610343904	 
27.0	 -1.06743753798	 0.147055815615	 
27.0	 -1.05048609752	 0.0174874502456	 
27.0	 -1.03393984267	 -0.103352659683	 
27.0	 -1.01742572932	 -0.215279963668	 
27.0	 -1.00091161596	 -0.320695892506	 
27.0	 -0.984397502606	 -0.422245692348	 
27.0	 -0.967656547034	 -0.522528722564	 
27.0	 -0.946078495337	 -0.623257643916	 
27.0	 -0.911088314927	 -0.725343101757	 
27.0	 -0.853968122138	 -0.829666844806	 
27.0	 -0.76701409958	 -0.936441718185	 
27.0	 -0.650804309118	 -1.04041763136	 
27.0	 -0.509960908919	 -1.13367690628	 
27.0	 -0.349133436935	 -1.20828380446	 
28.0	 0.72169266001	 -0.868419345958	 
28.0	 0.915508863035	 -0.76544116733	 
28.0	 1.10415631983	 -0.63737979	 
28.0	 1.27120990348	 -0.487588237959	 
28.0	 1.40029342196	 -0.31942640302	 
28.0	 1.48225854559	 -0.137268579949	 
28.0	 1.52275883835	 0.0524335471019	 
28.0	 1.52926026701	 0.242973930151	 
28.0	 1.50904529257	 0.427756406389	 
28.0	 1.46430324098	 0.603234635317	 
28.0	 1.39159252923	 0.769234123347	 
28.0	 1.28718017393	 0.925754870478	 
28.0	 1.14774607971	 1.07247237206	 
28.0	 0.974349369447	 1.20562032646	 
28.0	 0.770686778481	 1.31935943046	 
28.0	 0.540491290199	 1.40782189206	 
28.0	 0.289061804007	 1.4659091155	 
28.0	 0.0295929521018	 1.49240098109	 
28.0	 -0.222237641485	 1.48729704368	 
28.0	 -0.450763227138	 1.45059984692	 
28.0	 -0.645239881071	 1.38337485729	 
28.0	 -0.80744058632	 1.28939015697	 
28.0	 -0.941098326274	 1.17283702594	 
28.0	 -1.04991068583	 1.03785905096	 
28.0	 -1.1360652918	 0.886565416923	 
28.0	 -1.19970713641	 0.718313219235	 
28.0	 -1.24083621967	 0.532264201902	 
28.0	 -1.25951053845	 0.328035928908	 
28.0	 -1.25660514349	 0.111667506275	 
28.0	 -1.23359906874	 -0.1060550222	 
28.0	 -1.19198550757	 -0.314234328547	 
28.0	 -1.13333303794	 -0.502819480435	 
28.0	 -1.05969165736	 -0.667164776895	 
28.0	 -0.973300702731	 -0.804750362658	 
28.0	 -0.87640030393	 -0.913062105639	 
28.0	 -0.77216171275	 -0.991328265982	 
28.0	 -0.666717080782	 -1.04431778393	 
28.0	 -0.566785778126	 -1.07789845147	 
28.0	 -0.479021928382	 -1.09791771148	 
28.0	 -0.405331952743	 -1.10874229139	 
28.0	 -0.339739679532	 -1.11228049225	 
28.0	 -0.275525738648	 -1.11020882605	 
28.0	 -0.206048466764	 -1.10413836968	 
28.0	 -0.126167776266	 -1.09441575747	 
28.0	 -0.0321017488917	 -1.08024394034	 
28.0	 0.0798825987485	 -1.0607846623	 
28.0	 0.213008511756	 -1.03481812161	 
28.0	 0.366336202643	 -0.998008432444	 
28.0	 0.536893047631	 -0.944498104556	 
28.0	 0.72169266001	 -0.868419345958	 
29.0	 0.280979090795	 -1.12313056444	 
29.0	 0.492747014523	 -1.05730839586	 
29.0	 0.706402799634	 -0.976436059287	 
29.0	 0.908775320199	 -0.878585419323	 
29.0	 1.08669345029	 -0.761828340567	 
29.0	 1.22908272226	 -0.624401704862	 
29.0	 1.33564810696	 -0.46539078851	 
29.0	 1.40954909936	 -0.284152755729	 
29.0	 1.45394676968	 -0.08004489472	 
29.0	 1.47184974455	 0.145901777672	 
29.0	 1.46525320565	 0.381529296556	 
29.0	 1.43573890763	 0.610140544953	 
29.0	 1.38488738561	 0.815025016055	 
29.0	 1.31390873678	 0.981099067296	 
29.0	 1.22078887646	 1.10743880046	 
29.0	 1.10185360933	 1.20041107933	 
29.0	 0.953415020118	 1.2664430219	 
29.0	 0.77238358546	 1.31167609649	 
29.0	 0.562626087759	 1.33893109377	 
29.0	 0.332497248623	 1.34888643176	 
29.0	 0.0904265886448	 1.34218482226	 
29.0	 -0.15499950713	 1.31944771452	 
29.0	 -0.392685279768	 1.28095641892	 
29.0	 -0.609516769686	 1.22671868421	 
29.0	 -0.792322850955	 1.1567345104	 
29.0	 -0.928437290809	 1.07093694833	 
29.0	 -1.01680639917	 0.967719218504	 
29.0	 -1.06798902867	 0.84393471107	 
29.0	 -1.09304892507	 0.696369867023	 
29.0	 -1.10292279784	 0.522004845955	 
29.0	 -1.10406246609	 0.324658848678	 
29.0	 -1.09734336255	 0.116654547379	 
29.0	 -1.08329233223	 -0.089153821935	 
29.0	 -1.06243622019	 -0.279991370394	 
29.0	 -1.03530187145	 -0.447844037277	 
29.0	 -1.00241613106	 -0.592077045498	 
29.0	 -0.964305844055	 -0.712690395057	 
29.0	 -0.921497855465	 -0.809702496968	 
29.0	 -0.874519010331	 -0.885359495076	 
29.0	 -0.82389615369	 -0.946234121776	 
29.0	 -0.770156130579	 -0.999396206872	 
29.0	 -0.713820501325	 -1.05190466994	 
29.0	 -0.653619309218	 -1.10711986217	 
29.0	 -0.583891002689	 -1.15933573267	 
29.0	 -0.498313441292	 -1.20148245164	 
29.0	 -0.390565399245	 -1.22649111911	 
29.0	 -0.256331503482	 -1.22933199453	 
29.0	 -0.097555409739	 -1.21133829576	 
29.0	 0.0826018117608	 -1.17508086999	 
29.0	 0.280979090795	 -1.12313056444	 
30.0	 -0.382082829354	 -1.16497968516	 
30.0	 -0.216481940899	 -1.24127039824	 
30.0	 -0.0364132764882	 -1.28882965874	 
30.0	 0.150337813587	 -1.30765746667	 
30.0	 0.335985979039	 -1.29775382204	 
30.0	 0.513345539786	 -1.25969354391	 
30.0	 0.67831386853	 -1.1970067383	 
30.0	 0.827776374614	 -1.11417060232	 
30.0	 0.958618917921	 -1.01566276494	 
30.0	 1.06817789944	 -0.905282202153	 
30.0	 1.15678491743	 -0.782316204932	 
30.0	 1.22599343761	 -0.644211557378	 
30.0	 1.27736053004	 -0.488409614365	 
30.0	 1.31238852404	 -0.312981397338	 
30.0	 1.3321033017	 -0.12147835904	 
30.0	 1.33728542549	 0.0797262086971	 
30.0	 1.32871343043	 0.284235693056	 
30.0	 1.30670449746	 0.485716657643	 
30.0	 1.26621256621	 0.678570091981	 
30.0	 1.19873142063	 0.857670808762	 
30.0	 1.09569717539	 1.01790151773	 
30.0	 0.949370135033	 1.15437770661	 
30.0	 0.765195238995	 1.26593863202	 
30.0	 0.559221362144	 1.35441844618	 
30.0	 0.347797740091	 1.42173613294	 
30.0	 0.146762694831	 1.469610782	 
30.0	 -0.0397964647339	 1.49516391757	 
30.0	 -0.219543442795	 1.49091949844	 
30.0	 -0.400652857158	 1.44920158923	 
30.0	 -0.590975499206	 1.36255790155	 
30.0	 -0.786929792428	 1.2314317809	 
30.0	 -0.970719475822	 1.06608378167	 
30.0	 -1.12365970869	 0.877388145665	 
30.0	 -1.22726989565	 0.676211217613	 
30.0	 -1.27532415934	 0.472945519079	 
30.0	 -1.28059143539	 0.277249145712	 
30.0	 -1.25747462185	 0.0987170167374	 
30.0	 -1.22034215035	 -0.0530992590194	 
30.0	 -1.1793920188	 -0.173888631045	 
30.0	 -1.13672262239	 -0.269517992658	 
30.0	 -1.09350176368	 -0.347023617956	 
30.0	 -1.05089273978	 -0.413441781038	 
30.0	 -1.00853151349	 -0.475808756003	 
30.0	 -0.962310051012	 -0.541160816949	 
30.0	 -0.907557142177	 -0.616534237975	 
30.0	 -0.839601914715	 -0.708963380611	 
30.0	 -0.75451452384	 -0.821288345885	 
30.0	 -0.650677414351	 -0.943261535491	 
30.0	 -0.526922783703	 -1.0620897238	 
30.0	 -0.382082829354	 -1.16497968516	 
31.0	 -0.777104688895	 -0.991121217899	 
31.0	 -0.609645571342	 -1.06252617403	 
31.0	 -0.411640537897	 -1.12220792841	 
31.0	 -0.198190940237	 -1.17336371788	 
31.0	 0.0158306783204	 -1.21899095197	 
31.0	 0.220814366707	 -1.25749101227	 
31.0	 0.412412766107	 -1.2826692524	 
31.0	 0.586507326064	 -1.28813119867	 
31.0	 0.740009133734	 -1.26801525021	 
31.0	 0.873947826732	 -1.21859129737	 
31.0	 0.990382680286	 -1.1366621033	 
31.0	 1.09133006806	 -1.01923025847	 
31.0	 1.17781962766	 -0.867894381291	 
31.0	 1.24989426066	 -0.688849118155	 
31.0	 1.30755396707	 -0.488488942741	 
31.0	 1.35068434269	 -0.273385953001	 
31.0	 1.37871336664	 -0.0508227439631	 
31.0	 1.39095461383	 0.171740465074	 
31.0	 1.38663585606	 0.386954469982	 
31.0	 1.36301139302	 0.590023415499	 
31.0	 1.31536205231	 0.778704795227	 
31.0	 1.2388828584	 0.95086711794	 
31.0	 1.12819681486	 1.1038460196	 
31.0	 0.97563884167	 1.23284564495	 
31.0	 0.772971837915	 1.33253726592	 
31.0	 0.513031241864	 1.39790299691	 
31.0	 0.213320892958	 1.43107432914	 
31.0	 -0.0839869681802	 1.44133213067	 
31.0	 -0.33564756175	 1.43826811203	 
31.0	 -0.510314142603	 1.42703337702	 
31.0	 -0.624232104211	 1.39501660254	 
31.0	 -0.705544874699	 1.32516585876	 
31.0	 -0.781637954502	 1.20131733721	 
31.0	 -0.862464507228	 1.02773402034	 
31.0	 -0.940545359648	 0.829105681552	 
31.0	 -1.00764341085	 0.631010215567	 
31.0	 -1.05723762261	 0.453874413322	 
31.0	 -1.08967120746	 0.297520650549	 
31.0	 -1.10700344063	 0.156620199177	 
31.0	 -1.11136509997	 0.0259553463053	 
31.0	 -1.10653152339	 -0.0971382721008	 
31.0	 -1.09792260889	 -0.21277167121	 
31.0	 -1.09102975709	 -0.320944851021	 
31.0	 -1.08905628499	 -0.422190684342	 
31.0	 -1.08605317528	 -0.519173535208	 
31.0	 -1.07378332705	 -0.615090640459	 
31.0	 -1.04403824041	 -0.71296161267	 
31.0	 -0.989267239537	 -0.811720706225	 
31.0	 -0.902577472619	 -0.906216817325	 
31.0	 -0.777104688895	 -0.991121217899	 
32.0	 -0.573682670299	 -1.04538361592	 
32.0	 -0.323541051401	 -1.15440691037	 
32.0	 -0.0366079035407	 -1.2437158623	 
32.0	 0.249470731389	 -1.31247566241	 
32.0	 0.49716257801	 -1.35983953213	 
32.0	 0.685739096485	 -1.38319278696	 
32.0	 0.828884010811	 -1.37630025895	 
32.0	 0.944494619592	 -1.33248347377	 
32.0	 1.05007383085	 -1.24526914462	 
32.0	 1.15217838803	 -1.11387888876	 
32.0	 1.2452630865	 -0.943830541047	 
32.0	 1.32315644398	 -0.740967766523	 
32.0	 1.38006240768	 -0.511503567803	 
32.0	 1.41416684648	 -0.265568256226	 
32.0	 1.42605394908	 -0.0156515464847	 
32.0	 1.41634086371	 0.225724422033	 
32.0	 1.3849166329	 0.447788443582	 
32.0	 1.32799901164	 0.648597949491	 
32.0	 1.24065123545	 0.82898673578	 
32.0	 1.11794585656	 0.989787078563	 
32.0	 0.959024710274	 1.13077270158	 
32.0	 0.773376298429	 1.24902582541	 
32.0	 0.572109289128	 1.34120721286	 
32.0	 0.36623871548	 1.40403304007	 
32.0	 0.162785516401	 1.43658319293	 
32.0	 -0.0366324827259	 1.44113512644	 
32.0	 -0.230780985447	 1.42019326848	 
32.0	 -0.418138048614	 1.37609992343	 
32.0	 -0.593129393923	 1.30891341776	 
32.0	 -0.747185172429	 1.2170037138	 
32.0	 -0.871665308944	 1.09870119298	 
32.0	 -0.959487580448	 0.953263443722	 
32.0	 -1.01351848175	 0.785869361451	 
32.0	 -1.04053727985	 0.604026656808	 
32.0	 -1.04733251162	 0.415248930073	 
32.0	 -1.04043615406	 0.227917395495	 
32.0	 -1.02556434247	 0.0531722164059	 
32.0	 -1.00827141092	 -0.0972992770979	 
32.0	 -0.994081730251	 -0.211927294447	 
32.0	 -0.986339380542	 -0.287694882227	 
32.0	 -0.98476851311	 -0.335785331152	 
32.0	 -0.988751979728	 -0.368720780611	 
32.0	 -0.997479931356	 -0.39889303791	 
32.0	 -1.00641884262	 -0.43617542333	 
32.0	 -1.00766713751	 -0.488163295521	 
32.0	 -0.993201889055	 -0.562369938115	 
32.0	 -0.954625630342	 -0.664725397581	 
32.0	 -0.880482026544	 -0.788229422457	 
32.0	 -0.757821077457	 -0.919567811463	 
32.0	 -0.573682670299	 -1.04538361592	 
33.0	 -0.826618413303	 -0.620665241379	 
33.0	 -0.709474751636	 -0.801150204385	 
33.0	 -0.57284131559	 -0.967234244338	 
33.0	 -0.412884051187	 -1.11099024763	 
33.0	 -0.225768904451	 -1.22449110066	 
33.0	 -0.0106150192315	 -1.30164145859	 
33.0	 0.218275340622	 -1.34576355273	 
33.0	 0.441734124009	 -1.36319769773	 
33.0	 0.640591061048	 -1.36028558447	 
33.0	 0.798338419339	 -1.34275724383	 
33.0	 0.916169015677	 -1.31227639102	 
33.0	 1.00249646851	 -1.26884791932	 
33.0	 1.06575569658	 -1.21247182873	 
33.0	 1.11389637119	 -1.14247926903	 
33.0	 1.15064471354	 -1.05237991597	 
33.0	 1.17755231735	 -0.932686005441	 
33.0	 1.19615280421	 -0.773885001115	 
33.0	 1.20782832691	 -0.567912777545	 
33.0	 1.21220021346	 -0.32354298578	 
33.0	 1.20775377586	 -0.0604123584781	 
33.0	 1.19295539253	 0.201661320343	 
33.0	 1.16619533767	 0.443515889728	 
33.0	 1.12464644024	 0.656477246295	 
33.0	 1.06450238102	 0.840306460354	 
33.0	 0.981929106041	 0.995003531906	 
33.0	 0.873140486998	 1.12055194613	 
33.0	 0.735452686108	 1.21655534735	 
33.0	 0.567284156105	 1.28223753902	 
33.0	 0.3671012754	 1.31680580978	 
33.0	 0.133666259899	 1.31956302015	 
33.0	 -0.123814427454	 1.29318610012	 
33.0	 -0.383148240895	 1.2445472027	 
33.0	 -0.621330856566	 1.18078073015	 
33.0	 -0.815570953608	 1.10897215192	 
33.0	 -0.955857391082	 1.03327096944	 
33.0	 -1.05198830693	 0.953275933753	 
33.0	 -1.11546586308	 0.868194333505	 
33.0	 -1.15776626171	 0.777247907798	 
33.0	 -1.18722457643	 0.68140690231	 
33.0	 -1.20607534181	 0.585037422581	 
33.0	 -1.21585217945	 0.492895736776	 
33.0	 -1.21808575257	 0.4097252682	 
33.0	 -1.21330383524	 0.335915032612	 
33.0	 -1.19957579198	 0.261179967103	 
33.0	 -1.17460119038	 0.173629401262	 
33.0	 -1.13607981995	 0.061374805489	 
33.0	 -1.08219804889	 -0.0827775534837	 
33.0	 -1.01266055743	 -0.251371846079	 
33.0	 -0.92746734557	 -0.434102824607	 
33.0	 -0.826618413303	 -0.620665241379	 
34.0	 -0.449995742383	 -1.17810491486	 
34.0	 -0.251123630425	 -1.24135406999	 
34.0	 -0.0395672477703	 -1.28311412946	 
34.0	 0.175925632686	 -1.30638357171	 
34.0	 0.386607238051	 -1.31416087523	 
34.0	 0.584253863075	 -1.30838595552	 
34.0	 0.763336163809	 -1.28555639421	 
34.0	 0.919188267637	 -1.24042564932	 
34.0	 1.04714469568	 -1.16774638353	 
34.0	 1.14377743694	 -1.062921971	 
34.0	 1.21388516683	 -0.925681715743	 
34.0	 1.26562257364	 -0.757519651314	 
34.0	 1.30715424541	 -0.559935016942	 
34.0	 1.34553763017	 -0.33516495867	 
34.0	 1.37819395736	 -0.0918691447749	 
34.0	 1.39758282899	 0.157985840764	 
34.0	 1.39612284189	 0.402406084084	 
34.0	 1.36640538841	 0.62976785385	 
34.0	 1.30303060872	 0.832750790598	 
34.0	 1.20189460937	 1.00681090381	 
34.0	 1.05891509635	 1.1474504758	 
34.0	 0.870742919106	 1.2504693809	 
34.0	 0.645757085102	 1.31642809861	 
34.0	 0.401769144424	 1.3497158947	 
34.0	 0.156857827717	 1.35483048687	 
34.0	 -0.0712504752225	 1.33625397575	 
34.0	 -0.272933214213	 1.29810926923	 
34.0	 -0.446671678681	 1.24416008247	 
34.0	 -0.591299498909	 1.17815451354	 
34.0	 -0.705734677987	 1.10379547223	 
34.0	 -0.791873916673	 1.0231905407	 
34.0	 -0.855317544574	 0.936463715638	 
34.0	 -0.901897410285	 0.843614997042	 
34.0	 -0.937423762964	 0.744630503068	 
34.0	 -0.966410885411	 0.638663441186	 
34.0	 -0.99136431258	 0.523576007305	 
34.0	 -1.01461678391	 0.397119342575	 
34.0	 -1.03848737044	 0.257073870163	 
34.0	 -1.0636412674	 0.104763137206	 
34.0	 -1.08753159717	 -0.05160803534	 
34.0	 -1.10724243545	 -0.203044212078	 
34.0	 -1.11985560799	 -0.340562682637	 
34.0	 -1.12169021036	 -0.459494519898	 
34.0	 -1.10719563666	 -0.565745291982	 
34.0	 -1.0705400383	 -0.666811195053	 
34.0	 -1.00589241041	 -0.770186906948	 
34.0	 -0.909272043828	 -0.880037414898	 
34.0	 -0.782471860766	 -0.990137796054	 
34.0	 -0.628407785518	 -1.09224223464	 
34.0	 -0.449995742383	 -1.17810491486	 
35.0	 -0.669020675109	 -1.16523615323	 
35.0	 -0.532749985635	 -1.2576112725	 
35.0	 -0.384313074958	 -1.32370984616	 
35.0	 -0.224791384965	 -1.36395095787	 
35.0	 -0.0552663575389	 -1.37875369128	 
35.0	 0.123179619173	 -1.36853719992	 
35.0	 0.308208467817	 -1.33381332463	 
35.0	 0.493751001356	 -1.27536931406	 
35.0	 0.673048208012	 -1.19404333554	 
35.0	 0.839341076005	 -1.09067355639	 
35.0	 0.985881768457	 -0.966101496612	 
35.0	 1.10829152718	 -0.821879442085	 
35.0	 1.20747732142	 -0.661145491272	 
35.0	 1.28506131403	 -0.487252313469	 
35.0	 1.34266566781	 -0.303552577973	 
35.0	 1.38189064641	 -0.113406497586	 
35.0	 1.40264216437	 0.0792420710409	 
35.0	 1.40195409697	 0.269459954428	 
35.0	 1.37658211856	 0.45221814863	 
35.0	 1.32328190347	 0.622487649702	 
35.0	 1.23888987373	 0.775302036858	 
35.0	 1.12338151663	 0.908127809667	 
35.0	 0.980810076379	 1.02159191729	 
35.0	 0.8155013205	 1.11653252704	 
35.0	 0.631781016537	 1.19378780626	 
35.0	 0.434042522144	 1.25411734407	 
35.0	 0.228233767688	 1.29647343133	 
35.0	 0.021857256242	 1.31800106058	 
35.0	 -0.177516919001	 1.31576664618	 
35.0	 -0.362318664849	 1.28683660252	 
35.0	 -0.525289343373	 1.22863943222	 
35.0	 -0.663830610205	 1.14402155154	 
35.0	 -0.778931624188	 1.0400000973	 
35.0	 -0.871673827207	 0.923699491758	 
35.0	 -0.943138661146	 0.802244157174	 
35.0	 -0.994623946388	 0.682255405865	 
35.0	 -1.02966131165	 0.565160636786	 
35.0	 -1.05310021269	 0.449323118692	 
35.0	 -1.06980713801	 0.333066516937	 
35.0	 -1.08464857607	 0.214714496871	 
35.0	 -1.10156818496	 0.0926622474576	 
35.0	 -1.11768932925	 -0.034166438147	 
35.0	 -1.12707849781	 -0.166610844824	 
35.0	 -1.12378776028	 -0.305509139897	 
35.0	 -1.10186918628	 -0.45169949069	 
35.0	 -1.05639315817	 -0.605052609894	 
35.0	 -0.987937886876	 -0.760206461746	 
35.0	 -0.898935219774	 -0.91003795109	 
35.0	 -0.791818401105	 -1.04742265567	 
35.0	 -0.669020675109	 -1.16523615323	 
36.0	 -0.558027761887	 -1.39184099327	 
36.0	 -0.362169889878	 -1.44557788165	 
36.0	 -0.145072519996	 -1.46465152044	 
36.0	 0.0810665638403	 -1.45276311904	 
36.0	 0.304070019233	 -1.41359682961	 
36.0	 0.51477979221	 -1.34831738755	 
36.0	 0.710221010492	 -1.25293003055	 
36.0	 0.888175895182	 -1.12280824685	 
36.0	 1.04640849715	 -0.953643926418	 
36.0	 1.18217855893	 -0.749966081013	 
36.0	 1.29218826587	 -0.526073938105	 
36.0	 1.37311094961	 -0.296772335301	 
36.0	 1.4219878892	 -0.0761497063419	 
36.0	 1.43976292774	 0.129303916552	 
36.0	 1.42973043091	 0.317675034514	 
36.0	 1.39521706705	 0.487113042841	 
36.0	 1.33933146161	 0.636252520406	 
36.0	 1.26408281425	 0.7661744607	 
36.0	 1.17113458533	 0.878729187645	 
36.0	 1.06215044551	 0.975766744388	 
36.0	 0.938934674511	 1.05890251425	 
36.0	 0.803649068372	 1.12915522832	 
36.0	 0.65851140599	 1.18745018893	 
36.0	 0.505728951075	 1.23467760124	 
36.0	 0.347060431563	 1.27023056463	 
36.0	 0.183657807103	 1.29147693014	 
36.0	 0.0166299671423	 1.29564079072	 
36.0	 -0.152763453166	 1.27994623931	 
36.0	 -0.321139129658	 1.24161736887	 
36.0	 -0.483543862974	 1.17787827234	 
36.0	 -0.634987650599	 1.08595304267	 
36.0	 -0.770816387122	 0.964280346214	 
36.0	 -0.888521065058	 0.819055328585	 
36.0	 -0.98643633132	 0.659523713075	 
36.0	 -1.06289923029	 0.494938102023	 
36.0	 -1.11728402427	 0.333397102118	 
36.0	 -1.15226325293	 0.179329698122	 
36.0	 -1.1711635846	 0.036437099436	 
36.0	 -1.17730899574	 -0.0916333938237	 
36.0	 -1.17382758592	 -0.205157224414	 
36.0	 -1.16352224105	 -0.310922750681	 
36.0	 -1.14916518473	 -0.416332391428	 
36.0	 -1.13326895755	 -0.528547798728	 
36.0	 -1.11332808514	 -0.650078140979	 
36.0	 -1.08229831826	 -0.779224433345	 
36.0	 -1.03297187549	 -0.914136071127	 
36.0	 -0.958561582883	 -1.0522605058	 
36.0	 -0.855715367393	 -1.18531241361	 
36.0	 -0.722758538451	 -1.30220711883	 
36.0	 -0.558027761887	 -1.39184099327	 
37.0	 0.867251279703	 -0.707551392096	 
37.0	 1.08058089161	 -0.541851895234	 
37.0	 1.27572028691	 -0.348547877461	 
37.0	 1.43704051511	 -0.136510005048	 
37.0	 1.54895716413	 0.0853943592478	 
37.0	 1.6024643055	 0.308785793761	 
37.0	 1.60202804588	 0.526284128305	 
37.0	 1.55376406155	 0.730631545022	 
37.0	 1.46368781743	 0.914662724417	 
37.0	 1.33503344941	 1.07377960475	 
37.0	 1.1679600894	 1.20622245365	 
37.0	 0.962467737413	 1.3103784227	 
37.0	 0.719232820085	 1.38499144287	 
37.0	 0.446106154737	 1.432589558	 
37.0	 0.155259709414	 1.45797999115	 
37.0	 -0.141075163335	 1.46600128755	 
37.0	 -0.430310803922	 1.45980059382	 
37.0	 -0.698062965245	 1.4339966098	 
37.0	 -0.929382422607	 1.38052607223	 
37.0	 -1.10933541602	 1.29133305902	 
37.0	 -1.22953666762	 1.16183835069	 
37.0	 -1.29825124288	 0.996302683598	 
37.0	 -1.32635145519	 0.800371027188	 
37.0	 -1.32463873799	 0.579757174092	 
