13.5	 -1.1514060448898122	 0.9969758617105885	 
13.5	 -1.26679184473373	 0.8576368513716874	 
13.5	 -1.3821776445776481	 0.7182978410327866	 
13.5	 -1.4975634444215662	 0.5789588306938858	 
13.5	 -1.5946245566743662	 0.4362325403728244	 
13.5	 -1.5366744728382848	 0.26485275629303257	 
13.5	 -1.4787243890022033	 0.09347297221324075	 
13.5	 -1.420774305166122	 -0.07790681186655105	 
13.5	 -1.3628242213300403	 -0.24928659594634284	 
13.5	 -1.3048741374939592	 -0.42066638002613466	 
13.5	 -1.2396762538738133	 -0.5890363809844175	 
13.5	 -1.1591775422009731	 -0.7510524296550908	 
13.5	 -1.028554307267643	 -0.8529288542916802	 
13.5	 -0.8546861113578925	 -0.902919784058325	 
13.5	 -0.6808179154481417	 -0.9529107138249695	 
13.5	 -0.5069497195383912	 -1.0029016435916145	 
13.5	 -0.33901304730140375	 -1.0674380747537946	 
13.5	 -0.1797677474443925	 -1.1532878102297732	 
14.0	 0.023130897312329715	 -1.2725695259515555	 
14.0	 0.19509539059617598	 -1.2177873249741806	 
14.0	 0.36705988388002225	 -1.1630051239968058	 
14.0	 0.5390243771638685	 -1.1082229230194314	 
14.0	 0.7109888704477147	 -1.0534407220420563	 
14.0	 0.8323320802727023	 -0.922059957781911	 
14.0	 0.9501455702660231	 -0.7853381304466637	 
14.0	 1.0629823067272928	 -0.6452536573187558	 
14.0	 1.1458709194454035	 -0.48493411897123423	 
14.0	 1.2287595321635145	 -0.3246145806237125	 
14.0	 1.3116481448816257	 -0.16429504227619068	 
14.0	 1.3843685995000692	 -0.0007609176261493579	 
14.0	 1.4087001528528469	 0.17807099229413426	 
14.0	 1.4330317062056244	 0.35690290221441806	 
14.0	 1.457363259558402	 0.535734812134702	 
14.0	 1.4476559319360165	 0.7151146220521571	 
14.0	 1.4290925559611836	 0.8946369815696069	 
14.0	 1.410529179986351	 1.074159341087057	 
14.0	 1.3919658040115181	 1.2536817006045065	 
14.0	 1.3160160671428518	 1.3815430650661893	 
14.0	 1.1394246601145632	 1.418803653602402	 
14.0	 0.9628332530862753	 1.4560642421386147	 
14.0	 0.7831249051323294	 1.4634549548442888	 
14.0	 0.6026453315116687	 1.463454954844289	 
14.0	 0.4221657578910084	 1.463454954844289	 
14.0	 0.24168618427034771	 1.463454954844289	 
14.0	 0.06120661064968695	 1.463454954844289	 
14.0	 -0.11873978560950502	 1.4589807924601106	 
14.0	 -0.2941651417960162	 1.4165682836787234	 
14.0	 -0.4695904979825264	 1.3741557748973365	 
14.0	 -0.6450158541690376	 1.3317432661159494	 
14.0	 -0.7897100573090489	 1.2486258681622409	 
14.0	 -0.8785490378480298	 1.0915255434296354	 
14.0	 -0.9673880183870109	 0.9344252186970299	 
14.0	 -1.056068157587015	 0.7772359892747212	 
14.0	 -1.143523191410003	 0.6193610591771418	 
14.0	 -1.2309782252329906	 0.4614861290795632	 
14.0	 -1.3184332590559784	 0.30361119898198374	 
14.0	 -1.4058882928789664	 0.14573626888440436	 
14.0	 -1.3796683274306112	 -0.027871164866375406	 
14.0	 -1.3383787610936393	 -0.20356421596971402	 
14.0	 -1.2576244544100597	 -0.36429345049281947	 
14.0	 -1.1720465198233185	 -0.5231937135705206	 
14.0	 -1.0657665298786183	 -0.6666470374635238	 
14.0	 -0.9378101392267612	 -0.7939264096557413	 
14.0	 -0.8002097765719473	 -0.9063542467978307	 
14.0	 -0.6318852432934019	 -0.971467440475114	 
14.0	 -0.46356071001485655	 -1.036580634152397	 
14.0	 -0.2976711288145034	 -1.1071078506001284	 
14.0	 -0.13727011575108686	 -1.1898386882758418	 
14.5	 0.5263537607302521	 -1.2090954020036537	 
14.5	 0.672448261159848	 -1.0921120653997245	 
14.5	 0.8185427615894441	 -0.9751287287957952	 
14.5	 0.9646372620190399	 -0.8581453921918659	 
14.5	 1.110731762448636	 -0.7411620555879366	 
14.5	 1.2347311876333895	 -0.6027153391025721	 
14.5	 1.3474288225509135	 -0.4532899490821415	 
14.5	 1.460126457468438	 -0.30386455906171056	 
14.5	 1.5702887195119182	 -0.15359025847868438	 
14.5	 1.5702887195119182	 0.03356931006848196	 
14.5	 1.5702887195119182	 0.2207288786156485	 
14.5	 1.5702887195119184	 0.40788844716281486	 
14.5	 1.5556802684362683	 0.5909035218887859	 
14.5	 1.4573948372599124	 0.7501790005954573	 
14.5	 1.3591094060835562	 0.9094544793021285	 
14.5	 1.2608239749072008	 1.0687299580087994	 
14.5	 1.1625385437308446	 1.2280054367154707	 
14.5	 1.0642531125544887	 1.387280915422142	 
14.5	 0.9252131952132054	 1.4735183823360232	 
14.5	 0.7380536266660391	 1.4735183823360232	 
14.5	 0.5508940581188728	 1.4735183823360232	 
14.5	 0.36549073421916634	 1.486756264133172	 
14.5	 0.18480553708853273	 1.535557530885435	 
14.5	 0.004120339957899094	 1.5843587976376972	 
14.5	 -0.17656485717273407	 1.63316006438996	 
14.5	 -0.3546898869269705	 1.6194510237442763	 
14.5	 -0.5307792329249259	 1.556037726047548	 
14.5	 -0.7068685789228812	 1.4926244283508197	 
14.5	 -0.8829579249208365	 1.4292111306540913	 
14.5	 -1.0590472709187906	 1.3657978329573632	 
14.5	 -1.235136616916746	 1.302384535260635	 
14.5	 -1.3107010192301876	 1.1423098741472604	 
14.5	 -1.3671678623613832	 0.963871650311787	 
14.5	 -1.4153239191583336	 0.7838116958664266	 
14.5	 -1.4300844784834443	 0.597235089650183	 
14.5	 -1.4448450378085553	 0.41065848343393935	 
14.5	 -1.418282074641839	 0.22765940328409007	 
14.5	 -1.3716762391256052	 0.04639550672828058	 
14.5	 -1.3250704036093712	 -0.1348683898275289	 
14.5	 -1.2272715510571703	 -0.2801671968412405	 
14.5	 -1.07254945433469	 -0.38547520643481836	 
14.5	 -0.9173847129510591	 -0.49008165723345726	 
14.5	 -0.7557245249135356	 -0.5843933092306175	 
14.5	 -0.5940643368760113	 -0.6787049612277785	 
14.5	 -0.42735776181080243	 -0.7635628519305198	 
14.5	 -0.2590358316480499	 -0.8453945812599608	 
14.5	 -0.08469314026331926	 -0.9134387059628014	 
14.5	 0.08973805213765701	 -0.9812801624354865	 
14.5	 0.26966123227651007	 -1.0322712485217902	 
14.5	 0.45056816258495186	 -1.0802440185599915	 
15.0	 -0.22205400592237565	 -1.2463349821718586	 
15.0	 -0.044607859109445966	 -1.1852417385920326	 
15.0	 0.13283828770348377	 -1.1241484950122065	 
15.0	 0.3102844345164134	 -1.0630552514323806	 
15.0	 0.48773058132934316	 -1.0019620078525546	 
15.0	 0.610808882429102	 -0.8674132022530752	 
15.0	 0.7210765738632381	 -0.7155561785246817	 
15.0	 0.8313442652973744	 -0.563699154796288	 
15.0	 0.9410911935026847	 -0.4115390734056695	 
15.0	 1.0186477181659435	 -0.24064581750592057	 
15.0	 1.0962042428292025	 -0.0697525616061714	 
15.0	 1.174402779515527	 0.10076707601167731	 
15.0	 1.284670470949663	 0.25262409974007083	 
15.0	 1.394938162383799	 0.40448112346846454	 
15.0	 1.5052058538179356	 0.5563381471968583	 
15.0	 1.6154735452520714	 0.7081951709252515	 
15.0	 1.7464799813233354	 0.8365553578583919	 
15.0	 1.910858030180545	 0.9271057663818034	 
15.0	 1.7762711573487047	 1.0465784076282774	 
15.0	 1.6322988327533712	 1.1669590089744892	 
15.0	 1.488326508158037	 1.2873396103207009	 
15.0	 1.3443541835627033	 1.4077202116669125	 
15.0	 1.1868911587508562	 1.5056265822548505	 
15.0	 1.0129496881353137	 1.5760814204844724	 
15.0	 0.8390082175197717	 1.646536258714094	 
15.0	 0.6650667469042293	 1.7169910969437159	 
15.0	 0.49112527628868674	 1.7874459351733378	 
15.0	 0.31039982985053527	 1.7503229619909446	 
15.0	 0.12898558332161603	 1.702277248485946	 
15.0	 -0.05242866320730216	 1.6542315349809482	 
15.0	 -0.23384290973622135	 1.6061858214759497	 
15.0	 -0.41525715626514054	 1.5581401079709511	 
15.0	 -0.5966714027940597	 1.510094394465953	 
15.0	 -0.7468420414263158	 1.4296006200560083	 
15.0	 -0.8017122856474863	 1.2501325846598164	 
15.0	 -0.8565825298686567	 1.070664549263624	 
15.0	 -0.9114527740898268	 0.8911965138674329	 
15.0	 -0.970414725787685	 0.7130393569450417	 
15.0	 -1.030049402402787	 0.5350977238883786	 
15.0	 -1.0835791364654557	 0.35532922063827904	 
15.0	 -1.1314903563039211	 0.17387940817364728	 
15.0	 -1.15158240280674	 -0.011181306187058176	 
15.0	 -1.15158240280674	 -0.1988499488257776	 
15.0	 -1.1497254686612892	 -0.3860927688164684	 
15.0	 -1.0679549684275789	 -0.555010218244847	 
15.0	 -0.9656894794669588	 -0.7076093286538627	 
15.0	 -0.8193840934407732	 -0.8251433809518611	 
15.0	 -0.6619072857254844	 -0.9237968183428583	 
15.0	 -0.4898144916198927	 -0.9979537414845027	 
15.0	 -0.33524588801454924	 -1.104387130086737	 
15.5	 0.6789469949670037	 -1.1621637791403636	 
15.5	 0.8177086399037893	 -1.0372819225555592	 
15.5	 0.9564702848405751	 -0.9124000659707548	 
15.5	 1.0952319297773605	 -0.7875182093859504	 
15.5	 1.2339935747141464	 -0.662636352801146	 
15.5	 1.332248371123871	 -0.5071156506188801	 
15.5	 1.4146496506081707	 -0.33960355747638316	 
15.5	 1.4970509300924701	 -0.17209146433388606	 
15.5	 1.5379120210217332	 0.00798859838504179	 
15.5	 1.5621923671035702	 0.1930851596815078	 
15.5	 1.5864727131854073	 0.37818172097797403	 
15.5	 1.6107530592672445	 0.5632782822744401	 
15.5	 1.5998641956485087	 0.7394608780462328	 
15.5	 1.4498840296288613	 0.8506194225237014	 
15.5	 1.2999038636092144	 0.96177796700117	 
15.5	 1.1499236975895677	 1.0729365114786384	 
15.5	 0.9957033150642722	 1.1762911475468427	 
15.5	 0.8208321444785979	 1.2416390312740626	 
15.5	 0.6459609738929237	 1.306986915001282	 
15.5	 0.4710898033072492	 1.3723347987285017	 
15.5	 0.29621863272157467	 1.4376826824557214	 
15.5	 0.12025637814288884	 1.4998718704959857	 
15.5	 -0.057665918026648416	 1.5563867246087737	 
15.5	 -0.2367411606906012	 1.6054633649980274	 
15.5	 -0.42342343678994077	 1.6054633649980277	 
15.5	 -0.6101057128892808	 1.6054633649980277	 
15.5	 -0.796787988988621	 1.6054633649980277	 
15.5	 -0.9774390525575813	 1.5878614110893254	 
15.5	 -1.1248920896981294	 1.4733717868971814	 
15.5	 -1.272345126838677	 1.358882162705038	 
15.5	 -1.4003281771194436	 1.234860079831381	 
15.5	 -1.4003281771194438	 1.0481778037320406	 
15.5	 -1.4003281771194438	 0.8614955276327005	 
15.5	 -1.3912175183415365	 0.6771986358322061	 
15.5	 -1.299733298752956	 0.5144690755922219	 
15.5	 -1.2082490791643752	 0.3517395153522377	 
15.5	 -1.1307166793305128	 0.18296967073330983	 
15.5	 -1.0746571486414178	 0.004903387488702837	 
15.5	 -1.015095229960626	 -0.17199932315443073	 
15.5	 -0.9542516804528776	 -0.34840105926856213	 
15.5	 -0.9299713343710403	 -0.5334976205650286	 
15.5	 -0.9056909882892031	 -0.7185941818614949	 
15.5	 -0.7504681703745699	 -0.8201966358530165	 
15.5	 -0.5849435066263476	 -0.9059279959004249	 
15.5	 -0.4164128739901022	 -0.9862255554701737	 
15.5	 -0.2416235120565507	 -1.045200567614817	 
15.5	 -0.056713565908440684	 -1.0700165345482766	 
15.5	 0.12120873026109764	 -1.1265313886610646	 
15.5	 0.3072427705087661	 -1.1307134706842457	 
15.5	 0.4933023959257682	 -1.1425078625642024	 
16.0	 0.3734831331771842	 -1.1891707062560841	 
16.0	 0.5394560097090912	 -1.105188174866186	 
16.0	 0.7054288862409983	 -1.0212056434762882	 
16.0	 0.8714017627729055	 -0.9372231120863904	 
16.0	 1.0093473782842102	 -0.8146513776847417	 
16.0	 1.1405501686905815	 -0.6827958161315307	 
16.0	 1.2717529590969527	 -0.5509402545783199	 
16.0	 1.3053465885330642	 -0.3729153242372635	 
16.0	 1.32404953134479	 -0.18784706317364364	 
16.0	 1.328671391873114	 -0.003198474061887134	 
16.0	 1.2989799041720018	 0.18042744154107354	 
16.0	 1.2692884164708893	 0.3640533571440339	 
16.0	 1.2383622752732761	 0.5473816537310066	 
16.0	 1.1811265118567686	 0.7243678924871891	 
16.0	 1.1126973090806969	 0.8965745577704418	 
16.0	 1.0244431186958123	 1.0603159978595018	 
16.0	 0.9318330813301356	 1.2216041039777443	 
16.0	 0.8375517751346264	 1.3819509050839702	 
16.0	 0.7432704689391176	 1.5422977061901957	 
16.0	 0.6489891627436084	 1.7026445072964216	 
16.0	 0.4990193684633621	 1.7376094060020755	 
16.0	 0.316839257990398	 1.7000531991783112	 
16.0	 0.1350667381540176	 1.6606988409461054	 
16.0	 -0.04550118540185248	 1.616030213189565	 
16.0	 -0.22606910895772203	 1.5713615854330247	 
16.0	 -0.40663703251359207	 1.526692957676484	 
16.0	 -0.5810152751622866	 1.4677997239291554	 
16.0	 -0.7367750367593484	 1.3661190571819444	 
16.0	 -0.8925347983564103	 1.2644383904347336	 
16.0	 -1.0482945599534712	 1.162757723687523	 
16.0	 -1.204054321550533	 1.061077056940312	 
16.0	 -1.3598140831475949	 0.959396390193101	 
16.0	 -1.4510322144627705	 0.8073138282829968	 
16.0	 -1.5119311704695289	 0.6315543947375462	 
16.0	 -1.5541717477373147	 0.4526540852646025	 
16.0	 -1.554171747737315	 0.2666431680502333	 
16.0	 -1.5541717477373145	 0.08063225083586519	 
16.0	 -1.5541717477373147	 -0.10537866637850402	 
16.0	 -1.554171747737315	 -0.29138958359287326	 
16.0	 -1.5231625672919165	 -0.4562801511956829	 
16.0	 -1.3500738724819452	 -0.5244003761799827	 
16.0	 -1.1769851776719742	 -0.5925206011642823	 
16.0	 -1.0056313402737078	 -0.6641039714814448	 
16.0	 -0.8474301831498822	 -0.761942896289588	 
16.0	 -0.6892290260260566	 -0.8597818210977313	 
16.0	 -0.5083910737357107	 -0.9026883696416002	 
16.0	 -0.3271893643085568	 -0.9447121941178191	 
16.0	 -0.14653052450540915	 -0.9890014262457585	 
16.0	 0.029547248724155165	 -1.0473667829068438	 
16.0	 0.2015151909506699	 -1.118268744581464	 
16.5	 0.6335807083107395	 -1.1666511114222153	 
16.5	 0.7677923982127561	 -1.0413056412759887	 
16.5	 0.9020040881147727	 -0.915960171129762	 
16.5	 1.0346132403246568	 -0.7895732367533805	 
16.5	 1.0946496064237656	 -0.6160223815605944	 
16.5	 1.154685972522874	 -0.4424715263678081	 
16.5	 1.2147223386219828	 -0.26892067117502194	 
16.5	 1.2736445038198243	 -0.09512495585148184	 
16.5	 1.291905809252601	 0.08760651192685259	 
16.5	 1.310167114685378	 0.270337979705187	 
16.5	 1.327480924985794	 0.4531611757074089	 
16.5	 1.3446111578570916	 0.6360021440769426	 
16.5	 1.3138271583178835	 0.8105030617407026	 
16.5	 1.2359248279678354	 0.9768024649824631	 
16.5	 1.158022497617787	 1.1431018682242238	 
16.5	 1.0441341893666805	 1.2867520708484697	 
16.5	 0.9278904986546868	 1.42891982022289	 
16.5	 0.7578036084704165	 1.487012182205921	 
16.5	 0.5800462990481371	 1.5331272940401734	 
16.5	 0.40228898962585735	 1.5792424058744263	 
16.5	 0.22453168020357753	 1.6253575177086788	 
16.5	 0.04190495428285644	 1.6333115559911013	 
16.5	 -0.14173672016097366	 1.6333115559911016	 
16.5	 -0.3253783946048038	 1.6333115559911013	 
16.5	 -0.4845549079838515	 1.5418389584265741	 
16.5	 -0.6436772122775494	 1.4501636789407848	 
16.5	 -0.8027995165712472	 1.3584883994549957	 
16.5	 -0.961921820864945	 1.2668131199692065	 
16.5	 -1.121044125158643	 1.1751378404834172	 
16.5	 -1.1870861765611123	 1.0420543551395394	 
16.5	 -1.1486317448363292	 0.8624839754182236	 
16.5	 -1.1494596631757	 0.6855072027494454	 
16.5	 -1.21118954098919	 0.5125514662800662	 
16.5	 -1.2729194188026804	 0.3395957298106871	 
16.5	 -1.327941167963538	 0.16513138931539942	 
16.5	 -1.346202473396315	 -0.01760007846293553	 
16.5	 -1.3644637788290914	 -0.20033154624126942	 
16.5	 -1.389033933607177	 -0.38231814842615036	 
16.5	 -1.3628633373539514	 -0.5492665463061561	 
16.5	 -1.2433955837225137	 -0.6887359710371415	 
16.5	 -1.123927830091076	 -0.8282053957681268	 
16.5	 -0.9691940134588275	 -0.9175742771237784	 
16.5	 -0.7971358727769415	 -0.9812219686579701	 
16.5	 -0.6154794231730073	 -1.0081514861030905	 
16.5	 -0.43371163894933307	 -1.0339862879924344	 
16.5	 -0.2503530737756794	 -1.044179480328136	 
16.5	 -0.0669945086020257	 -1.0543726726638374	 
16.5	 0.1163828370224922	 -1.064214521181771	 
16.5	 0.2997831997571288	 -1.073625766653914	 
16.5	 0.48318356249176636	 -1.0830370121260566	 
17.0	 0.21431792576250372	 -1.0559772027068601	 
17.0	 0.39954191741929	 -1.0955997683483196	 
17.0	 0.5847659090760764	 -1.1352223339897791	 
17.0	 0.7699899007328627	 -1.1748448996312386	 
17.0	 0.9552138923896492	 -1.2144674652726983	 
17.0	 1.1364201699190375	 -1.1629163207005861	 
17.0	 1.3174409017566402	 -1.1071546005131343	 
17.0	 1.4984616335942431	 -1.0513928803256822	 
17.0	 1.578739573072582	 -0.9282153253527893	 
17.0	 1.5612460475232472	 -0.7396103112170571	 
17.0	 1.5398793149369712	 -0.5516832858898998	 
17.0	 1.492266672700309	 -0.36835049806260317	 
17.0	 1.444654030463647	 -0.18501771023530642	 
17.0	 1.3970413882269845	 -0.001684922408009465	 
17.0	 1.3474275937016609	 0.1811096360316377	 
17.0	 1.2966508492331648	 0.36359140776368204	 
17.0	 1.237640825780607	 0.5425133378477766	 
17.0	 1.1394763803284989	 0.7045059810213636	 
17.0	 1.0413119348763904	 0.8664986241949502	 
17.0	 0.9374472513363111	 1.0242859910860844	 
17.0	 0.8116403473373489	 1.165885771098205	 
17.0	 0.6858334433383869	 1.3074855511103252	 
17.0	 0.5600265393394246	 1.4490853311224456	 
17.0	 0.4342196353404624	 1.5906851111345666	 
17.0	 0.26042105287536477	 1.66069356370752	 
17.0	 0.08164310629342297	 1.723274076722591	 
17.0	 -0.10027701981492115	 1.7559045906330062	 
17.0	 -0.28815040690648946	 1.7317910007711297	 
17.0	 -0.47602379399805783	 1.7076774109092532	 
17.0	 -0.6638971810896251	 1.6835638210473765	 
17.0	 -0.8382240291243251	 1.6266763256936412	 
17.0	 -0.9882953940341395	 1.5111061728539463	 
17.0	 -1.1383667589439537	 1.3955360200142513	 
17.0	 -1.2849395510940298	 1.2778041712496326	 
17.0	 -1.321153078245496	 1.09188360959887	 
17.0	 -1.3573666053969622	 0.9059630479481076	 
17.0	 -1.3935801325484285	 0.720042486297346	 
17.0	 -1.3745606194795867	 0.5374822602619135	 
17.0	 -1.3160750850831489	 0.3573231165593297	 
17.0	 -1.2575895506867112	 0.17716397285674582	 
17.0	 -1.2422116667981995	 -0.009817014404292224	 
17.0	 -1.1601340009454573	 -0.1779310794865374	 
17.0	 -1.0540245745395143	 -0.33404726601264445	 
17.0	 -0.9357798513261908	 -0.48202044001891325	 
17.0	 -0.8175351281128673	 -0.6299936140251821	 
17.0	 -0.6706021131455708	 -0.7465491415253707	 
17.0	 -0.512521251745682	 -0.8508962356504787	 
17.0	 -0.3308309112388632	 -0.8994025475898091	 
17.0	 -0.14630243244373697	 -0.9420405564186405	 
17.0	 0.03716379028967076	 -0.9891364151455059	 
17.5	 0.8936057844151948	 -1.0766376780151468	 
17.5	 0.9796791060790742	 -0.9117015895506329	 
17.5	 1.0657524277429535	 -0.7467655010861192	 
17.5	 1.1518257494068327	 -0.5818294126216054	 
17.5	 1.1772901604200188	 -0.4020297918929317	 
17.5	 1.1772901604200188	 -0.2159853617687606	 
17.5	 1.1772901604200188	 -0.02994093164458965	 
17.5	 1.2025340153647865	 0.1538974106186359	 
17.5	 1.234804805863066	 0.3371216613630275	 
17.5	 1.2670755963613458	 0.5203459121074191	 
17.5	 1.2761193424136168	 0.7046238239901208	 
17.5	 1.2605703619721247	 0.8900173491938279	 
17.5	 1.226229587385632	 1.0685787910754212	 
17.5	 1.1190803301798433	 1.2206694438469685	 
17.5	 1.0119310729740543	 1.3727600966185158	 
17.5	 0.8882496978696431	 1.500960295554233	 
17.5	 0.7081566694729324	 1.5476403887753183	 
17.5	 0.5280636410762218	 1.5943204819964036	 
17.5	 0.3479706126795115	 1.641000575217489	 
17.5	 0.1678775842828008	 1.6876806684385741	 
17.5	 -0.01557521001057395	 1.6874466463342037	 
17.5	 -0.20048225935287922	 1.6669061233674027	 
17.5	 -0.3853893086951849	 1.6463656004006013	 
17.5	 -0.5702963580374907	 1.6258250774338001	 
17.5	 -0.7447036229043734	 1.5789435992597354	 
17.5	 -0.8930372589449062	 1.4666508461577545	 
17.5	 -1.0335218763059357	 1.347540372314235	 
17.5	 -1.123952031251464	 1.184952189912329	 
17.5	 -1.214382186196992	 1.022364007510423	 
17.5	 -1.3048123411425194	 0.8597758251085182	 
17.5	 -1.3558457052692732	 0.6840257487639675	 
17.5	 -1.381303951767756	 0.49973139815752576	 
17.5	 -1.406762198266239	 0.31543704755108404	 
17.5	 -1.4113297706239991	 0.1297066066417446	 
17.5	 -1.4113297706239991	 -0.05633782348242714	 
17.5	 -1.3741714217179122	 -0.2353694811220895	 
17.5	 -1.3063634870196734	 -0.4086167436464554	 
17.5	 -1.166265858131035	 -0.5303426369878101	 
17.5	 -1.0246271570684597	 -0.6509701974436785	 
17.5	 -0.8655455246265068	 -0.7454858405027789	 
17.5	 -0.6998772545709657	 -0.8301413440275462	 
17.5	 -0.5342089845154248	 -0.9147968475523138	 
17.5	 -0.36434239294210563	 -0.9883038398754833	 
17.5	 -0.17965981747526044	 -1.0107732924536112	 
17.5	 0.0060534469345013275	 -1.016237247270959	 
17.5	 0.1920978770586725	 -1.016237247270959	 
17.5	 0.37814230718284375	 -1.016237247270959	 
17.5	 0.5641867373070152	 -1.016237247270959	 
17.5	 0.7502311674311858	 -1.016237247270959	 
17.5	 0.9362755975553572	 -1.016237247270959	 
18.0	 0.10475358428811107	 -1.1392081903380857	 
18.0	 0.2960308287445933	 -1.14410313614379	 
18.0	 0.4873080732010755	 -1.148998081949494	 
18.0	 0.6785853176575577	 -1.153893027755198	 
18.0	 0.8698625621140399	 -1.1587879735609021	 
18.0	 1.061139806570522	 -1.163682919366606	 
18.0	 1.1986162300853946	 -1.0797942840480155	 
18.0	 1.2828069143613783	 -0.9079720694701345	 
18.0	 1.276585631855891	 -0.7230057032221049	 
18.0	 1.2448053119808662	 -0.5343235471766888	 
18.0	 1.1966414987689562	 -0.3499281138766181	 
18.0	 1.131938742152922	 -0.16986007665848263	 
18.0	 1.0689956995440995	 0.01080283487920209	 
18.0	 1.0111681507811427	 0.1931950478307797	 
18.0	 0.9533406020181862	 0.3755872607823574	 
18.0	 0.8708710568076043	 0.547541058971339	 
18.0	 0.7800883980227638	 0.715973400299425	 
18.0	 0.7126348183662053	 0.891904163332543	 
18.0	 0.6882799038413198	 1.0816876791598957	 
18.0	 0.6639249893164342	 1.271471194987249	 
18.0	 0.660536101776676	 1.4608433624136332	 
18.0	 0.6426783349727191	 1.619590926368712	 
18.0	 0.46096773138518393	 1.6795259018434658	 
18.0	 0.2792571277976488	 1.7394608773182196	 
18.0	 0.0975465242101142	 1.7993958527929732	 
18.0	 -0.07404006598786741	 1.759879929606714	 
18.0	 -0.23994564748852767	 1.6645579344102566	 
18.0	 -0.40585122898918796	 1.5692359392137991	 
18.0	 -0.5717568104898483	 1.4739139440173414	 
18.0	 -0.7376623919905075	 1.3785919488208842	 
18.0	 -0.9035679734911679	 1.2832699536244268	 
18.0	 -1.069473554991828	 1.187947958427969	 
18.0	 -1.103564341674298	 1.0099758617364718	 
18.0	 -1.1171000153641892	 0.8191153622111207	 
18.0	 -1.1416327439153822	 0.6308296443140944	 
18.0	 -1.2142329986789966	 0.45379815629695125	 
18.0	 -1.2868332534426106	 0.27676666827980906	 
18.0	 -1.359433508206225	 0.09973518026266584	 
18.0	 -1.4133563779565161	 -0.08337656297125123	 
18.0	 -1.4588869166079557	 -0.26922035434297154	 
18.0	 -1.5044174552593954	 -0.45506414571469195	 
18.0	 -1.477404136373925	 -0.6299688854148687	 
18.0	 -1.3766071125380261	 -0.7908571709461644	 
18.0	 -1.192272589386853	 -0.8421575443944681	 
18.0	 -1.0053408807137636	 -0.8802415027685196	 
18.0	 -0.8153012771572841	 -0.9025101763123526	 
18.0	 -0.6252616736008043	 -0.9247788498561855	 
18.0	 -0.43522207004432467	 -0.9470475234000183	 
18.0	 -0.2540223679766801	 -1.0060781973172968	 
18.0	 -0.07463439184428451	 -1.0726431938276912	 
18.5	 0.37054988726636673	 -1.0755250985783105	 
18.5	 0.5578261235508314	 -1.0631753568828408	 
18.5	 0.745102359835296	 -1.0508256151873712	 
18.5	 0.9323785961197606	 -1.0384758734919015	 
18.5	 1.1196548324042253	 -1.0261261317964319	 
18.5	 1.2526343626363858	 -0.9098690883907967	 
18.5	 1.3111387135529105	 -0.7512204131551072	 
18.5	 1.260934870230252	 -0.5703766161576613	 
18.5	 1.2107310269075937	 -0.3895328191602156	 
18.5	 1.1608714474977493	 -0.20860468481519437	 
18.5	 1.1218013256028962	 -0.02503336251255152	 
18.5	 1.0827312037080434	 0.1585379597900911	 
18.5	 1.1009933464056236	 0.34433086794599743	 
18.5	 1.1257411199688188	 0.5303750898409123	 
18.5	 1.150488893532014	 0.7164193117358272	 
18.5	 1.142554850338584	 0.9014059020055778	 
18.5	 1.1058301258268852	 1.085460783512044	 
18.5	 1.0691054013151864	 1.2695156650185102	 
18.5	 1.0160869622132935	 1.441760928959661	 
18.5	 0.8525994304009906	 1.5339386471931946	 
18.5	 0.6891118985886879	 1.6261163654267285	 
18.5	 0.5118182632751499	 1.6719648139151	 
18.5	 0.3245420269906849	 1.6843145556105696	 
18.5	 0.13726579070622003	 1.6966642973060395	 
18.5	 -0.05001044557824434	 1.7090140390015092	 
18.5	 -0.23145393138993842	 1.689460984283377	 
18.5	 -0.40224548201613064	 1.6116461333131398	 
18.5	 -0.573037032642323	 1.5338312823429028	 
18.5	 -0.7438285832685153	 1.4560164313726656	 
18.5	 -0.9146201338947066	 1.3782015804024286	 
18.5	 -1.0854116845208988	 1.3003867294321914	 
18.5	 -1.1391940099808933	 1.1214125427698023	 
18.5	 -1.1933886376917022	 0.9417408644874901	 
18.5	 -1.250468239285455	 0.7629481804125595	 
18.5	 -1.3075478408792076	 0.584155496337629	 
18.5	 -1.3646274424729599	 0.40536281226269855	 
18.5	 -1.4117332069612312	 0.22378810745726938	 
18.5	 -1.4554362832850962	 0.041264284582966534	 
18.5	 -1.4991393596089613	 -0.1412595382913363	 
18.5	 -1.457781909410791	 -0.3217647499696973	 
18.5	 -1.3785760171130397	 -0.48444051606737704	 
18.5	 -1.2345326940106607	 -0.604758535775329	 
18.5	 -1.0722693991909558	 -0.6932421595798529	 
18.5	 -0.8955674561434135	 -0.7564982116226617	 
18.5	 -0.7188655130958711	 -0.8197542636654707	 
18.5	 -0.5421635700483287	 -0.8830103157082796	 
18.5	 -0.3654616270007864	 -0.9462663677510885	 
18.5	 -0.18616819158004944	 -0.9993064617510827	 
18.5	 0.0009419751738988791	 -1.0139587753611816	 
18.5	 0.18682988361673786	 -1.03716020504529	 
19.0	 -0.7005481936386221	 -0.8845536330491888	 
19.0	 -0.5205758672633751	 -0.9181875759860898	 
19.0	 -0.34060354088812833	 -0.951821518922991	 
19.0	 -0.16063121451288145	 -0.9854554618598923	 
19.0	 0.013371972970753172	 -1.0344365399359552	 
19.0	 0.16877368533949116	 -1.1312435033800443	 
19.0	 0.32604124570277926	 -1.2215264456393562	 
19.0	 0.5091294222145386	 -1.221526445639356	 
19.0	 0.6922175987262977	 -1.221526445639356	 
19.0	 0.875305775238057	 -1.2215264456393562	 
19.0	 0.9941832134916295	 -1.1002980820373027	 
19.0	 1.0970479377347515	 -0.9488380910007668	 
19.0	 1.1986844363986016	 -0.7968489193579866	 
19.0	 1.2381091524578833	 -0.6180558206599491	 
19.0	 1.277533868517165	 -0.43926272196191163	 
19.0	 1.3169585845764469	 -0.2604696232638745	 
19.0	 1.3563833006357284	 -0.08167652456583704	 
19.0	 1.3958080166950102	 0.09711657413220051	 
19.0	 1.435232732754292	 0.2759096728302376	 
19.0	 1.4579854517258561	 0.45651908200453106	 
19.0	 1.4579854517258561	 0.6396072585162904	 
19.0	 1.457985451725856	 0.8226954350280491	 
19.0	 1.3920710928020568	 0.9918945217437044	 
19.0	 1.3181927760049805	 1.15941548964215	 
19.0	 1.2443144592079043	 1.326936457540595	 
19.0	 1.1299749666180205	 1.4369192274263676	 
19.0	 0.9473390742251753	 1.4497804555275324	 
19.0	 0.7647031818323301	 1.4626416836286973	 
19.0	 0.5823255140017108	 1.47099534739408	 
19.0	 0.40235318762646494	 1.437361404457179	 
19.0	 0.22238086125121792	 1.403727461520278	 
19.0	 0.042408534875970946	 1.3700935185833767	 
19.0	 -0.13810692456931378	 1.3398949139060043	 
19.0	 -0.3196772413651694	 1.3163683239054569	 
19.0	 -0.5012475581610251	 1.2928417339049094	 
19.0	 -0.6828178749568806	 1.269315143904362	 
19.0	 -0.8174431881287814	 1.1584989963579564	 
19.0	 -0.9371721170584382	 1.0199845063009292	 
19.0	 -1.056901045988095	 0.8814700162439021	 
19.0	 -1.1766299749177518	 0.742955526186875	 
19.0	 -1.2754747511090037	 0.5957365585412298	 
19.0	 -1.2895629872803178	 0.4131912162835252	 
19.0	 -1.3036512234516322	 0.2306458740258215	 
19.0	 -1.3177394596229461	 0.048100531768116885	 
19.0	 -1.314372644188457	 -0.1341413677817975	 
19.0	 -1.2939480161848187	 -0.31608673032042967	 
19.0	 -1.2735233881811812	 -0.49803209285906186	 
19.0	 -1.1635035552069102	 -0.6430049058815968	 
19.0	 -1.0496707403233734	 -0.7864042456084276	 
19.0	 -0.8782040963685711	 -0.8402855790643099	 
19.5	 -0.6570358453015381	 -1.3820730013632276	 
19.5	 -0.4783688472037778	 -1.275879907190383	 
19.5	 -0.29970184910601755	 -1.1696868130175382	 
19.5	 -0.1511216591778526	 -1.0315457857534251	 
19.5	 -0.034408702114384224	 -0.8595662662961109	 
19.5	 0.08230425494908412	 -0.6875867468387965	 
19.5	 0.20847512920716393	 -0.5225462544273372	 
19.5	 0.33749266623981156	 -0.35959428421127254	 
19.5	 0.5115671722650628	 -0.2559371533140484	 
19.5	 0.7120129740064048	 -0.2927294144415852	 
19.5	 0.9135265763784615	 -0.3436326316120601	 
19.5	 1.115040178750518	 -0.30029338790721055	 
19.5	 1.3165537811225743	 -0.2493901707367357	 
19.5	 1.4885482272715855	 -0.1594013837661386	 
19.5	 1.5926368662309132	 0.02049976881177723	 
19.5	 1.6967255051902406	 0.2004009213896925	 
19.5	 1.800814144149568	 0.38030207396760835	 
19.5	 1.9049027831088958	 0.5602032265455241	 
19.5	 1.9590959116760662	 0.7534986512991027	 
19.5	 1.9590959116760662	 0.9613420285312575	 
19.5	 1.9463243215766004	 1.161739888050219	 
19.5	 1.7654584010333425	 1.264142955608313	 
19.5	 1.5845924804900842	 1.3665460231664068	 
19.5	 1.4037265599468258	 1.468949090724501	 
19.5	 1.2228606394035677	 1.5713521582825947	 
19.5	 1.0366388014399863	 1.513282689614495	 
19.5	 0.8493473985632642	 1.4231672088815088	 
19.5	 0.6620559956865422	 1.3330517281485226	 
19.5	 0.47540601649776815	 1.2416168617664143	 
19.5	 0.2888513887645906	 1.149985860840947	 
19.5	 0.1281058091255181	 1.1450997624715515	 
19.5	 0.021985260960413595	 1.3238098593223047	 
19.5	 -0.0910893234679344	 1.482184965907869	 
19.5	 -0.2844187326207064	 1.4058789437608084	 
19.5	 -0.47774814177347824	 1.3295729216137475	 
19.5	 -0.6597999192647388	 1.229702829046745	 
19.5	 -0.8404968881470437	 1.1270019288753506	 
19.5	 -1.0211938570293497	 1.0243010287039553	 
19.5	 -1.0859434802706074	 0.8286633677908557	 
19.5	 -1.1468480034659505	 0.6299436945986533	 
19.5	 -1.2077525266612938	 0.43122402140645094	 
19.5	 -1.2686570498566372	 0.2325043482142486	 
19.5	 -1.32956157305198	 0.033784675022047336	 
19.5	 -1.3115517978271352	 -0.16842655504306595	 
19.5	 -1.2540475343388864	 -0.3681566958329371	 
19.5	 -1.1821313853077575	 -0.561408085404056	 
19.5	 -1.0709158057854933	 -0.7369927212091134	 
19.5	 -0.9597002262632293	 -0.9125773570141711	 
19.5	 -0.8122095809477685	 -1.0410353734957511	 
19.5	 -0.6751479640039678	 -1.1923166150662403	 
20.0	 -0.016909087376174768	 -1.0514474265286982	 
20.0	 0.09364352457105937	 -0.9002573151870934	 
20.0	 0.20397098859902532	 -0.748914133834553	 
20.0	 0.30390427924280505	 -0.5905043260670148	 
20.0	 0.4038375698865849	 -0.43209451829947637	 
20.0	 0.5232775951330345	 -0.29280252273792473	 
20.0	 0.6796429697039249	 -0.18969966433357333	 
20.0	 0.8367468517512118	 -0.08777197752608266	 
20.0	 0.9974721874558893	 0.00839296535052518	 
20.0	 1.1603015691217589	 0.10076551491883662	 
20.0	 1.326960480187093	 0.18623560991328422	 
20.0	 1.491485209597975	 0.2736013460371039	 
20.0	 1.556696980901	 0.44917968940371766	 
20.0	 1.621908752204025	 0.6247580327703318	 
20.0	 1.6840584868894806	 0.8007774024742045	 
20.0	 1.6710466800567325	 0.9876223185377402	 
20.0	 1.630497372934564	 1.1543726983504954	 
20.0	 1.4565289024693222	 1.2237650686791348	 
20.0	 1.282560432004081	 1.293157439007774	 
20.0	 1.103697692124671	 1.3475438765628416	 
20.0	 0.9222699551413021	 1.3940659791479153	 
20.0	 0.7405743836991809	 1.4395180627876696	 
20.0	 0.5586240734556543	 1.4839524456249173	 
20.0	 0.37667376321212775	 1.5283868284621658	 
20.0	 0.19256110819119734	 1.5207562573498858	 
20.0	 0.007552888658396529	 1.4915622771288597	 
20.0	 -0.15197987083930514	 1.3934546966303556	 
20.0	 -0.3114912466113145	 1.2952892710714372	 
20.0	 -0.4710026223833238	 1.197123845512519	 
20.0	 -0.6287351954392446	 1.0963375486966342	 
20.0	 -0.7788640921205108	 0.984348066346244	 
20.0	 -0.9289929888017772	 0.8723585839958538	 
20.0	 -1.0791218854830433	 0.7603691016454635	 
20.0	 -1.1628607122371344	 0.6044563176618718	 
20.0	 -1.2072138622384103	 0.4224861886274423	 
20.0	 -1.2405777051964502	 0.23862205694526273	 
20.0	 -1.2596990087077824	 0.052303229319416486	 
20.0	 -1.2788203122191146	 -0.13401559830643073	 
20.0	 -1.3011005776752826	 -0.31997987101549263	 
20.0	 -1.3237587471296095	 -0.5059017286138442	 
20.0	 -1.346416916583936	 -0.6918235862121959	 
20.0	 -1.3415184328237038	 -0.878077283337531	 
20.0	 -1.2982310594855588	 -1.0565254424623813	 
20.0	 -1.2056377069322046	 -1.2193345356936036	 
20.0	 -1.0657043070918681	 -1.3007597029221007	 
20.0	 -0.8784068704413829	 -1.3007597029221007	 
20.0	 -0.6911094337908975	 -1.3007597029221007	 
20.0	 -0.5257028766575116	 -1.2395714332469348	 
20.0	 -0.38091093364085293	 -1.1207622458357624	 
20.0	 -0.2022276795794245	 -1.0786016004186942	 
20.5	 -0.034956025567589685	 -0.8661272223223944	 
20.5	 0.12222914245913835	 -0.7680841927201312	 
20.5	 0.2794143104858664	 -0.6700411631178681	 
20.5	 0.43659947851259445	 -0.5719981335156049	 
20.5	 0.5800742281303277	 -0.4561029358225253	 
20.5	 0.7153523085474314	 -0.3295349554331527	 
20.5	 0.850630388964535	 -0.20296697504378017	 
20.5	 0.9927821804159225	 -0.08430557993123991	 
20.5	 1.1369350645690104	 0.03205402943355366	 
20.5	 1.2810879487220983	 0.14841363879834724	 
20.5	 1.4041107953022762	 0.2866774378126526	 
20.5	 1.5255798356679138	 0.42655197064058414	 
20.5	 1.6121333222639591	 0.5819091387766574	 
20.5	 1.6342495080341446	 0.7658397969828402	 
20.5	 1.6563656938043296	 0.9497704551890231	 
20.5	 1.6660232754037334	 1.1293867803971533	 
20.5	 1.534895957022056	 1.2602502171364174	 
20.5	 1.3910085843516626	 1.3651950667921962	 
20.5	 1.2073299054757531	 1.389314677642734	 
20.5	 1.0236512265998434	 1.4134342884932722	 
20.5	 0.8415178835410528	 1.4468596022433158	 
20.5	 0.659902171564907	 1.4834019867382897	 
20.5	 0.4782864595887608	 1.5199443712332639	 
20.5	 0.29667074761261447	 1.556486755728238	 
20.5	 0.11404144927245641	 1.552462737442788	 
20.5	 -0.0691725876478616	 1.5250359371091466	 
20.5	 -0.25238662456817956	 1.4976091367755053	 
20.5	 -0.4123930587729709	 1.4298212262525742	 
20.5	 -0.5282633991381391	 1.285274773771577	 
20.5	 -0.6441337395033067	 1.140728321290581	 
20.5	 -0.7600040798684747	 0.9961818688095837	 
20.5	 -0.8452774548204194	 0.832660149506297	 
20.5	 -0.9232638516829891	 0.6646192776757367	 
20.5	 -1.001250248545559	 0.4965784058451766	 
20.5	 -1.0755449085185276	 0.326942391003868	 
20.5	 -1.1444666375711559	 0.15498481494053462	 
20.5	 -1.2133883666237837	 -0.016972761122797775	 
20.5	 -1.2823100956764117	 -0.18893033718613111	 
20.5	 -1.3615771076408514	 -0.35633293781112074	 
20.5	 -1.4418742393959527	 -0.5232819819326281	 
20.5	 -1.4825810723620314	 -0.6864271846247895	 
20.5	 -1.3719653572757258	 -0.8350332957949776	 
20.5	 -1.261349642189421	 -0.983639406965165	 
20.5	 -1.139911589797266	 -1.1222355647778077	 
20.5	 -1.0003708937786624	 -1.24408796260331	 
20.5	 -0.8312749938754551	 -1.287161288729114	 
20.5	 -0.6570983884146677	 -1.2511857335698824	 
20.5	 -0.5039374546057503	 -1.1469679756974287	 
20.5	 -0.35736021668265594	 -1.034010501365089	 
20.5	 -0.21181035807704834	 -0.921282981530429	 
21.0	 -1.1160756184372012	 -1.4720578246189666	 
21.0	 -0.9443703518931982	 -1.4176357571543976	 
21.0	 -0.7726650853491954	 -1.3632136896898288	 
21.0	 -0.6009598188051926	 -1.30879162222526	 
21.0	 -0.4292545522611897	 -1.2543695547606912	 
21.0	 -0.2670381385391196	 -1.1814446188135972	 
21.0	 -0.12264644290515377	 -1.0737622236971562	 
21.0	 0.021745252728812225	 -0.9660798285807152	 
21.0	 0.1661369483627781	 -0.8583974334642741	 
21.0	 0.31052864399674385	 -0.7507150383478332	 
21.0	 0.4528476398788605	 -0.6403366540095359	 
21.0	 0.5940239221398053	 -0.528471926266412	 
21.0	 0.73520020440075	 -0.4166071985232882	 
21.0	 0.8751527570381004	 -0.3032641013597102	 
21.0	 1.0114221427299648	 -0.1854714254022169	 
21.0	 1.147691528421829	 -0.06767874944472388	 
21.0	 1.2815881465773757	 0.051552979567099776	 
21.0	 1.3221029748741442	 0.2270194648322437	 
21.0	 1.3480585311925783	 0.40526303156682647	 
21.0	 1.3740140875110125	 0.5835065983014097	 
21.0	 1.399969643829447	 0.761750165035993	 
21.0	 1.4155784179419344	 0.9411911810255222	 
21.0	 1.4310204894707417	 1.1206514897652669	 
21.0	 1.3827640668269385	 1.2713527336585582	 
21.0	 1.2379422073860402	 1.3784559036123263	 
21.0	 1.0931203479451417	 1.4855590735660948	 
21.0	 0.9270187697404392	 1.5070019833738968	 
21.0	 0.7489124757663702	 1.4801206137494198	 
21.0	 0.5708061817923011	 1.453239244124943	 
21.0	 0.39269988781823323	 1.4263578745004668	 
21.0	 0.2145935938441642	 1.39947650487599	 
21.0	 0.04016419061171274	 1.3548230745220726	 
21.0	 -0.1339870790689125	 1.3088253000683963	 
21.0	 -0.3081383487495377	 1.26282752561472	 
21.0	 -0.4706573711671281	 1.1962184170521044	 
21.0	 -0.6000480462408332	 1.0709087478719646	 
21.0	 -0.7294387213145376	 0.9455990786918256	 
21.0	 -0.8588293963882427	 0.8202894095116859	 
21.0	 -0.9163568235589652	 0.6645363033131738	 
21.0	 -0.9163568235589652	 0.4844128456901724	 
21.0	 -0.9163568235589651	 0.30428938806717093	 
21.0	 -0.9163568235589653	 0.12416593044416947	 
21.0	 -0.9163568235589652	 -0.055957527178831	 
21.0	 -0.9163568235589653	 -0.23608098480183248	 
21.0	 -0.9515231181016117	 -0.4111877921991657	 
21.0	 -1.0018891939069765	 -0.5841262737295457	 
21.0	 -1.052255269712341	 -0.7570647552599257	 
21.0	 -1.076131859461554	 -0.9337820962899974	 
21.0	 -1.0783966482591363	 -1.1137867887388928	 
21.0	 -1.0972361333481686	 -1.2929223066789297	 
21.5	 -0.3444129700239954	 -0.8357743773320001	 
21.5	 -0.17546407243930107	 -0.753851207986002	 
21.5	 -0.006515174854606759	 -0.671928038640004	 
21.5	 0.16243372273008758	 -0.5900048692940061	 
21.5	 0.33138262031478194	 -0.508081699948008	 
21.5	 0.48781739498219717	 -0.4079984872900888	 
21.5	 0.624527438195164	 -0.2792914565750369	 
21.5	 0.7612374814081311	 -0.15058442585998483	 
21.5	 0.897947524621098	 -0.021877395144932945	 
21.5	 1.0235731741424856	 0.11759404588180412	 
21.5	 1.1482215307644383	 0.2580145673956594	 
21.5	 1.272869887386391	 0.39843508890951457	 
21.5	 1.3975182440083438	 0.5388556104233698	 
21.5	 1.520142868554589	 0.6803730186435438	 
21.5	 1.5697569941818914	 0.8614629802897236	 
21.5	 1.6193711198091938	 1.042552941935903	 
21.5	 1.6689852454364962	 1.2236429035820828	 
21.5	 1.603561592027911	 1.3717340174934798	 
21.5	 1.4654982305016486	 1.4989882664396155	 
21.5	 1.327434868975386	 1.6262425153857514	 
21.5	 1.1439516182650344	 1.6372018624448774	 
21.5	 0.9561881083096213	 1.6372018624448774	 
21.5	 0.7684245983542078	 1.6372018624448774	 
21.5	 0.5910393037631351	 1.5807027694202684	 
21.5	 0.4155330061274043	 1.5139744009329836	 
21.5	 0.24002670849167315	 1.4472460324456988	 
21.5	 0.12191827701055225	 1.3105190628730083	 
21.5	 0.022100726719978078	 1.1514857571639041	 
21.5	 -0.0777168235705961	 0.9924524514548001	 
21.5	 -0.1775343738611697	 0.833419145745697	 
21.5	 -0.2773602121382614	 0.6743910856165993	 
21.5	 -0.378372701476867	 0.5161140731719784	 
21.5	 -0.4793851908154727	 0.3578370607273575	 
21.5	 -0.5803976801540782	 0.19956004828273655	 
21.5	 -0.6973376457830635	 0.056172642020025636	 
21.5	 -0.8484598483176844	 -0.05525991862479594	 
21.5	 -0.9995820508523043	 -0.16669247926961686	 
21.5	 -1.0959936597145763	 -0.3249912794678562	 
21.5	 -1.1829022762086339	 -0.49143054181260887	 
21.5	 -1.2698108927026917	 -0.6578698041573616	 
21.5	 -1.345154813353534	 -0.8289879728313294	 
21.5	 -1.3984294828973622	 -1.0090350368334193	 
21.5	 -1.3876244161194113	 -1.1815370305499644	 
21.5	 -1.2939872238353902	 -1.3442859534095088	 
21.5	 -1.2003500315513693	 -1.5070348762690533	 
21.5	 -1.0771006632773208	 -1.3972460313495931	 
21.5	 -0.9506947346362156	 -1.2584055585934242	 
21.5	 -0.8242888059951101	 -1.119565085837255	 
21.5	 -0.6820285503376927	 -0.9980466740543945	 
21.5	 -0.5155992408663425	 -0.9129131895205947	 
22.0	 -0.4676594441744742	 -1.270672151126335	 
22.0	 -0.29264110571335916	 -1.1854609080736997	 
22.0	 -0.11762276725224421	 -1.1002496650210647	 
22.0	 0.03155778957487738	 -0.9888362430663806	 
22.0	 0.11921160414978488	 -0.8150283504644265	 
22.0	 0.20686541872469238	 -0.6412204578624724	 
22.0	 0.29451923329959984	 -0.46741256526051833	 
22.0	 0.39697900139001596	 -0.302546394266578	 
22.0	 0.51000569118988	 -0.14406187725261244	 
22.0	 0.6230323809897441	 0.014422639761353138	 
22.0	 0.7673343741604813	 0.14483683421255542	 
22.0	 0.9332129022227447	 0.23980451083212295	 
22.0	 1.1163928336090412	 0.30566411512471103	 
22.0	 1.3039391386157317	 0.33125803676848203	 
22.0	 1.496978603152197	 0.30619531800655164	 
22.0	 1.600144693170492	 0.41076951388878336	 
22.0	 1.6443894155541972	 0.6003342238995171	 
22.0	 1.6886341379379024	 0.7898989339102508	 
22.0	 1.648368684185379	 0.9789256789773908	 
22.0	 1.6017142277216212	 1.1679117536822115	 
22.0	 1.5550597712578633	 1.3568978283870323	 
22.0	 1.4094337264558767	 1.463936955891496	 
22.0	 1.2324686340229674	 1.545027835776207	 
22.0	 1.0555035415900578	 1.626118715660918	 
22.0	 0.8622976115351055	 1.632780795229695	 
22.0	 0.667637973345098	 1.6327807952296953	 
22.0	 0.47297833515509036	 1.632780795229695	 
22.0	 0.28001045224185217	 1.6195344022412685	 
22.0	 0.09159907419130851	 1.570610713077838	 
22.0	 -0.0968123038592341	 1.521687023914408	 
22.0	 -0.23050827080100306	 1.4129793698067252	 
22.0	 -0.29588881795116284	 1.2296279073238465	 
22.0	 -0.3612693651013226	 1.0462764448409678	 
22.0	 -0.42664991225148247	 0.8629249823580891	 
22.0	 -0.4920304594016422	 0.6795735198752104	 
22.0	 -0.5940090760350011	 0.5141988470540304	 
22.0	 -0.7055753249815613	 0.3548649134614613	 
22.0	 -0.823218558650408	 0.19977640869014734	 
22.0	 -0.9408617923192547	 0.04468790391883345	 
22.0	 -1.066216030974688	 -0.10305898043268608	 
22.0	 -1.2153475150753068	 -0.22816763397116593	 
22.0	 -1.364478999175926	 -0.35327628750964585	 
22.0	 -1.4260899944067262	 -0.5241835196350992	 
22.0	 -1.4435590338152569	 -0.7179269390114689	 
22.0	 -1.3120017889052358	 -0.8614019056500752	 
22.0	 -1.1804445439952147	 -1.0048768722886816	 
22.0	 -1.1031969705063693	 -1.1799047976933366	 
22.0	 -1.011818792735597	 -1.335243429027261	 
22.0	 -0.830432343215223	 -1.4058927791350802	 
22.0	 -0.6490458936948486	 -1.3413215012341544	 
22.5	 -0.018160670613813174	 -0.3911632202865554	 
22.5	 0.18165002373776323	 -0.33845515097302714	 
22.5	 0.380695877156017	 -0.28297334254602524	 
22.5	 0.5791112519443282	 -0.22524015616744472	 
22.5	 0.7772175351719512	 -0.16644938568639397	 
22.5	 0.9788858226729529	 -0.12480572346417439	 
22.5	 1.1811166951016483	 -0.0934774979776078	 
22.5	 1.333114326405297	 0.04580118808890951	 
22.5	 1.360838952336767	 0.2505786264579321	 
22.5	 1.3885635782682366	 0.4553560648269546	 
22.5	 1.4210712853314358	 0.6593783719698922	 
22.5	 1.4608946773308134	 0.8620878974143282	 
22.5	 1.5085364688259106	 1.0631667721156663	 
22.5	 1.5160211990661243	 1.2689379179184725	 
22.5	 1.4416808693372187	 1.4369867731053565	 
22.5	 1.2650542325535583	 1.5375537404453918	 
22.5	 1.061531692664796	 1.5733452185546573	 
22.5	 0.8577760088400478	 1.5966403719638835	 
22.5	 0.6530600468571963	 1.5684653997819198	 
22.5	 0.4483440848743442	 1.5402904275999563	 
22.5	 0.2490254295865093	 1.488981247000333	 
22.5	 0.05297674203346358	 1.4236561656245943	 
22.5	 -0.13690355337581667	 1.3442834807618818	 
22.5	 -0.3176667928711016	 1.2441480454994873	 
22.5	 -0.49843003236638606	 1.144012610237093	 
22.5	 -0.6540199530406846	 1.0090375469752562	 
22.5	 -0.8015343801189668	 0.8658297364962605	 
22.5	 -0.8817502231943231	 0.6753884787086457	 
22.5	 -0.9619660662696791	 0.48494722092103093	 
22.5	 -1.0227066370015436	 0.29127737234329204	 
22.5	 -1.0082353637713921	 0.08513898096721444	 
22.5	 -0.9953982396472887	 -0.12110369718444156	 
22.5	 -0.9835484977366835	 -0.3274093872772528	 
22.5	 -1.0561541975715172	 -0.5118749822715991	 
22.5	 -1.1778810728950582	 -0.6766863043866671	 
22.5	 -1.3357892071617403	 -0.8099809977560373	 
22.5	 -1.482270584151572	 -0.947871547264481	 
22.5	 -1.4606299032067112	 -1.1533809997873798	 
22.5	 -1.4389892222618499	 -1.3588904523102785	 
22.5	 -1.3898807784109906	 -1.559508534777256	 
22.5	 -1.3178565509662334	 -1.7286578247250326	 
22.5	 -1.1127255530844307	 -1.7036832805643258	 
22.5	 -0.9901585360589447	 -1.5664184257850517	 
22.5	 -0.9051553436687252	 -1.37806526963552	 
22.5	 -0.8201521512785058	 -1.189712113485988	 
22.5	 -0.648211552992698	 -1.075460609710913	 
22.5	 -0.46854040100726635	 -0.9750816088409531	 
22.5	 -0.27815733176030055	 -0.8947277595733276	 
22.5	 -0.1338605360849736	 -0.7879293450024032	 
22.5	 -0.0760106033493934	 -0.5895462826444793	 
23.0	 -0.7091123987275428	 -1.3670454646075143	 
23.0	 -0.51014879274286	 -1.3275114005303026	 
23.0	 -0.3111851867581772	 -1.2879773364530909	 
23.0	 -0.11222158077349438	 -1.2484432723758792	 
23.0	 -0.09060707968205212	 -1.0750951859459938	 
23.0	 -0.10297081835648797	 -0.8728407863522893	 
23.0	 -0.09410189448057257	 -0.6701814640446975	 
23.0	 -0.08523297060465715	 -0.4675221417371053	 
23.0	 -0.06819676159636312	 -0.2680528623177592	 
23.0	 0.06263965118779861	 -0.11303256745717767	 
23.0	 0.20462139154235792	 0.02507864799643554	 
23.0	 0.39866823830842046	 0.08419954099575877	 
23.0	 0.5927150850744829	 0.14332043399508196	 
23.0	 0.7872587443429285	 0.163533590675512	 
23.0	 0.9827519059389291	 0.1093867302116841	 
23.0	 1.1830122451093987	 0.11720982787614381	 
23.0	 1.3832284084795723	 0.14352823541169538	 
23.0	 1.5312206596379223	 0.2822645043754133	 
23.0	 1.679212910796272	 0.4210007733391309	 
23.0	 1.7170382790830399	 0.597164964073823	 
23.0	 1.684187415205066	 0.7973405856448827	 
23.0	 1.651336551327092	 0.9975162072159418	 
23.0	 1.5915889275346011	 1.1848186352033259	 
23.0	 1.4562929999915606	 1.335962509439623	 
23.0	 1.3209970724485207	 1.4871063836759197	 
23.0	 1.1712929731262878	 1.609193867505101	 
23.0	 0.9690885618509095	 1.625406047792373	 
23.0	 0.7668841505755315	 1.6416182280796452	 
23.0	 0.569508970283655	 1.6112733014024223	 
23.0	 0.37493687912651597	 1.55390466823388	 
23.0	 0.18036478796937588	 1.4965360350653372	 
23.0	 -0.014207303187764225	 1.4391674018967944	 
23.0	 -0.2088046426221151	 1.3818846764804174	 
23.0	 -0.4034762467517755	 1.3248546381280364	 
23.0	 -0.5981478508814361	 1.267824599775655	 
23.0	 -0.7928194550110965	 1.2107945614232736	 
23.0	 -0.9413638802350857	 1.0898190781059	 
23.0	 -1.0568978545296575	 0.9230816812430771	 
23.0	 -1.1724318288242295	 0.7563442843802543	 
23.0	 -1.287965803118801	 0.5896068875174313	 
23.0	 -1.3948499113206878	 0.42067473316056436	 
23.0	 -1.3727880258035625	 0.21902470976280136	 
23.0	 -1.3507261402864374	 0.01737468636503943	 
23.0	 -1.316497287590724	 -0.18228441541150706	 
23.0	 -1.2731361409794326	 -0.38044916932461675	 
23.0	 -1.2297749943681415	 -0.5786139232377265	 
23.0	 -1.1831353325329164	 -0.7759899119818636	 
23.0	 -1.131617248416906	 -0.9721922201688595	 
23.0	 -1.0474905087597617	 -1.1441080372462669	 
23.0	 -0.8742636194962298	 -1.2496632529628258	 
23.5	 -0.17371308824043544	 -1.0358185845246661	 
23.5	 -0.14060887772145875	 -0.8354107302853465	 
23.5	 -0.1075046672024821	 -0.635002876046027	 
23.5	 -0.07440045668350545	 -0.43459502180670745	 
23.5	 0.05655590565979034	 -0.2853054853840474	 
23.5	 0.20214226805086444	 -0.1436587138690284	 
23.5	 0.3490218375610596	 -0.004735920743424246	 
23.5	 0.5508083187174677	 0.01853235846686046	 
23.5	 0.7525050120065189	 0.03659346443173681	 
23.5	 0.9533693400055874	 0.0063822325406726645	 
23.5	 1.154233668004656	 -0.02382899935039152	 
23.5	 1.355394320806196	 -0.050077743272185164	 
23.5	 1.5585179206041837	 -0.050077743272185164	 
23.5	 1.5830143734030906	 0.1236993548694355	 
23.5	 1.577424356654024	 0.32674602070672104	 
23.5	 1.5718343399049575	 0.529792686544006	 
23.5	 1.5662443231558907	 0.7328393523812916	 
23.5	 1.5456934696382802	 0.932889060438962	 
23.5	 1.4726418993632913	 1.1224218145350584	 
23.5	 1.3995903290883018	 1.3119545686311551	 
23.5	 1.2791015543871698	 1.448639152091389	 
23.5	 1.0828089261595453	 1.5008732491773398	 
23.5	 0.88651629793192	 1.5531073462632903	 
23.5	 0.6902236697042948	 1.6053414433492408	 
23.5	 0.4939310414766702	 1.6575755404351913	 
23.5	 0.29676801471586195	 1.68885290198555	 
23.5	 0.09682001182320821	 1.653075913094189	 
23.5	 -0.10312799106944556	 1.6172989242028284	 
23.5	 -0.3030759939620993	 1.5815219353114676	 
23.5	 -0.48074985530372716	 1.499045264472824	 
23.5	 -0.6343873047040738	 1.3661741579949704	 
23.5	 -0.7880247541044205	 1.2333030515171173	 
