0.5	 0.36985421700115806	 -0.9140797900618023	 
0.5	 0.5389423225289732	 -0.8569925261388198	 
0.5	 0.6989500477992938	 -0.7809455128787696	 
0.5	 0.8494212966574675	 -0.6849864257621272	 
0.5	 0.9998925455156412	 -0.5890273386454847	 
0.5	 1.1503637943738148	 -0.4930682515288425	 
0.5	 1.296383613076808	 -0.3919399013272955	 
0.5	 1.413610212740338	 -0.25737516796626875	 
0.5	 1.5308368124038685	 -0.12281043460524199	 
0.5	 1.6051499976387782	 0.02658394312059391	 
0.5	 1.5960166606771224	 0.20481504391151284	 
0.5	 1.5868833237154667	 0.3830461447024317	 
0.5	 1.577749986753811	 0.5612772454933502	 
0.5	 1.5391689762075096	 0.7304974276349951	 
0.5	 1.4470006634967707	 0.8833200217277971	 
0.5	 1.3548323507860323	 1.0361426158205989	 
0.5	 1.2626640380752936	 1.188965209913401	 
0.5	 1.109188262472419	 1.2659546601407148	 
0.5	 0.9404485688741709	 1.3240636864409983	 
0.5	 0.7676344618386334	 1.3670707938331708	 
0.5	 0.5925652989236694	 1.4017194782158668	 
0.5	 0.4174961360087055	 1.436368162598563	 
0.5	 0.2424269730937416	 1.4710168469812588	 
0.5	 0.06735781017877865	 1.5056655313639546	 
0.5	 -0.10771135273618526	 1.5403142157466505	 
0.5	 -0.2820862847276144	 1.5291134184275688	 
0.5	 -0.4560261642319778	 1.489180206044824	 
0.5	 -0.6299660437363411	 1.4492469936620793	 
0.5	 -0.7690872812179048	 1.3582132937182618	 
0.5	 -0.869890414990135	 1.2109432310616046	 
0.5	 -0.9706935487623645	 1.0636731684049483	 
0.5	 -1.0714966825345946	 0.9164031057482911	 
0.5	 -1.1351323655022947	 0.7544434337155212	 
0.5	 -1.1622497558907172	 0.5780507176762254	 
0.5	 -1.1893671462791398	 0.4016580016369294	 
0.5	 -1.2164845366675618	 0.22526528559763348	 
0.5	 -1.208239146434233	 0.050877228024663615	 
0.5	 -1.1613607150674121	 -0.12132078533723333	 
0.5	 -1.1144822837005908	 -0.29351879869913033	 
0.5	 -1.0676038523337696	 -0.4657168120610273	 
0.5	 -0.9978049964751892	 -0.6287018227841725	 
0.5	 -0.9124654769625173	 -0.7854401701741595	 
0.5	 -0.8123459839500369	 -0.9319008306077814	 
0.5	 -0.719573112362963	 -1.08192388598559	 
1.0	 -0.0181914990862869	 -1.1417918276948067	 
1.0	 0.15897470936548525	 -1.1008299846625558	 
1.0	 0.3361409178172574	 -1.0598681416303046	 
1.0	 0.5133071262690295	 -1.0189062985980537	 
1.0	 0.6904733347208017	 -0.9779444555658029	 
1.0	 0.8340800456333014	 -0.8707002207912471	 
1.0	 0.971962225373339	 -0.7521496302743226	 
1.0	 1.102800550250194	 -0.626602794477258	 
1.0	 1.2204133160436108	 -0.4879197914660802	 
1.0	 1.3077898022772914	 -0.33211647585026854	 
1.0	 1.3662053176858917	 -0.15991494983692797	 
1.0	 1.4246208330944918	 0.012286576176412392	 
1.0	 1.4507720521313883	 0.18981159127253688	 
1.0	 1.4507720521313883	 0.3716514603930782	 
1.0	 1.4507720521313883	 0.5534913295136197	 
1.0	 1.376570536050846	 0.7134025841623024	 
1.0	 1.2777258176148512	 0.8660310862157671	 
1.0	 1.178881099178856	 1.0186595882692318	 
1.0	 1.058713840235339	 1.1538885904693144	 
1.0	 0.9290117451306437	 1.281337029169944	 
1.0	 0.7985279908335131	 1.4077315822051606	 
1.0	 0.6389216349956978	 1.4948610788061854	 
1.0	 0.47931527915788197	 1.5819905754072106	 
1.0	 0.3065939461458579	 1.617724624757417	 
1.0	 0.1247540770253169	 1.6177246247574173	 
1.0	 -0.0570857920952246	 1.617724624757417	 
1.0	 -0.2389256612157661	 1.6177246247574173	 
1.0	 -0.41644043766543837	 1.5959577549456285	 
1.0	 -0.5844668931209168	 1.5264390648771031	 
1.0	 -0.7524933485763944	 1.4569203748085782	 
1.0	 -0.9205198040318728	 1.3874016847400528	 
1.0	 -1.0885462594873514	 1.3178829946715274	 
1.0	 -1.2218142851893872	 1.2097510912253753	 
1.0	 -1.3085571348455143	 1.0499342709738444	 
1.0	 -1.3952999845016414	 0.8901174507223133	 
1.0	 -1.4820428341577685	 0.7303006304707824	 
1.0	 -1.5168894472369288	 0.5618622032068663	 
1.0	 -1.4864811970707505	 0.38258287834310284	 
1.0	 -1.4560729469045726	 0.20330355347933948	 
1.0	 -1.4049627954151829	 0.029671115932626585	 
1.0	 -1.3401279719588595	 -0.1402176231561162	 
1.0	 -1.2362309481551002	 -0.2845493829787601	 
1.0	 -1.1065288530504052	 -0.411997821679389	 
1.0	 -0.9768267579457097	 -0.5394462603800186	 
1.0	 -0.8638074533775231	 -0.6808084053599075	 
1.0	 -0.7617160787040513	 -0.8312846135094236	 
1.0	 -0.6590891506249803	 -0.9813752197540635	 
1.0	 -0.548762229163218	 -1.125921781119409	 
1.0	 -0.3778121517154583	 -1.1730072629311448	 
1.0	 -0.1982658305922206	 -1.1670697456167134	 
1.5	 -0.5181377627870488	 -1.241383677454499	 
1.5	 -0.3386642062677933	 -1.211275695443407	 
1.5	 -0.15919064974853783	 -1.181167713432315	 
1.5	 0.02028290677071759	 -1.1510597314212232	 
1.5	 0.18344027133227725	 -1.073730544469331	 
1.5	 0.34321734183870484	 -0.9866183420471978	 
1.5	 0.5029944123451323	 -0.8995061396250645	 
1.5	 0.66277148285156	 -0.8123939372029312	 
1.5	 0.821053514572197	 -0.7226576125457854	 
1.5	 0.9774606678124638	 -0.6296304633595061	 
1.5	 1.1338678210527309	 -0.5366033141732267	 
1.5	 1.2609377837517424	 -0.41721173583858184	 
1.5	 1.336789209187842	 -0.25179163630481155	 
1.5	 1.4102689164253113	 -0.08562313019464782	 
1.5	 1.4430994305717049	 0.09337241559164855	 
1.5	 1.4759299447180985	 0.2723679613779444	 
1.5	 1.4853710196845324	 0.4517111797514284	 
1.5	 1.4578751975556488	 0.6316034470557998	 
1.5	 1.3688224818711219	 0.7866932148156001	 
1.5	 1.2639204182842392	 0.9353969643502513	 
1.5	 1.1590183546973563	 1.0841007138849024	 
1.5	 1.0541162911104738	 1.2328044634195532	 
1.5	 0.9209624328159203	 1.3527961722886168	 
1.5	 0.7705830705503661	 1.4552817589584301	 
1.5	 0.611103523199754	 1.5314680750008347	 
1.5	 0.42954322319917937	 1.5438416571075655	 
1.5	 0.24798292319860482	 1.5562152392142958	 
1.5	 0.06642262319803019	 1.5685888213210266	 
1.5	 -0.11515844450760426	 1.57055628085401	 
1.5	 -0.2967666864511512	 1.5589074814040895	 
1.5	 -0.47837492839469903	 1.547258681954169	 
1.5	 -0.6599831703382469	 1.5356098825042483	 
1.5	 -0.8235107954633414	 1.4844453880272606	 
1.5	 -0.9510556505191706	 1.3546395406272373	 
1.5	 -1.0786005055749999	 1.2248336932272141	 
1.5	 -1.206145360630829	 1.0950278458271905	 
1.5	 -1.3336902156866577	 0.9652219984271682	 
1.5	 -1.4291203657066618	 0.8268668979497688	 
1.5	 -1.3829943763949575	 0.6508281488617704	 
1.5	 -1.3368683870832532	 0.47478939977377216	 
1.5	 -1.2907423977715489	 0.2987506506857738	 
1.5	 -1.24673325526416	 0.12219203933233927	 
1.5	 -1.2060656804452927	 -0.05518720530694256	 
1.5	 -1.165398105626425	 -0.2325664499462254	 
1.5	 -1.120644798233528	 -0.40868214329273006	 
1.5	 -1.054077092370652	 -0.578051528385209	 
1.5	 -0.9771013175967882	 -0.7409198003256531	 
1.5	 -0.8509130972156547	 -0.8713561695716383	 
1.5	 -0.7005337349501009	 -0.9738417562414511	 
1.5	 -0.5501543726845464	 -1.0763273429112645	 
2.0	 0.1771679223704722	 -1.2141300019909351	 
2.0	 0.34293344532276626	 -1.1327830741601137	 
2.0	 0.5086989682750603	 -1.0514361463292925	 
2.0	 0.6744644912273544	 -0.9700892184984711	 
2.0	 0.83329245634044	 -0.8773877335615976	 
2.0	 0.9813199068259164	 -0.7670092702187414	 
2.0	 1.1293473573113926	 -0.6566308068758855	 
2.0	 1.2773748077968692	 -0.5462523435330292	 
2.0	 1.414179053439309	 -0.42227245668570546	 
2.0	 1.5506542354595374	 -0.2978937770026265	 
2.0	 1.611948523060279	 -0.13697774197371826	 
2.0	 1.6254197254177452	 0.04717995668209293	 
2.0	 1.6388909277752113	 0.23133765533790412	 
2.0	 1.6386622447598596	 0.4138493376112704	 
2.0	 1.581951729633374	 0.5895748301877579	 
2.0	 1.525241214506889	 0.7653003227642449	 
2.0	 1.468530699380404	 0.9410258153407323	 
2.0	 1.3986126319533225	 1.1068829226543164	 
2.0	 1.2461710661360463	 1.2110803327868984	 
2.0	 1.0937295003187701	 1.3152777429194804	 
2.0	 0.9244142005251286	 1.3850196591943287	 
2.0	 0.7486341234941969	 1.4415607573987326	 
2.0	 0.5728540464632648	 1.4981018556031365	 
2.0	 0.39707396943233275	 1.5546429538075404	 
2.0	 0.21944714788585679	 1.5882159759602048	 
2.0	 0.03689133428210639	 1.560486818262337	 
2.0	 -0.145664479321644	 1.5327576605644688	 
2.0	 -0.32462206147623907	 1.4929333409481906	 
2.0	 -0.4926489652957521	 1.4163664364790354	 
2.0	 -0.6564589721571155	 1.3314845829507143	 
2.0	 -0.8175092950567007	 1.2411611377047556	 
2.0	 -0.9785596179562861	 1.1508376924587975	 
2.0	 -1.1396099408558713	 1.0605142472128388	 
2.0	 -1.242871189624521	 0.9102643071127093	 
2.0	 -1.338981711784225	 0.7525991594187772	 
2.0	 -1.3998743497434298	 0.5824019022247642	 
2.0	 -1.4249654354013281	 0.39946484013053446	 
2.0	 -1.4500565210592269	 0.21652777803630366	 
2.0	 -1.4751476067171259	 0.03359071594207293	 
2.0	 -1.3982644935979867	 -0.1274123077680191	 
2.0	 -1.3001750775838714	 -0.28385398294816505	 
2.0	 -1.185833320264992	 -0.4287717755036148	 
2.0	 -1.0706592812739317	 -0.573099430544656	 
2.0	 -0.9554852422828712	 -0.7174270855856981	 
2.0	 -0.7962949084342135	 -0.8005436867581903	 
2.0	 -0.6251510233537614	 -0.8694968013398141	 
2.0	 -0.45424259031805764	 -0.9384371722524144	 
2.0	 -0.2775654806327469	 -0.9921096063355196	 
2.0	 -0.0983009432795893	 -1.0360349782338343	 
2.0	 0.08173495326166016	 -1.077054573840677	 
2.5	 -0.027696262148657336	 -1.2775845723627899	 
2.5	 0.13707352510009466	 -1.1960771351619313	 
2.5	 0.30184331234884665	 -1.1145696979610724	 
2.5	 0.46661309959759867	 -1.0330622607602136	 
2.5	 0.6313828868463507	 -0.9515548235593547	 
2.5	 0.7564867295973097	 -0.8174356480469656	 
2.5	 0.8801869875106236	 -0.6814547990231765	 
2.5	 1.0038872454239376	 -0.5454739499993871	 
2.5	 1.134104662591838	 -0.41583142008641766	 
2.5	 1.2665918198432182	 -0.28839634535226544	 
2.5	 1.3990789770945986	 -0.16096127061811302	 
2.5	 1.45762095401849	 0.005744630436846157	 
2.5	 1.4890058254134542	 0.1868731344238566	 
2.5	 1.5203906968084184	 0.36800163841086725	 
2.5	 1.5517755682033834	 0.549130142397878	 
2.5	 1.5028533153122847	 0.7045703012430575	 
2.5	 1.3721736004015717	 0.833858186289978	 
2.5	 1.2253126968699481	 0.9436962190743403	 
2.5	 1.074406628325901	 1.0486719476292312	 
2.5	 0.9235005597818536	 1.1536476761841228	 
2.5	 0.7725944912378062	 1.2586234047390141	 
2.5	 0.6202804614191118	 1.3612157579447353	 
2.5	 0.45551067417035973	 1.442723195145594	 
2.5	 0.29074088692160777	 1.524230632346453	 
2.5	 0.11818157915729775	 1.5690280541828363	 
2.5	 -0.06548991552882535	 1.5614565847867126	 
2.5	 -0.2491614102149485	 1.5538851153905884	 
2.5	 -0.4328329049010715	 1.5463136459944649	 
2.5	 -0.6165043995871947	 1.538742176598341	 
2.5	 -0.8001758942733168	 1.5311707072022176	 
2.5	 -0.98384738895944	 1.5235992378060936	 
2.5	 -1.1521400105001842	 1.4899848644653642	 
2.5	 -1.2474639310078937	 1.3328037737194003	 
2.5	 -1.3427878515156029	 1.1756226829734366	 
2.5	 -1.4014308647220612	 1.0081879853793492	 
2.5	 -1.4014308647220612	 0.824360498019458	 
2.5	 -1.4014308647220615	 0.6405330106595678	 
2.5	 -1.4014308647220612	 0.4567055232996766	 
2.5	 -1.4014308647220612	 0.2728780359397853	 
2.5	 -1.369544178986899	 0.09364136863960741	 
2.5	 -1.3176867216508992	 -0.08272004785418222	 
2.5	 -1.2658292643148994	 -0.25908146434797186	 
2.5	 -1.1962682175208363	 -0.4237514737984068	 
2.5	 -1.0544308586504298	 -0.540690384079453	 
2.5	 -0.9125934997800235	 -0.6576292943604992	 
2.5	 -0.76756632884315	 -0.7703924911613211	 
2.5	 -0.6174414806996708	 -0.8764824297933527	 
2.5	 -0.4582914404740749	 -0.9628326018687101	 
2.5	 -0.28372445599762297	 -1.0137290353910595	 
2.5	 -0.15571035907314015	 -1.1456568038769246	 
3.0	 -0.028854202262998035	 -1.1525323518810149	 
3.0	 0.1464330910044785	 -1.1141102505882905	 
3.0	 0.32172038427195504	 -1.0756881492955663	 
3.0	 0.49700767753943154	 -1.037266048002842	 
3.0	 0.672294970806908	 -0.9988439467101177	 
3.0	 0.7946902170066183	 -0.8808207118915493	 
3.0	 0.8980234476344331	 -0.7341096472208658	 
3.0	 1.0013566782622483	 -0.5873985825501822	 
3.0	 1.104689908890063	 -0.44068751787949867	 
3.0	 1.2121462782041852	 -0.2970452356306902	 
3.0	 1.323023261207216	 -0.15594885832449423	 
3.0	 1.4339002442102462	 -0.01485248101829844	 
3.0	 1.5003962813877967	 0.13955333199418918	 
3.0	 1.4854611451120525	 0.3183796017456205	 
3.0	 1.4705260088363081	 0.49720587149705187	 
3.0	 1.4555908725605637	 0.6760321412484828	 
3.0	 1.4406557362848196	 0.854858410999914	 
3.0	 1.4136404039570238	 1.0256474939861635	 
3.0	 1.254468698509389	 1.108510400245103	 
3.0	 1.0966709690214538	 1.1939280412964817	 
3.0	 0.939787029133608	 1.2810447587165816	 
3.0	 0.7829030892457628	 1.3681614761366814	 
3.0	 0.626019149357917	 1.4552781935567813	 
3.0	 0.4502131387273123	 1.4693421926824306	 
3.0	 0.2707642795813523	 1.4693421926824306	 
3.0	 0.09131542043539184	 1.4693421926824306	 
3.0	 -0.08813343871056864	 1.4693421926824306	 
3.0	 -0.26758229785652915	 1.4693421926824308	 
3.0	 -0.4470311570024896	 1.4693421926824308	 
3.0	 -0.6078566931236811	 1.3932376913806133	 
3.0	 -0.7670283985713167	 1.3103747851216732	 
3.0	 -0.9262001040189525	 1.227511878862733	 
3.0	 -1.085371809466588	 1.144648972603793	 
3.0	 -1.1907841005108724	 1.0191273082651928	 
3.0	 -1.235307518883728	 0.8452895728186498	 
3.0	 -1.2798309372565833	 0.6714518373721066	 
3.0	 -1.3243543556294386	 0.49761410192556443	 
3.0	 -1.3272933040979078	 0.3185356277142171	 
3.0	 -1.327293304097908	 0.13908676856825655	 
3.0	 -1.327293304097908	 -0.04036209057770407	 
3.0	 -1.295604842133033	 -0.2141451271010279	 
3.0	 -1.2334226501439116	 -0.3824759562685178	 
3.0	 -1.17124045815479	 -0.5508067854360067	 
3.0	 -1.0897484017181904	 -0.707672274395625	 
3.0	 -0.9717230976916363	 -0.8428459429047924	 
3.0	 -0.8536977936650822	 -0.9780196114139599	 
3.0	 -0.7349884627595804	 -1.1120526590227757	 
3.0	 -0.5601582122403445	 -1.1525035743667815	 
3.0	 -0.38532796172110945	 -1.1929544897107869	 
3.0	 -0.2071141717420833	 -1.1731545809094808	 
3.5	 -0.5616908315526501	 -1.2966279434417196	 
3.5	 -0.42997860435050883	 -1.138535933852011	 
3.5	 -0.2982663771483676	 -0.980443924262302	 
3.5	 -0.16655414994622642	 -0.8223519146725933	 
3.5	 -0.07192154928652006	 -0.640802764757324	 
3.5	 0.014510362456785136	 -0.4540657332850993	 
3.5	 0.21011988253678818	 -0.41238188987586527	 
3.5	 0.4134823196827444	 -0.3809985591297797	 
3.5	 0.6168447568287001	 -0.3496152283836942	 
3.5	 0.8199325762467402	 -0.3656873586898416	 
3.5	 1.0226626858469903	 -0.4008317230117398	 
3.5	 1.2245747288216617	 -0.4404892720088163	 
3.5	 1.3662308728484	 -0.2952327775024343	 
3.5	 1.5060147211368804	 -0.14423055881567412	 
3.5	 1.645798569425361	 0.00677165987108609	 
3.5	 1.6726512633657542	 0.20970588734381676	 
3.5	 1.6958263464639483	 0.4140293362496853	 
3.5	 1.6050192742145561	 0.5986783815224805	 
3.5	 1.5142122019651643	 0.7833274267952754	 
3.5	 1.4234051297157722	 0.9679764720680708	 
3.5	 1.3325980574663803	 1.1526255173408662	 
3.5	 1.2153486731826568	 1.320107302764622	 
3.5	 1.0803396309541125	 1.4650490962356495	 
3.5	 0.8896241531959646	 1.3877910815436927	 
3.5	 0.7022527055044252	 1.3049431721256954	 
3.5	 0.5439918541024795	 1.1734338674959766	 
3.5	 0.3786640013262916	 1.0794344789884003	 
3.5	 0.18339825412765925	 1.1443381172656273	 
3.5	 -0.01186749307097304	 1.209241755542854	 
3.5	 -0.2052865157054388	 1.2780991604671832	 
3.5	 -0.38038306790870846	 1.3861842736751946	 
3.5	 -0.5595174249418051	 1.4526900854165525	 
3.5	 -0.7521386945989761	 1.3803143935972642	 
3.5	 -0.944759964256147	 1.3079387017779758	 
3.5	 -1.0894923815579793	 1.183988789929591	 
3.5	 -1.1759242933012846	 0.9972517584573664	 
3.5	 -1.2623562050445893	 0.8105147269851427	 
3.5	 -1.3339988709387363	 0.6197974851958843	 
3.5	 -1.3529660321413488	 0.41490375399218127	 
3.5	 -1.3719331933439611	 0.2100100227884782	 
3.5	 -1.3909003545465737	 0.005116291584775182	 
3.5	 -1.3887568094497027	 -0.19970828129124202	 
3.5	 -1.368447612756078	 -0.40447334379048844	 
3.5	 -1.3481384160624534	 -0.6092384062897359	 
3.5	 -1.3279621579281438	 -0.8140162143775419	 
3.5	 -1.3089949967255312	 -1.0189099455812447	 
3.5	 -1.2900278355229189	 -1.2238036767849476	 
3.5	 -1.153643539458069	 -1.3246374251025999	 
3.5	 -0.9541710309873822	 -1.3191655079133624	 
3.5	 -0.756441883606945	 -1.2622060612265633	 
4.0	 -0.8428606547601607	 -1.0892160077914341	 
4.0	 -0.6436779760211611	 -1.0892160077914341	 
4.0	 -0.45534247516934306	 -1.0563906087441255	 
4.0	 -0.2953778557961465	 -0.9377101130490368	 
4.0	 -0.1390986446247916	 -0.8145917105928159	 
4.0	 0.006946662130766924	 -0.6791498120373157	 
4.0	 0.17195076689675556	 -0.5731855524342079	 
4.0	 0.3557684866359328	 -0.4964731973697666	 
4.0	 0.5362362053336954	 -0.5244574227618657	 
4.0	 0.7248231239290586	 -0.5812287496471025	 
4.0	 0.9215995803189985	 -0.6116891567764003	 
4.0	 1.1207822590579979	 -0.6116891567764003	 
4.0	 1.3099146661744712	 -0.567270927415723	 
4.0	 1.4896960319738857	 -0.48152479035439105	 
4.0	 1.535986891478161	 -0.3007188324965026	 
4.0	 1.5582196056341366	 -0.10278084743324575	 
4.0	 1.5804523197901128	 0.0951571376300116	 
4.0	 1.6026850339460887	 0.29309512269326893	 
4.0	 1.6230051186654926	 0.4908284818712726	 
4.0	 1.5594014426236376	 0.6795831159961236	 
4.0	 1.4957977665817823	 0.8683377501209748	 
4.0	 1.4321940905399273	 1.0570923842458255	 
4.0	 1.264583077313335	 1.1635736385442572	 
4.0	 1.095540681305332	 1.2689226198469596	 
4.0	 0.9264982852973298	 1.3742716011496616	 
4.0	 0.7372099084114545	 1.430883944950947	 
4.0	 0.5432787259474381	 1.47632000967658	 
4.0	 0.3529049186412598	 1.4445505640737457	 
4.0	 0.16397366485509018	 1.3814734616321327	 
4.0	 -0.02231527713742367	 1.380870808243262	 
4.0	 -0.2052457412616756	 1.459675534021158	 
4.0	 -0.38817620538592745	 1.538480259799054	 
4.0	 -0.5711066695101794	 1.61728498557695	 
4.0	 -0.7661296816598753	 1.6504118159826495	 
4.0	 -0.9640902692117639	 1.6724423694426656	 
4.0	 -1.0730236398155282	 1.5590993796521648	 
4.0	 -1.131221408611069	 1.3686085420329661	 
4.0	 -1.18941917740661	 1.1781177044137665	 
4.0	 -1.2476169462021514	 0.9876268667945667	 
4.0	 -1.3058147149976924	 0.797136029175367	 
4.0	 -1.3640124837932337	 0.6066451915561671	 
4.0	 -1.398612910330098	 0.4129680154043302	 
4.0	 -1.3930219841038256	 0.21386381893028394	 
4.0	 -1.3874310578775533	 0.014759622456236493	 
4.0	 -1.3818401316512805	 -0.18434457401781093	 
4.0	 -1.3611650124019148	 -0.3819415061544459	 
4.0	 -1.327248412447423	 -0.578215304092863	 
4.0	 -1.2933318124929314	 -0.7744891020312801	 
4.0	 -1.2128183362512253	 -0.942078549973379	 
4.0	 -1.028255118141007	 -1.0163968313516283	 
4.5	 -0.6150200372741627	 -1.1606828729545349	 
4.5	 -0.4691819778458455	 -1.0040015831767362	 
4.5	 -0.32334391841752813	 -0.8473202933989372	 
4.5	 -0.17224428358102412	 -0.6957216657058616	 
4.5	 -0.009560325918241892	 -0.5566112920329177	 
4.5	 0.19617264994005756	 -0.519107110094527	 
4.5	 0.4080822897608185	 -0.549307618290373	 
4.5	 0.6016030963156537	 -0.635007069783904	 
4.5	 0.8001984880594679	 -0.6957455275650215	 
4.5	 1.0012887053549966	 -0.6558120234236774	 
4.5	 1.1745423793661427	 -0.5301102709064927	 
4.5	 1.3462321934981185	 -0.6172551313459004	 
4.5	 1.5496378798437465	 -0.6492517930260702	 
4.5	 1.5613263377859963	 -0.43787787964820385	 
4.5	 1.5706463284882004	 -0.22403002738505176	 
4.5	 1.579966319190405	 -0.010182175121900339	 
4.5	 1.589286309892609	 0.2036656771412517	 
4.5	 1.5986063005948135	 0.4175135294044037	 
4.5	 1.6163215674779183	 0.6308280101505296	 
4.5	 1.5678451196306298	 0.8341845535211581	 
4.5	 1.4881846525813143	 1.0328601084687588	 
4.5	 1.408524185531999	 1.2315356634163586	 
4.5	 1.3166576767469484	 1.4221448946338728	 
4.5	 1.1651200267043884	 1.573320642569283	 
4.5	 1.0135823766618288	 1.7244963905046926	 
4.5	 0.8620447266192688	 1.8756721384401027	 
4.5	 0.6672294516384948	 1.863689456860444	 
4.5	 0.46068682504603603	 1.8074941764132362	 
4.5	 0.2814744219668982	 1.7137743430569905	 
4.5	 0.16462309354267518	 1.5344323981870134	 
4.5	 0.04777176511845154	 1.3550904533170351	 
4.5	 -0.13755701983782287	 1.3186193251774172	 
4.5	 -0.35055060601595384	 1.3398678166822553	 
4.5	 -0.5417363477368078	 1.4171933402016643	 
4.5	 -0.7291765416562759	 1.4677071136943125	 
4.5	 -0.9373439150365551	 1.41786625892428	 
4.5	 -1.1455112884168333	 1.3680254041542481	 
4.5	 -1.2641582458754193	 1.2204706275768418	 
4.5	 -1.3319928526621587	 1.017452814894456	 
4.5	 -1.3998274594488982	 0.8144350022120699	 
4.5	 -1.4073056603932468	 0.6016004532719549	 
4.5	 -1.4073056603932468	 0.387549603836004	 
4.5	 -1.4073056603932468	 0.17349875440005438	 
4.5	 -1.3959448871261289	 -0.04019656948868233	 
4.5	 -1.3773607586550896	 -0.25289658242826407	 
4.5	 -1.3157186546364898	 -0.4578795503949033	 
4.5	 -1.2540765506178897	 -0.6628625183615424	 
4.5	 -1.1409639023833003	 -0.8428563988909585	 
4.5	 -0.9807160764851597	 -0.9727096052362607	 
4.5	 -0.7797395978541899	 -1.0440490099678426	 
5.0	 -0.8402858496876701	 -1.1634912693955142	 
5.0	 -0.6575754052926448	 -1.0717691218294063	 
5.0	 -0.4748649608976194	 -0.9800469742632982	 
5.0	 -0.2993439436744325	 -0.8773051473793458	 
5.0	 -0.14178592037849888	 -0.7470303296276233	 
5.0	 0.015772102917434763	 -0.6167555118759006	 
5.0	 0.20194063792226105	 -0.5406522534452023	 
5.0	 0.4042246436225221	 -0.511034017795128	 
5.0	 0.5825487139068721	 -0.5752426179645449	 
5.0	 0.7303951476044359	 -0.715205465377136	 
5.0	 0.8807608650890539	 -0.8471653432994771	 
5.0	 1.0735417543177312	 -0.9139296927662448	 
5.0	 1.2499532816222492	 -0.8106096468929793	 
5.0	 1.386106821509013	 -0.6726831461702196	 
5.0	 1.4617721833943673	 -0.48275997260805265	 
5.0	 1.5374375452797213	 -0.2928367990458862	 
5.0	 1.6131029071650755	 -0.10291362548371931	 
5.0	 1.6862236985346903	 0.08744437066020942	 
5.0	 1.6779194150053331	 0.2917164875049476	 
5.0	 1.669615131475976	 0.4959886043496863	 
5.0	 1.6472221615547007	 0.6969402325363765	 
5.0	 1.5634318417246669	 0.8834214411016017	 
5.0	 1.4796415218946328	 1.0699026496668276	 
5.0	 1.395851202064599	 1.2563838582320532	 
5.0	 1.3120608822345652	 1.4428650667972784	 
5.0	 1.1540851281018554	 1.5711679003566856	 
5.0	 0.9929535361128137	 1.6969958340925757	 
5.0	 0.8243586637661907	 1.7540284861975564	 
5.0	 0.6399922867107171	 1.6656820213186174	 
5.0	 0.45562590965524463	 1.5773355564396798	 
5.0	 0.2798682049258817	 1.4742875399232138	 
5.0	 0.11260496673144575	 1.356733007922623	 
5.0	 -0.06715896973618173	 1.3014192390585544	 
5.0	 -0.2668405388840648	 1.3452750230306356	 
5.0	 -0.4678062177974045	 1.3528768180176822	 
5.0	 -0.6700902234976657	 1.3232585823676082	 
5.0	 -0.8723742291979257	 1.293640346717534	 
5.0	 -1.0379265534710467	 1.1878178733367106	 
5.0	 -1.1871048624660454	 1.0480255596332768	 
5.0	 -1.2980982383192616	 0.888373056315445	 
5.0	 -1.326897178630023	 0.6859707838920759	 
5.0	 -1.3556961189407848	 0.4835685114687067	 
5.0	 -1.3526879028471146	 0.2795632938614177	 
5.0	 -1.3443836193177574	 0.07529117701667881	 
5.0	 -1.3352939020081331	 -0.1288340757259713	 
5.0	 -1.2692262597934183	 -0.3223053281056333	 
5.0	 -1.2031586175787035	 -0.5157765804852952	 
5.0	 -1.1493675188909	 -0.7129511035268519	 
5.0	 -1.097426850022584	 -0.9106838164569035	 
5.0	 -1.0311392965157273	 -1.099552556911164	 
5.5	 -0.6458527520899487	 -1.0984845210941625	 
5.5	 -0.47463286299530427	 -0.997729123150038	 
5.5	 -0.3034129739006598	 -0.8969737252059138	 
5.5	 -0.1760392140720823	 -0.744804436083349	 
5.5	 -0.049513721109729764	 -0.5916404707811446	 
5.5	 0.11868755719528495	 -0.5142908418953536	 
5.5	 0.31580567410805366	 -0.48954516305590323	 
5.5	 0.49981665171561657	 -0.5607834208285674	 
5.5	 0.6967147396466857	 -0.5695845664932694	 
5.5	 0.8882678924376117	 -0.6196938303807195	 
5.5	 1.0824963786300152	 -0.6509537902780221	 
5.5	 1.278753145268797	 -0.6716982649860643	 
5.5	 1.3945271434892184	 -0.5844099380219483	 
5.5	 1.4498011360766891	 -0.3935888532857445	 
5.5	 1.4902497171441627	 -0.20116289445144162	 
5.5	 1.4770910111529694	 -0.002933862538609805	 
5.5	 1.4477707615267756	 0.19305396065475547	 
5.5	 1.4064912694195941	 0.3873833309718396	 
5.5	 1.3652117773124126	 0.5817127012889232	 
5.5	 1.3181383930613175	 0.7746001541252951	 
5.5	 1.2635191561356849	 0.9656096816209752	 
5.5	 1.2088999192100522	 1.1566192091166545	 
5.5	 1.1341960401680606	 1.340073951140349	 
5.5	 1.0493907419106114	 1.5197290708111404	 
5.5	 0.9208082252021349	 1.6649565617555038	 
5.5	 0.7662079372469587	 1.7897229498599847	 
5.5	 0.5930927219738886	 1.7777023997543215	 
5.5	 0.410887380949005	 1.6985246608470561	 
5.5	 0.2286820399241214	 1.6193469219397905	 
5.5	 0.05667438353928426	 1.5215462563028601	 
5.5	 -0.10817832910097318	 1.4106792920095692	 
5.5	 -0.2945076709204851	 1.3490090156530834	 
5.5	 -0.49242794549175295	 1.342592192448421	 
5.5	 -0.6910932435094523	 1.342592192448421	 
5.5	 -0.8836669258017779	 1.3138059825515178	 
5.5	 -1.0653019092643667	 1.2333284489225194	 
5.5	 -1.2064951920497562	 1.1164264988420702	 
5.5	 -1.267600276378233	 0.9273919271212576	 
5.5	 -1.3287053607067096	 0.7383573554004451	 
5.5	 -1.3898104450351865	 0.5493227836796325	 
5.5	 -1.4509155293636629	 0.3602882119588199	 
5.5	 -1.4794973319966314	 0.168069600088503	 
5.5	 -1.4562141603553656	 -0.029226610100096223	 
5.5	 -1.4294791728945477	 -0.2260574038209321	 
5.5	 -1.3996770312259683	 -0.42247464590631295	 
5.5	 -1.369874889557389	 -0.6188918879916938	 
5.5	 -1.308216609372399	 -0.8060242074566808	 
5.5	 -1.2044043483456441	 -0.9685147473903754	 
5.5	 -1.0382648915900843	 -1.0764890969972225	 
5.5	 -0.8445180501076469	 -1.0984845210941625	 
6.0	 -0.4033431542224265	 -1.134086192476716	 
6.0	 -0.22231733642674298	 -1.158028376391266	 
6.0	 -0.04129151863105948	 -1.1819705603058162	 
6.0	 0.13768441508162782	 -1.2009755540536997	 
6.0	 0.24851705203708005	 -1.0558559431642853	 
6.0	 0.3593496889925323	 -0.9107363322748708	 
6.0	 0.4701823259479844	 -0.7656167213854566	 
6.0	 0.5810149629034367	 -0.6204971104960418	 
6.0	 0.7322259959697659	 -0.5353674161736183	 
6.0	 0.908391532912539	 -0.4873124635375106	 
6.0	 1.062753633116513	 -0.40409505610931756	 
6.0	 1.1841163752284465	 -0.2676595046343942	 
6.0	 1.30547911734038	 -0.13122395315947094	 
6.0	 1.4268418594523138	 0.005211598315452565	 
6.0	 1.5482046015642474	 0.14164714979037607	 
6.0	 1.5632675758425532	 0.3223631100643084	 
6.0	 1.574655674768695	 0.5046098825516219	 
6.0	 1.5687986984275974	 0.686939272271205	 
6.0	 1.5591572878102444	 0.8692867923544285	 
6.0	 1.5139900339122054	 1.0348988081603367	 
6.0	 1.3795302207442888	 1.158446910217969	 
6.0	 1.2450704075763728	 1.281995012275601	 
6.0	 1.110610594408456	 1.4055431143332335	 
6.0	 0.9513705264984009	 1.4926618527395017	 
6.0	 0.7870688460814013	 1.572339532746792	 
6.0	 0.6227671656644014	 1.6520172127540826	 
6.0	 0.45846548524740116	 1.7316948927613731	 
6.0	 0.2875811017342815	 1.697616755690345	 
6.0	 0.11518547089300857	 1.6374227248730475	 
6.0	 -0.057210159948263395	 1.5772286940557503	 
6.0	 -0.22569496120155053	 1.508540497738822	 
6.0	 -0.3835187490870263	 1.416697006642966	 
6.0	 -0.5413425369725022	 1.3248535155471097	 
6.0	 -0.6991663248579781	 1.2330100244512536	 
6.0	 -0.8368705417252374	 1.1189425280215228	 
6.0	 -0.9439101686475202	 0.9710030365139044	 
6.0	 -1.0509497955698024	 0.8230635450062866	 
6.0	 -1.157989422492085	 0.6751240534986682	 
6.0	 -1.265029049414368	 0.5271845619910497	 
6.0	 -1.300587497614654	 0.35150325524235804	 
6.0	 -1.3213704672029856	 0.17008759149116864	 
6.0	 -1.3421534367913175	 -0.011328072260020791	 
6.0	 -1.3453612852894312	 -0.1919139154327962	 
6.0	 -1.3075775662983515	 -0.3705643155398135	 
6.0	 -1.2697938473072716	 -0.5492147156468308	 
6.0	 -1.1695914048449352	 -0.6951461823915018	 
6.0	 -1.0441650661362059	 -0.8278556712659507	 
6.0	 -0.8896937921284973	 -0.9116794952032423	 
6.0	 -0.7131210770418778	 -0.9582094307180755	 
6.0	 -0.5437597361503246	 -1.0173524852671862	 
6.5	 -0.5545732746702926	 -0.9413283710242198	 
6.5	 -0.37140523172026885	 -0.9693161765976703	 
6.5	 -0.18823718877024512	 -0.9973039821711206	 
6.5	 -0.004249755919316839	 -1.018002419481681	 
6.5	 0.18056075480281866	 -1.0313786800048037	 
6.5	 0.36537126552495414	 -1.0447549405279262	 
6.5	 0.5324258507131139	 -0.9714012518913295	 
6.5	 0.6971110076357232	 -0.8864739399808809	 
6.5	 0.8519007908689822	 -0.7868647262645605	 
6.5	 0.992423231179654	 -0.6660868599640972	 
6.5	 1.0771218376362466	 -0.5019249815074915	 
6.5	 1.162531334472551	 -0.3374893799209486	 
6.5	 1.2479408313088554	 -0.1730537783344056	 
6.5	 1.322725929207027	 -0.00424375142319907	 
6.5	 1.377856832003277	 0.17265857410088642	 
6.5	 1.4329877347995268	 0.34956089962497144	 
6.5	 1.4881186375957765	 0.526463225149057	 
6.5	 1.528301417919585	 0.7047732461993391	 
6.5	 1.5071653927919009	 0.8888577856391324	 
6.5	 1.486029367664217	 1.0729423250789263	 
6.5	 1.464893342536533	 1.2570268645187201	 
6.5	 1.369861350513207	 1.3989211036005533	 
6.5	 1.222078038031651	 1.5106974059679954	 
6.5	 1.0742947255500952	 1.6224737083354377	 
6.5	 0.9213962595475417	 1.7209842132157174	 
6.5	 0.7368273033890382	 1.7373594885269754	 
6.5	 0.5522583472305347	 1.7537347638382332	 
6.5	 0.3676893910720311	 1.7701100391494913	 
6.5	 0.18312043491352756	 1.7864853144607493	 
6.5	 0.003981641760469362	 1.745082506755469	 
6.5	 -0.1743042837571708	 1.6946050070028313	 
6.5	 -0.352590209274811	 1.6441275072501935	 
6.5	 -0.5308761347924511	 1.593650007497556	 
6.5	 -0.7086421074971001	 1.5423018950933982	 
6.5	 -0.8376246969688548	 1.4092705422771548	 
6.5	 -0.9666072864406093	 1.2762391894609113	 
6.5	 -1.095589875912363	 1.1432078366446685	 
6.5	 -1.2201532738571625	 1.0074681010315252	 
6.5	 -1.2801454386817517	 0.8321546977258498	 
6.5	 -1.3401376035063408	 0.6568412944201745	 
6.5	 -1.4001297683309297	 0.48152789111449895	 
6.5	 -1.4104456027630472	 0.2998887926961625	 
6.5	 -1.3963037139139398	 0.11513529151489041	 
6.5	 -1.3821618250648326	 -0.06961820966638262	 
6.5	 -1.3623255826527783	 -0.2525692857606271	 
6.5	 -1.2675833518970485	 -0.411810483100973	 
6.5	 -1.1728411211413183	 -0.5710516804413188	 
6.5	 -1.0317525783842552	 -0.6804333040956878	 
6.5	 -0.8660251279701336	 -0.7633082785945896	 
6.5	 -0.6911550130805675	 -0.8161114474404393	 
7.0	 -0.27652809913607856	 -1.186536912562458	 
7.0	 -0.09084173794207064	 -1.1865369125624583	 
7.0	 0.09410087640840958	 -1.184084236993151	 
7.0	 0.24851378960719356	 -1.080952879148234	 
7.0	 0.4029267028059775	 -0.9778215213033166	 
7.0	 0.5573396160047615	 -0.8746901634583992	 
7.0	 0.7178204549120738	 -0.7817246092113397	 
7.0	 0.8818828619257248	 -0.6947593785823192	 
7.0	 1.043539307757099	 -0.6035982301905071	 
7.0	 1.201466308362172	 -0.5059330510663338	 
7.0	 1.3410660982510003	 -0.38811666052194327	 
7.0	 1.453232266229181	 -0.2401363392134596	 
7.0	 1.5359505528953437	 -0.08108196156481652	 
7.0	 1.5490868297585596	 0.10413915754324994	 
7.0	 1.5622231066217753	 0.2893602766513165	 
7.0	 1.5753593834849906	 0.4745813957593824	 
7.0	 1.5750071098788163	 0.6591540930799145	 
7.0	 1.5441645600250786	 0.8422610614126117	 
7.0	 1.5133220101713407	 1.0253680297453085	 
7.0	 1.4824794603176028	 1.2084749980780056	 
7.0	 1.3443247492594304	 1.3258442919294184	 
7.0	 1.1952124040134708	 1.4365011183285217	 
7.0	 1.0427992050354888	 1.5342353785782106	 
7.0	 0.8588847091943547	 1.5086446975991288	 
7.0	 0.6749702133532212	 1.4830540166200472	 
7.0	 0.49105571751208693	 1.4574633356409652	 
7.0	 0.3071412216709528	 1.4318726546618832	 
7.0	 0.12239359852936786	 1.4152097653084499	 
7.0	 -0.0630803061873493	 1.4063297088556057	 
7.0	 -0.24855421090406543	 1.3974496524027615	 
7.0	 -0.4340281156207826	 1.3885695959499174	 
7.0	 -0.6193508281853777	 1.384280841392909	 
7.0	 -0.8038387060855303	 1.4053437861388391	 
7.0	 -0.9635938185335933	 1.3727771947115417	 
7.0	 -1.0673491045895716	 1.218782826798576	 
7.0	 -1.1689607878665944	 1.0638816319495845	 
7.0	 -1.207218259670596	 0.8821791537478899	 
7.0	 -1.2454757314745977	 0.7004766755461943	 
7.0	 -1.2837332032785995	 0.5187741973444987	 
7.0	 -1.2893040716719	 0.33505079743388916	 
7.0	 -1.2737207289713335	 0.15001949153202748	 
7.0	 -1.258137386270767	 -0.03501181436983421	 
7.0	 -1.2463422856796706	 -0.2202023613337329	 
7.0	 -1.2463422856796706	 -0.405888722527741	 
7.0	 -1.1892577610316606	 -0.5590785800615226	 
7.0	 -1.0295897649179937	 -0.6538707514182213	 
7.0	 -0.8699217688043269	 -0.74866292277492	 
7.0	 -0.71970225320719	 -0.8576557233441874	 
7.0	 -0.5687863500825868	 -0.9655181863206659	 
7.0	 -0.4065377265713419	 -1.0558221668651466	 
7.5	 -0.6056684126084616	 -1.000041175002838	 
7.5	 -0.43662718950509766	 -1.0915371195414232	 
7.5	 -0.2675859664017337	 -1.1830330640800084	 
7.5	 -0.0917564711731258	 -1.1574809163271547	 
7.5	 0.08672857263979984	 -1.0861399595744792	 
7.5	 0.26521361645272556	 -1.0147990028218035	 
7.5	 0.43867639037380624	 -0.9344668536749612	 
7.5	 0.5887540457766143	 -0.8155621781719463	 
7.5	 0.7060040800422902	 -0.6632504174967218	 
7.5	 0.857732666336722	 -0.5706574002393404	 
7.5	 1.0482635888760168	 -0.5452721578411593	 
7.5	 1.2387945114153116	 -0.5198869154429784	 
7.5	 1.4088864912662047	 -0.4672013611773339	 
7.5	 1.4869041953825506	 -0.29153212420140967	 
7.5	 1.5649218994988967	 -0.11586288722548542	 
7.5	 1.6357238617332335	 0.06133660358677326	 
7.5	 1.6357238617332337	 0.2535511789323729	 
7.5	 1.6357238617332337	 0.44576575427797255	 
7.5	 1.632530438431581	 0.6374570160069779	 
7.5	 1.5711806452250767	 0.8196180597260132	 
7.5	 1.5098308520185726	 1.0017791034450487	 
7.5	 1.4154840451871	 1.1556802821234533	 
7.5	 1.2449210711019028	 1.2443071112808899	 
7.5	 1.0743580970167053	 1.3329339404383265	 
7.5	 0.9047118673098619	 1.423280063069372	 
7.5	 0.7360744953642125	 1.5155182317337264	 
7.5	 0.5674371234185632	 1.6077564003980807	 
7.5	 0.3818302364071537	 1.6466029081898932	 
7.5	 0.19088440972241594	 1.668651360447846	 
7.5	 -6.141696232073168e-05	 1.690699812705799	 
7.5	 -0.1910072436470585	 1.7127482649637518	 
7.5	 -0.3823281057109422	 1.7312532156714027	 
7.5	 -0.5736589369835603	 1.7496639728480692	 
7.5	 -0.7224223754351166	 1.6557189677453317	 
7.5	 -0.8535222293184184	 1.5151512926309372	 
7.5	 -0.9846220832017201	 1.3745836175165422	 
7.5	 -1.1157219370850213	 1.2340159424021484	 
7.5	 -1.1514688026466247	 1.0504944870436823	 
7.5	 -1.1698796800038775	 0.8591636673354464	 
7.5	 -1.1907619971818386	 0.6681417539148844	 
7.5	 -1.2200108395274267	 0.47816557594319253	 
7.5	 -1.249259681873015	 0.28818939797150056	 
7.5	 -1.278508524218603	 0.0982132199998097	 
7.5	 -1.263336468752236	 -0.09302554202663574	 
7.5	 -1.244925591394983	 -0.2843563617348716	 
7.5	 -1.205086471865704	 -0.4694822742746146	 
7.5	 -1.1184148397315448	 -0.6410470467615395	 
7.5	 -1.002427089241811	 -0.7848878693111878	 
7.5	 -0.8231215413391128	 -0.8330651530422916	 
7.5	 -0.6309069659935138	 -0.8330651530422915	 
8.0	 0.08071868994500171	 -1.0376518693470522	 
8.0	 0.2670785473509068	 -1.0157305573928022	 
8.0	 0.4534384047568119	 -0.9938092454385523	 
8.0	 0.639798262162717	 -0.9718879334843022	 
8.0	 0.8261581195686221	 -0.9499666215300524	 
8.0	 0.9304110352871713	 -0.824650836174112	 
8.0	 0.9939786226619161	 -0.6481014034208488	 
8.0	 1.0575462100366608	 -0.47155197066758536	 
8.0	 1.1211137974114056	 -0.2950025379143223	 
8.0	 1.1858509809785993	 -0.11892037091399807	 
8.0	 1.2614325085530065	 0.052829368706369215	 
8.0	 1.3370140361274139	 0.22457910832673622	 
8.0	 1.412595563701821	 0.39632884794710327	 
8.0	 1.4881770912762287	 0.5680785875674705	 
8.0	 1.5300287252989644	 0.7460711374666216	 
8.0	 1.5209238861208414	 0.9334948346708044	 
8.0	 1.5118190469427184	 1.120918531874988	 
8.0	 1.5027142077645954	 1.3083422290791713	 
8.0	 1.34995396414456	 1.3874383714990877	 
8.0	 1.1722599549320378	 1.4477324795041395	 
8.0	 0.9945659457195155	 1.5080265875091916	 
8.0	 0.8168719365069934	 1.568320695514243	 
8.0	 0.637973790972463	 1.6191035649759955	 
8.0	 0.45086024841843186	 1.6049946116829374	 
8.0	 0.2637467058644012	 1.5908856583898796	 
8.0	 0.07663316331037012	 1.5767767050968216	 
8.0	 -0.11048037924366105	 1.5626677518037635	 
8.0	 -0.2975939217976922	 1.5485587985107057	 
8.0	 -0.4847074643517232	 1.5344498452176476	 
8.0	 -0.6633520382458724	 1.4910049813464417	 
8.0	 -0.8291957650776862	 1.4032188854047747	 
8.0	 -0.9950394919095	 1.3154327894631073	 
8.0	 -1.1608832187413138	 1.22764669352144	 
8.0	 -1.3267269455731276	 1.1398605975797729	 
8.0	 -1.41038771634227	 0.9992218915160145	 
8.0	 -1.4214655840493369	 0.8119044571506846	 
8.0	 -1.4325434517564037	 0.6245870227853558	 
8.0	 -1.4436213194634706	 0.43726958842002606	 
8.0	 -1.4546991871705373	 0.24995215405469629	 
8.0	 -1.4657770548776041	 0.0626347196893665	 
8.0	 -1.4167723548966655	 -0.11407871668470095	 
8.0	 -1.3422416304195572	 -0.28628705411080296	 
8.0	 -1.2677109059424496	 -0.458495391536904	 
8.0	 -1.1272699846350835	 -0.5640819758658502	 
8.0	 -0.9542712958071048	 -0.6367593040634733	 
8.0	 -0.7815269584450358	 -0.7099960764818675	 
8.0	 -0.6130318492435185	 -0.7925789956922815	 
8.0	 -0.44453674004200133	 -0.8751619149026953	 
8.0	 -0.2725537560397695	 -0.9427033322826162	 
8.0	 -0.0877764192565149	 -0.9550689501366385	 
8.5	 -0.3461365300632237	 -1.08768340934899	 
8.5	 -0.16486340604842267	 -1.1036782938470926	 
8.5	 0.016409717966378412	 -1.1196731783451952	 
8.5	 0.19768284198117939	 -1.135668062843298	 
8.5	 0.37895596599598047	 -1.1516629473414006	 
8.5	 0.5602290900107816	 -1.1676578318395034	 
8.5	 0.7108573418649888	 -1.1254949596805421	 
8.5	 0.8001509037621465	 -0.9669312764995831	 
8.5	 0.8844911135775517	 -0.8058700467511141	 
8.5	 0.9588853076557463	 -0.6397939024448079	 
8.5	 1.0332795017339411	 -0.4737177581385017	 
8.5	 1.1126007500337842	 -0.3101259006658626	 
8.5	 1.2018943119309418	 -0.15156221748490356	 
8.5	 1.2760880644104657	 0.012983887302422642	 
8.5	 1.3196207733933327	 0.18967764799817038	 
8.5	 1.3631534823761995	 0.3663714086939176	 
8.5	 1.4066861913590665	 0.5430651693896653	 
8.5	 1.4502189003419335	 0.719758930085413	 
8.5	 1.4724098550490223	 0.8952516924369335	 
8.5	 1.4093280402455184	 1.065945765155612	 
8.5	 1.3383857371754841	 1.229265571762966	 
8.5	 1.1720615006682	 1.3031034358332516	 
8.5	 1.0057372641609157	 1.3769412999035378	 
8.5	 0.8394130276536311	 1.4507791639738237	 
8.5	 0.673088791146347	 1.5246170280441094	 
8.5	 0.4945600464673717	 1.5408848299110693	 
8.5	 0.312582625284981	 1.5408848299110691	 
8.5	 0.13060520410259047	 1.5408848299110693	 
8.5	 -0.05137221707980011	 1.5408848299110691	 
8.5	 -0.23223189470362124	 1.5340917304178208	 
8.5	 -0.4046154360767523	 1.4757848141569592	 
8.5	 -0.5769989774498835	 1.417477897896098	 
8.5	 -0.7493825188230148	 1.3591709816352369	 
8.5	 -0.9038090151858764	 1.2784710386795481	 
8.5	 -0.9981735038964465	 1.1228717935316817	 
8.5	 -1.0925379926070167	 0.9672725483838154	 
8.5	 -1.1869024813175861	 0.81167330323595	 
8.5	 -1.2477244712509834	 0.644799593244498	 
8.5	 -1.2665013795386701	 0.4637934896585998	 
8.5	 -1.2852782878263571	 0.28278738607270143	 
8.5	 -1.304055196114044	 0.10178128248680315	 
8.5	 -1.3228321044017308	 -0.07922482109909514	 
8.5	 -1.3287176476620521	 -0.26089778684898846	 
8.5	 -1.3287176476620524	 -0.44287520803137864	 
8.5	 -1.2758139852290964	 -0.6051929263077094	 
8.5	 -1.156974802545954	 -0.7430081304014374	 
8.5	 -1.038135619862812	 -0.8808233344951654	 
8.5	 -0.8724272617899251	 -0.9428441534394382	 
8.5	 -0.6960370047342839	 -0.9875907626521758	 
8.5	 -0.5209167093905009	 -1.0370112203838602	 
9.0	 0.5815918629528409	 -0.8875881173618282	 
9.0	 0.7335942006175971	 -0.7785162609690203	 
9.0	 0.8855965382823532	 -0.6694444045762125	 
9.0	 1.0375988759471093	 -0.5603725481834045	 
9.0	 1.1617012622936176	 -0.42447516156917653	 
9.0	 1.2647228669165003	 -0.26830880958050285	 
9.0	 1.3677444715393823	 -0.11214245759182925	 
9.0	 1.4280397409507588	 0.057989901170152326	 
9.0	 1.437145143394254	 0.2448547511523408	 
9.0	 1.446250545837749	 0.43171960113452934	 
9.0	 1.4553559482812441	 0.6185844511167181	 
9.0	 1.46108348606081	 0.8049906368334674	 
9.0	 1.4024794967572065	 0.9826615487752564	 
9.0	 1.343875507453603	 1.1603324607170455	 
9.0	 1.2561120994590296	 1.3165864138190162	 
9.0	 1.1041097617942737	 1.425658270211824	 
9.0	 0.9521074241295173	 1.5347301266046323	 
9.0	 0.8001050864647611	 1.6438019829974402	 
9.0	 0.6172796630762638	 1.6628441174386281	 
9.0	 0.4303232082872461	 1.6698201138008577	 
9.0	 0.24336675349822817	 1.676796110163087	 
9.0	 0.056410298709210854	 1.6837721065253166	 
9.0	 -0.13054615607980696	 1.6907481028875462	 
9.0	 -0.31568896866475626	 1.6751015476745337	 
9.0	 -0.4991461838967558	 1.6384296143761168	 
9.0	 -0.6826033991287558	 1.6017576810776997	 
9.0	 -0.8461191013169438	 1.5250214110707263	 
9.0	 -0.9859821587285305	 1.4007647988361773	 
9.0	 -1.1258452161401173	 1.2765081866016281	 
9.0	 -1.2657082735517031	 1.1522515743670796	 
9.0	 -1.40557133096329	 1.0279949621325306	 
9.0	 -1.5454343883748767	 0.9037383498979813	 
9.0	 -1.6084062551693694	 0.7537419243973122	 
9.0	 -1.5715392626487108	 0.5703238081301191	 
9.0	 -1.5346722701280524	 0.3869056918629258	 
9.0	 -1.4981633347315282	 0.20341772530749394	 
9.0	 -1.4633878039296082	 0.019591603741574537	 
9.0	 -1.4286122731276878	 -0.1642345178243459	 
9.0	 -1.3938367423257676	 -0.3480606393902663	 
9.0	 -1.2813876199661376	 -0.4860903466649412	 
9.0	 -1.137370605284445	 -0.6055075983277435	 
9.0	 -0.9931658206105971	 -0.7246966108949138	 
9.0	 -0.848230441043292	 -0.8429975671979161	 
9.0	 -0.7032950614759861	 -0.961298523500919	 
9.0	 -0.5224693800288952	 -0.9952398247199725	 
9.0	 -0.3359455495011551	 -0.9807401296272142	 
9.0	 -0.14942171897341502	 -0.9662404345344558	 
9.0	 0.03391580301264538	 -0.9311254901314069	 
9.0	 0.21611340475568214	 -0.8886353214848924	 
9.0	 0.4009132807357819	 -0.8595548913727655	 
9.5	 0.08775707844232992	 -1.1436621376667755	 
9.5	 0.27821749517132716	 -1.1436621376667755	 
9.5	 0.4686779119003244	 -1.1436621376667757	 
9.5	 0.6591383286293216	 -1.1436621376667755	 
9.5	 0.8353148644651448	 -1.0884654069069881	 
9.5	 1.0018669556489719	 -0.9960772514817526	 
9.5	 1.1661963965714934	 -0.9002339119140182	 
9.5	 1.3193247402323154	 -0.7869780921594622	 
9.5	 1.4724530838931376	 -0.6737222724049062	 
9.5	 1.5872220901875442	 -0.5293136097755883	 
9.5	 1.6666565161559999	 -0.356208606059216	 
9.5	 1.736099102158089	 -0.1806835585405748	 
9.5	 1.7446741769288407	 0.00958372302212393	 
9.5	 1.7532492516995926	 0.19985100458482294	 
9.5	 1.7618243264703446	 0.3901182861475219	 
9.5	 1.6455688907462664	 0.5405277987572856	 
9.5	 1.5283187937488898	 0.6906197209073104	 
9.5	 1.411068696751513	 0.8407116430573351	 
9.5	 1.238282991917323	 0.9207508873677864	 
9.5	 1.0654000674672996	 1.00066749874609	 
9.5	 0.8903777941890023	 1.0746065860410376	 
9.5	 0.7060468337925341	 1.1225364032731004	 
9.5	 0.5217158733960655	 1.1704662205051635	 
9.5	 0.3560955195192453	 1.2622383736696832	 
9.5	 0.1939578458725021	 1.3621710766502657	 
9.5	 0.031820172225758475	 1.4621037796308483	 
9.5	 -0.12945829375705784	 1.5634149054282631	 
9.5	 -0.29063536799189377	 1.664785130819168	 
9.5	 -0.48109578472089126	 1.6647851308191681	 
9.5	 -0.6715562014498877	 1.664785130819168	 
9.5	 -0.8590910744950588	 1.6514840561300177	 
9.5	 -1.031973998945082	 1.571567444751714	 
9.5	 -1.2048569233951052	 1.4916508333734106	 
9.5	 -1.2615902982431324	 1.3228982260109028	 
9.5	 -1.2934503638061046	 1.1351214794129643	 
9.5	 -1.3253104293690772	 0.9473447328150254	 
9.5	 -1.3433583546172045	 0.7584045476693648	 
9.5	 -1.3433583546172043	 0.5679441309403678	 
9.5	 -1.3433583546172043	 0.3774837142113707	 
9.5	 -1.3406101004611548	 0.18724209715925028	 
9.5	 -1.3104744573211173	 -0.0008190986072332401	 
9.5	 -1.2608830372279893	 -0.18197466692266617	 
9.5	 -1.1596607571445547	 -0.3424046225081611	 
9.5	 -1.0276563742215914	 -0.47969997286537835	 
9.5	 -0.8789081510911261	 -0.5958887578491104	 
9.5	 -0.7151817352083512	 -0.6931966767599784	 
9.5	 -0.5508367386284319	 -0.7894275891493983	 
9.5	 -0.3883823384994437	 -0.8884047843233314	 
9.5	 -0.22575875866211106	 -0.9862547710019345	 
9.5	 -0.04521127932413992	 -1.0313242469273378	 
10.0	 -0.10223638744893573	 -1.056722666265825	 
10.0	 0.08626117376692834	 -1.0872673645003537	 
10.0	 0.2747587349827924	 -1.1178120627348829	 
10.0	 0.4632562961986564	 -1.1483567609694116	 
10.0	 0.6518055354595118	 -1.1700810795309335	 
10.0	 0.8406480625689716	 -1.1417471929376726	 
10.0	 1.0294905896784314	 -1.1134133063444116	 
10.0	 1.1928377394932217	 -1.0397722406017111	 
10.0	 1.3150658655305723	 -0.8930596154463948	 
10.0	 1.4255726274593123	 -0.739201411949318	 
10.0	 1.4999904639344015	 -0.5633426766276576	 
10.0	 1.550516555064643	 -0.3799776625818603	 
10.0	 1.5900447692835837	 -0.19315734929867262	 
10.0	 1.6295729835025246	 -0.00633703601548468	 
10.0	 1.6125076875585118	 0.18098341474746388	 
10.0	 1.5762873876466301	 0.36847314526319114	 
10.0	 1.5400670877347489	 0.555962875778919	 
10.0	 1.5038467878228674	 0.7434526062946468	 
10.0	 1.4676264879109862	 0.9309423368103741	 
10.0	 1.3660285970778396	 1.0916073780917097	 
10.0	 1.260124531829167	 1.2505055786427914	 
10.0	 1.1152621669453775	 1.3486545142956623	 
10.0	 0.9266708961017218	 1.3786151841169771	 
10.0	 0.738079625258066	 1.4085758539382915	 
10.0	 0.5490913674204937	 1.389982305539176	 
10.0	 0.36003541574903775	 1.3631093393432578	 
10.0	 0.17097946407758174	 1.3362363731473397	 
10.0	 -0.019856768232822078	 1.3345384640099045	 
10.0	 -0.21081306997373592	 1.3345384640099045	 
10.0	 -0.39854197660554924	 1.365940549031911	 
10.0	 -0.5855063025448656	 1.4047818929919753	 
10.0	 -0.7756240948056814	 1.4129404682812399	 
10.0	 -0.9665803965465949	 1.4129404682812399	 
10.0	 -1.121635014053861	 1.352827099699758	 
10.0	 -1.2121825148637106	 1.1847037542903318	 
10.0	 -1.3027300156735608	 1.016580408880906	 
10.0	 -1.3346381852669469	 0.8309284800311117	 
10.0	 -1.351212065742041	 0.6406927955222262	 
10.0	 -1.3677859462171353	 0.4504571110133408	 
10.0	 -1.37956014174922	 0.2600127405733944	 
10.0	 -1.37956014174922	 0.06905643883248075	 
10.0	 -1.3795601417492198	 -0.1218998629084329	 
10.0	 -1.3132973607477783	 -0.29826515816109855	 
10.0	 -1.2312865918873885	 -0.46905907871591584	 
10.0	 -1.0415279634770682	 -0.4904125823722493	 
10.0	 -0.8584547543237122	 -0.5286095740939281	 
10.0	 -0.7057042885733256	 -0.6432027867533462	 
10.0	 -0.5580464291810696	 -0.7639879094097276	 
10.0	 -0.41612656190572517	 -0.8917496425191178	 
10.0	 -0.27464706751478285	 -1.01991157041859	 
10.5	 0.4979338489441007	 -1.0109853984109949	 
10.5	 0.6864054660183398	 -1.010985398410995	 
10.5	 0.8748770830925789	 -1.0109853984109949	 
10.5	 1.0209588134734375	 -0.9273535685855754	 
10.5	 1.1323839115032002	 -0.7753469964525377	 
10.5	 1.243809009532963	 -0.6233404243195	 
10.5	 1.3552341075627257	 -0.4713338521864625	 
10.5	 1.4213748051677058	 -0.30450747979456405	 
10.5	 1.4213748051677058	 -0.11603586272032496	 
10.5	 1.4213748051677058	 0.07243575435391406	 
10.5	 1.421374805167706	 0.2609073714281534	 
10.5	 1.421374805167706	 0.44937898850239244	 
10.5	 1.4058753321313038	 0.6362122263730839	 
10.5	 1.3664706613703106	 0.82051855389549	 
10.5	 1.3270659906093176	 1.004824881417896	 
10.5	 1.244179185286906	 1.165520805495469	 
10.5	 1.1110609600347043	 1.298941525581529	 
10.5	 0.9779427347825027	 1.4323622456675893	 
10.5	 0.8448245095303012	 1.5657829657536486	 
10.5	 0.6891906191925066	 1.633902329259919	 
10.5	 0.5021306717133883	 1.6108778533334582	 
10.5	 0.31507072423427057	 1.5878533774069976	 
10.5	 0.12801077675515232	 1.564828901480537	 
10.5	 -0.0594100504192908	 1.5452473876832993	 
10.5	 -0.2471786304390791	 1.5289835996887748	 
10.5	 -0.43494721045886786	 1.5127198116942506	 
10.5	 -0.6227157904786567	 1.4964560236997264	 
