0.5	 -0.7171436246880077	 -0.8919910652852543	 
0.5	 -0.5285925349928782	 -0.9183946511456711	 
0.5	 -0.3400414452977485	 -0.9447982370060879	 
0.5	 -0.15025747917251378	 -0.9535076904773407	 
0.5	 0.04013333670763637	 -0.9535076904773409	 
0.5	 0.2305241525877865	 -0.9535076904773407	 
0.5	 0.4044237769587019	 -1.0238080590820176	 
0.5	 0.5749536160997312	 -1.1084734991035754	 
0.5	 0.7584045464091755	 -1.1380575660536003	 
0.5	 0.9487953622893256	 -1.1380575660536003	 
0.5	 1.1221645501058664	 -1.0940697766240763	 
0.5	 1.2629630653189592	 -0.9659119017770827	 
0.5	 1.403761580532052	 -0.8377540269300893	 
0.5	 1.4921250773866386	 -0.6817015610362472	 
0.5	 1.519719881629	 -0.4933211226931564	 
0.5	 1.5473146858713613	 -0.3049406843500661	 
0.5	 1.5749094901137226	 -0.11656024600697532	 
0.5	 1.602504294356084	 0.07182019233611554	 
0.5	 1.6019394673786473	 0.26059881272759305	 
0.5	 1.5796820946639532	 0.4496841694619222	 
0.5	 1.5574247219492587	 0.6387695261962513	 
0.5	 1.5351673492345648	 0.8278548829305798	 
0.5	 1.5124721093567044	 1.0168358170655218	 
0.5	 1.447000982367434	 1.1956155538990454	 
0.5	 1.3815298553781636	 1.3743952907325685	 
0.5	 1.3160587283888932	 1.5531750275660923	 
0.5	 1.139309148867245	 1.5998169447134698	 
0.5	 0.9519968147164355	 1.6339160978772176	 
0.5	 0.7646844805656258	 1.6680152510409658	 
0.5	 0.5773721464148172	 1.7021144042047136	 
0.5	 0.39005981226400754	 1.7362135573684614	 
0.5	 0.20228403223971617	 1.7389127677551897	 
0.5	 0.014046938817961402	 1.7103565174474404	 
0.5	 -0.1741901546037934	 1.6818002671396912	 
0.5	 -0.3624272480255482	 1.653244016831942	 
0.5	 -0.5371951914673292	 1.6014502545454126	 
0.5	 -0.6555354426008364	 1.4523051985322566	 
0.5	 -0.7738756937343445	 1.3031601425191002	 
0.5	 -0.8922159448678525	 1.1540150865059435	 
0.5	 -0.98853981010589	 0.9919475268832457	 
0.5	 -1.0610646098841159	 0.8159111210217382	 
0.5	 -1.1335894096623413	 0.6398747151602306	 
0.5	 -1.1564410282927033	 0.4540067866842921	 
0.5	 -1.1564410282927033	 0.2636159708041411	 
0.5	 -1.1564410282927033	 0.07322515492399106	 
0.5	 -1.1406127149983627	 -0.11148463841264797	 
0.5	 -1.0195408818590566	 -0.25842093070218863	 
0.5	 -0.8984690487197506	 -0.4053572229917294	 
0.5	 -0.7727608196150411	 -0.5482658109417817	 
0.5	 -0.6912405284767751	 -0.703370566987267	 
1.0	 -0.8534761402029253	 -0.6689126328162907	 
1.0	 -0.6660515286932519	 -0.6855871089752472	 
1.0	 -0.47862691718357864	 -0.702261585134204	 
1.0	 -0.29120230567390537	 -0.7189360612931607	 
1.0	 -0.13745342251580725	 -0.8151016942920077	 
1.0	 0.004911278066645869	 -0.9381395550617566	 
1.0	 0.18441754030841181	 -0.993707607166398	 
1.0	 0.3645231383118064	 -1.04818693097431	 
1.0	 0.5503080743060411	 -1.0779438662027014	 
1.0	 0.736132777657002	 -1.1075276925146391	 
1.0	 0.9219574810079633	 -1.1371115188265768	 
1.0	 1.1009433793953627	 -1.1274377251387289	 
1.0	 1.2658182843301284	 -1.0367608875368388	 
1.0	 1.4306931892648944	 -0.9460840499349488	 
1.0	 1.4598328647056213	 -0.7653096756975208	 
1.0	 1.4793707630444874	 -0.5781618900220616	 
1.0	 1.4989086613833535	 -0.39101410434660194	 
1.0	 1.5184465597222194	 -0.20386631867114216	 
1.0	 1.5379844580610855	 -0.016718532995682975	 
1.0	 1.5395620611629142	 0.17028897467857923	 
1.0	 1.5171033076300435	 0.3571087475734135	 
1.0	 1.4946445540971727	 0.5439285204682472	 
1.0	 1.4721858005643016	 0.7307482933630816	 
1.0	 1.449727047031431	 0.9175680662579158	 
1.0	 1.4272682934985599	 1.1043878391527495	 
1.0	 1.399211874845933	 1.2876455009224874	 
1.0	 1.2394880788755531	 1.3871157585653633	 
1.0	 1.0797642829051732	 1.4865860162082392	 
1.0	 0.9200404869347933	 1.5860562738511146	 
1.0	 0.7540161782336001	 1.665690226149987	 
1.0	 0.5661688441001551	 1.6766173581472477	 
1.0	 0.3783215099667103	 1.6875444901445085	 
1.0	 0.19047417583326537	 1.698471622141769	 
1.0	 0.002626841699820498	 1.7093987541390296	 
1.0	 -0.17892088534059952	 1.693288098490178	 
1.0	 -0.34259384634156426	 1.600459304509515	 
1.0	 -0.506266807342528	 1.5076305105288526	 
1.0	 -0.6699397683434928	 1.4148017165481894	 
1.0	 -0.8336127293444574	 1.3219729225675267	 
1.0	 -0.9970086104971668	 1.228939590473036	 
1.0	 -1.0375075050658364	 1.0451846920527665	 
1.0	 -1.0780063996345062	 0.8614297936324973	 
1.0	 -1.1185052942031757	 0.677674895212229	 
1.0	 -1.1506986765269753	 0.4925089572426028	 
1.0	 -1.1731574300598464	 0.3056891843477686	 
1.0	 -1.1956161835927173	 0.11886941145293442	 
1.0	 -1.207356015055459	 -0.06808685214178486	 
1.0	 -1.1896615568406077	 -0.25541792084959575	 
1.0	 -1.1415999863103918	 -0.4268202084756018	 
1.0	 -0.9975380632566586	 -0.5478664206459463	 
1.5	 -0.9306174698825669	 -0.6292942456885631	 
1.5	 -0.7479815059475294	 -0.6609214676120054	 
1.5	 -0.5663732215017936	 -0.6956807101126952	 
1.5	 -0.4005033482480504	 -0.778405323353629	 
1.5	 -0.23463347499430703	 -0.8611299365945628	 
1.5	 -0.06876360174056365	 -0.9438545498354965	 
1.5	 0.07000450950050938	 -1.06347147835605	 
1.5	 0.1985377135436373	 -1.1970206900627562	 
1.5	 0.36200394743477415	 -1.2673354317776695	 
1.5	 0.5434811930676394	 -1.305047310630143	 
1.5	 0.7223357484818353	 -1.3179072254311466	 
1.5	 0.8919432653524437	 -1.2431444893251073	 
1.5	 1.0615507822230519	 -1.1683817532190681	 
1.5	 1.1969254214490659	 -1.059951097072139	 
1.5	 1.268855618474754	 -0.8891230453800336	 
1.5	 1.3326207751122487	 -0.7159311977021069	 
1.5	 1.363076738035916	 -0.5330962699353717	 
1.5	 1.3935327009595833	 -0.3502613421686367	 
1.5	 1.4239886638832502	 -0.1674264144019021	 
1.5	 1.4544446268069176	 0.015408513364832972	 
1.5	 1.4460130281353305	 0.19977361441443453	 
1.5	 1.4300176040165395	 0.38443634182940245	 
1.5	 1.4140221798977486	 0.5690990692443708	 
1.5	 1.3980267557789576	 0.7537617966593393	 
1.5	 1.3689578233750375	 0.936605065937416	 
1.5	 1.3339224934501221	 1.118617983462869	 
1.5	 1.2835218784713913	 1.2924816693026526	 
1.5	 1.1524922247663505	 1.423582418114443	 
1.5	 1.0214625710613099	 1.5546831669262333	 
1.5	 0.8839297161567422	 1.670905518632643	 
1.5	 0.6987126170279662	 1.6780331184668205	 
1.5	 0.51349551789919	 1.685160718300998	 
1.5	 0.32827841877041397	 1.6922883181351756	 
1.5	 0.14306131964163785	 1.699415917969353	 
1.5	 -0.03639394026691564	 1.6588952796364216	 
1.5	 -0.21457338557751857	 1.6078241355540648	 
1.5	 -0.3927528308881206	 1.556752991471708	 
1.5	 -0.5538804849349745	 1.4828468636483638	 
1.5	 -0.653453322027733	 1.3265093230435112	 
1.5	 -0.7530261591204913	 1.1701717824386582	 
1.5	 -0.8525989962132497	 1.0138342418338055	 
1.5	 -0.938754250131725	 0.8498164291931734	 
1.5	 -1.023135269951514	 0.6847830386831102	 
1.5	 -1.1075162897713036	 0.5197496481730463	 
1.5	 -1.1918973095910932	 0.3547162576629823	 
1.5	 -1.2404350505944102	 0.18105101896178075	 
1.5	 -1.2404350505944102	 -0.00430317303040266	 
1.5	 -1.2259530336470366	 -0.1883611380641957	 
1.5	 -1.1816439520486572	 -0.36343861170966624	 
1.5	 -1.039101910431209	 -0.47900351860294654	 
2.0	 -0.8792791082208763	 -0.43544478195351266	 
2.0	 -0.6901186859600552	 -0.47045933286821584	 
2.0	 -0.5009582636992339	 -0.5054738837829189	 
2.0	 -0.31231578693762596	 -0.5429468722257139	 
2.0	 -0.12510723789902856	 -0.5872260241204104	 
2.0	 0.056881711685325936	 -0.6408988652290807	 
2.0	 0.19336036796561318	 -0.7764763726024559	 
2.0	 0.32983902424590056	 -0.9120538799758315	 
2.0	 0.47262214624496185	 -1.040778220276301	 
2.0	 0.6190920561894573	 -1.1654948976153876	 
2.0	 0.7628682411981057	 -1.2931786802059058	 
2.0	 0.9011186528921914	 -1.4269490348890954	 
2.0	 1.0662310143903317	 -1.5102776748758275	 
2.0	 1.2256590370022407	 -1.4811809915746985	 
2.0	 1.330037935326637	 -1.3195866546991881	 
2.0	 1.434416833651033	 -1.1579923178236782	 
2.0	 1.4547669384172963	 -0.9672781525498564	 
2.0	 1.4727619202008688	 -0.7757478292162926	 
2.0	 1.4907569019844416	 -0.5842175058827294	 
2.0	 1.5087518837680143	 -0.3926871825491656	 
2.0	 1.5267468655515868	 -0.20115685921560184	 
2.0	 1.5107949172836432	 -0.009527684792479618	 
2.0	 1.493915677061659	 0.18210418984005408	 
2.0	 1.4770364368396744	 0.3737360644725878	 
2.0	 1.46015719661769	 0.565367939105121	 
2.0	 1.3741163944359776	 0.7370584688713808	 
2.0	 1.2863798993063953	 0.908260079693322	 
2.0	 1.198643404176813	 1.0794616905152634	 
2.0	 1.0222295237584467	 1.139845468400763	 
2.0	 0.8359565520990462	 1.1879085951699027	 
2.0	 0.6496835804396447	 1.2359717219390423	 
2.0	 0.4634106087802432	 1.284034848708182	 
2.0	 0.27277108772994063	 1.3087798700784414	 
2.0	 0.08172857650525885	 1.331372856393179	 
2.0	 -0.09697608265780532	 1.3986301390390556	 
2.0	 -0.2725272875244023	 1.4773032513172453	 
2.0	 -0.4539000894725788	 1.521319501001229	 
2.0	 -0.6455216351883757	 1.504323403121445	 
2.0	 -0.8371431809041726	 1.4873273052416611	 
2.0	 -1.0054378653603155	 1.4131376705521748	 
2.0	 -1.1542866989059393	 1.2912700830739698	 
2.0	 -1.227836095216764	 1.1289934889934172	 
2.0	 -1.2471039642896202	 0.937587027903303	 
2.0	 -1.2663718333624763	 0.7461805668131878	 
2.0	 -1.2828132641364467	 0.5547527359586499	 
2.0	 -1.2664417541358928	 0.3630768173200474	 
2.0	 -1.2500702441353388	 0.17140089868144476	 
2.0	 -1.2273436992512081	 -0.019408774807163118	 
2.0	 -1.184820762679677	 -0.20457418916284686	 
2.0	 -1.0427031383965424	 -0.3342285951572778	 
2.5	 -0.12790246438913552	 -0.9653242149091025	 
2.5	 0.06440411843314828	 -1.028632385532875	 
2.5	 0.2567107012554321	 -1.091940556156647	 
2.5	 0.44522196548823056	 -1.1647971430812705	 
2.5	 0.6285146916405098	 -1.2507827395738118	 
2.5	 0.8118074177927889	 -1.336768336066353	 
2.5	 1.0048149356095664	 -1.3905796283668757	 
2.5	 1.2050656899280878	 -1.420402130934161	 
2.5	 1.405316444246609	 -1.4502246335014466	 
2.5	 1.475494228310611	 -1.2901178942226557	 
2.5	 1.5200692023539453	 -1.092626583138981	 
2.5	 1.5646441763972796	 -0.895135272055307	 
2.5	 1.5994862094956361	 -0.6962081803531729	 
2.5	 1.6138358918237485	 -0.4942581051326004	 
2.5	 1.628185574151861	 -0.29230802991202787	 
2.5	 1.6425352564799731	 -0.09035795469145595	 
2.5	 1.57548160245615	 0.09199896209290848	 
2.5	 1.4708114074187146	 0.2653018660943644	 
2.5	 1.3661412123812797	 0.43860477009581983	 
2.5	 1.2614710173438444	 0.6119076740972758	 
2.5	 1.161002810678484	 0.7875968992930433	 
2.5	 1.0657857974878697	 0.966268292256693	 
2.5	 0.9705687842972557	 1.144939685220343	 
2.5	 0.8354121137979288	 1.2920010791906227	 
2.5	 0.6833925380817765	 1.4257164293326063	 
2.5	 0.5313729623656236	 1.5594317794745907	 
2.5	 0.3314214039465931	 1.5757552186462505	 
2.5	 0.1292558447188707	 1.5866562702769373	 
2.5	 -0.07290971450885177	 1.5975573219076245	 
2.5	 -0.27410726206043207	 1.5968161060382557	 
2.5	 -0.47169642825518965	 1.5526769208739035	 
2.5	 -0.6692855944499474	 1.5085377357095515	 
2.5	 -0.8579825440667641	 1.4409198148487348	 
2.5	 -1.0352380446725524	 1.343092243226497	 
2.5	 -1.2124935452783405	 1.245264671604259	 
2.5	 -1.3014627145480397	 1.0662233413110438	 
2.5	 -1.3841835886561926	 0.88143426357295	 
2.5	 -1.4069271082804893	 0.6838333054823676	 
2.5	 -1.4069271082804893	 0.4813740595475065	 
2.5	 -1.406927108280489	 0.2789148136126453	 
2.5	 -1.4069271082804893	 0.07645556767778419	 
2.5	 -1.3679160122056255	 -0.11803480515300828	 
2.5	 -1.2669850299268375	 -0.2749062823376231	 
2.5	 -1.065485822085428	 -0.29459931419656304	 
2.5	 -0.8638870861605479	 -0.3122507502771517	 
2.5	 -0.6614278402256872	 -0.3122507502771517	 
2.5	 -0.45896859429082615	 -0.3122507502771517	 
2.5	 -0.3079875730705813	 -0.38714057630041826	 
2.5	 -0.23545965999295038	 -0.5761629244212576	 
2.5	 -0.1701117075602323	 -0.7673137958513272	 
3.0	 0.0038356680064086063	 -0.979496943704046	 
3.0	 0.19922100503330933	 -1.0266712178033424	 
3.0	 0.39460634206021006	 -1.0738454919026386	 
3.0	 0.5887571184669079	 -1.1256575069825694	 
3.0	 0.7817376332864049	 -1.1818657177876917	 
3.0	 0.9747181481059018	 -1.2380739285928137	 
3.0	 1.1735585183014188	 -1.2532086644995877	 
3.0	 1.374558125420217	 -1.2532086644995877	 
3.0	 1.4914043524624672	 -1.14305653244876	 
3.0	 1.5442471781024765	 -0.9491274788227224	 
3.0	 1.5901739077004735	 -0.754163209685994	 
3.0	 1.59643024029423	 -0.5532609937589731	 
3.0	 1.6026865728879867	 -0.35235877783195213	 
3.0	 1.6089429054817432	 -0.15145656190493087	 
3.0	 1.606801844363723	 0.046483788623341654	 
3.0	 1.4758887878991325	 0.19900465181592228	 
3.0	 1.3449757314345416	 0.3515255150085033	 
3.0	 1.2140626749699508	 0.5040463782010844	 
3.0	 1.0831496185053602	 0.6565672413936651	 
3.0	 0.9060310015978007	 0.7503375736354033	 
3.0	 0.7395048105723598	 0.8572698379637846	 
3.0	 0.6114942951358224	 1.0122348340099339	 
3.0	 0.48348377969928474	 1.1671998300560833	 
3.0	 0.3554732642627471	 1.3221648261022327	 
3.0	 0.22746274882620976	 1.477129822148382	 
3.0	 0.07712056564076258	 1.604737145290701	 
3.0	 -0.10033953707627614	 1.6991233413448343	 
3.0	 -0.2777996397933149	 1.7935095373989676	 
3.0	 -0.45797207089563985	 1.869578507271617	 
3.0	 -0.6551698417441318	 1.8306698805379948	 
3.0	 -0.8523676125926251	 1.791761253804372	 
3.0	 -1.0495653834411183	 1.7528526270707494	 
3.0	 -1.2314273331355092	 1.6962281584183758	 
3.0	 -1.2981881021508275	 1.5066395464650346	 
3.0	 -1.364948871166146	 1.3170509345116939	 
3.0	 -1.4025759343433601	 1.1224826828481784	 
3.0	 -1.4025759343433601	 0.9214830757293815	 
3.0	 -1.4025759343433601	 0.7204834686105834	 
3.0	 -1.3955236888729854	 0.5198670535101556	 
3.0	 -1.3737448908289194	 0.3200508228939539	 
3.0	 -1.3519660927848536	 0.12023459227775238	 
3.0	 -1.2985156500517159	 -0.07346057431782593	 
3.0	 -1.1653882490918974	 -0.18622568653165483	 
3.0	 -0.9706145518091964	 -0.2358648737604756	 
3.0	 -0.7758408545264953	 -0.28550406098929637	 
3.0	 -0.5810671572437944	 -0.33514324821811714	 
3.0	 -0.38629345996109393	 -0.38478243544693774	 
3.0	 -0.2085603362216791	 -0.47646236990380036	 
3.0	 -0.08273890122890444	 -0.6252810008070787	 
3.0	 0.018275499301483516	 -0.7990536481005973	 
3.5	 -0.6805964944342462	 -0.5629703112637136	 
3.5	 -0.49117025597175346	 -0.5998595762157792	 
3.5	 -0.30174401750926083	 -0.6367488411678449	 
3.5	 -0.17638883231392957	 -0.7755922825285102	 
3.5	 -0.06098336130802569	 -0.9302683794170028	 
3.5	 0.054422109697878196	 -1.0849444763054952	 
3.5	 0.20822486564422543	 -1.1852490467734151	 
3.5	 0.39259232881915346	 -1.2422732189216752	 
3.5	 0.5811446814258786	 -1.2716042694977583	 
3.5	 0.7741294416707043	 -1.2716042694977583	 
3.5	 0.9608276433924108	 -1.2530745105625267	 
3.5	 1.1139719348843038	 -1.135643919700525	 
3.5	 1.2671162263761968	 -1.018213328838523	 
3.5	 1.4005395235334313	 -0.8794867116062874	 
3.5	 1.5293683206873607	 -0.7357986511745851	 
3.5	 1.5333163389715971	 -0.5483614723148529	 
3.5	 1.5223233725672736	 -0.355690061938569	 
3.5	 1.4841810401231506	 -0.16686359949525337	 
3.5	 1.4412417211190758	 0.02128350404402246	 
3.5	 1.3983024021150006	 0.2094306075832988	 
3.5	 1.3553630831109258	 0.397577711122575	 
3.5	 1.312423764106851	 0.5857248146618508	 
3.5	 1.2368775409338264	 0.7611711059195906	 
3.5	 1.1412406742987842	 0.9287918308523511	 
3.5	 1.017678028418861	 1.0724925743500253	 
3.5	 0.8667375397707687	 1.1927426744473977	 
3.5	 0.7157970511226766	 1.31299277454477	 
3.5	 0.5569304431843191	 1.417960699783185	 
3.5	 0.3716873215149017	 1.4720726537390565	 
3.5	 0.18644419984548544	 1.5261846076949275	 
3.5	 -0.0011187970933506028	 1.5584208973603944	 
3.5	 -0.19359100005761443	 1.5443649814231026	 
3.5	 -0.38606320302187824	 1.530309065485811	 
3.5	 -0.5782051756854335	 1.512634393452643	 
3.5	 -0.7700423885225278	 1.4916200779118438	 
3.5	 -0.9219653863851286	 1.3920305142488452	 
3.5	 -1.0520770300695346	 1.2495030507041145	 
3.5	 -1.1821886737539415	 1.106975587159383	 
3.5	 -1.2093634614470585	 0.920252773886601	 
3.5	 -1.2230921464861124	 0.7277569534284638	 
3.5	 -1.2368208315251659	 0.5352611329703266	 
3.5	 -1.2570055313108546	 0.3434043244094066	 
3.5	 -1.2812797404861547	 0.15195229267386653	 
3.5	 -1.305553949661455	 -0.039499739061674644	 
3.5	 -1.3298281588367553	 -0.2309517707972158	 
3.5	 -1.3541023680120554	 -0.4224038025327569	 
3.5	 -1.366892480104193	 -0.6081950674438268	 
3.5	 -1.1936186148268249	 -0.5909183155101054	 
3.5	 -1.0168577113939676	 -0.5134670359573912	 
3.5	 -0.8418666438957823	 -0.4569747614542673	 
4.0	 -0.045838506373346695	 -0.8283829623941202	 
4.0	 0.14468547762197173	 -0.9147981641098134	 
4.0	 0.33520946161729015	 -1.0012133658255067	 
4.0	 0.5257334456126085	 -1.0876285675412	 
4.0	 0.7134734515830807	 -1.1798483323109838	 
4.0	 0.900126513794289	 -1.2743343626656938	 
4.0	 1.0939358873442526	 -1.225434956279258	 
4.0	 1.2942830370936473	 -1.170017621204578	 
4.0	 1.4738097104958854	 -1.103946515820951	 
4.0	 1.559496377879836	 -0.913093769973152	 
4.0	 1.6282600937801068	 -0.7188653167369058	 
4.0	 1.6223584923739678	 -0.5097429920896905	 
4.0	 1.6164568909678287	 -0.30062066744247534	 
4.0	 1.61055528956169	 -0.09149834279525977	 
4.0	 1.6046536881555509	 0.11762398185195573	 
4.0	 1.4748108580371446	 0.278687870044762	 
4.0	 1.3381910168963402	 0.4371239599096465	 
4.0	 1.1339693302621472	 0.4576703642341292	 
4.0	 0.9250514219778495	 0.46863773233800476	 
4.0	 0.716133513693551	 0.47960510044188026	 
4.0	 0.5070131564813721	 0.4828542401120808	 
4.0	 0.4188703385342649	 0.6539348285310063	 
4.0	 0.34927427583709103	 0.8512248780065521	 
4.0	 0.27967821313991703	 1.048514927482098	 
4.0	 0.23814375580543856	 1.2535417050342221	 
4.0	 0.19680419734938415	 1.45862221720364	 
4.0	 0.15546463889332968	 1.6637027293730582	 
4.0	 0.06406041590285275	 1.833649381292389	 
4.0	 -0.12443003370580806	 1.8824410144628545	 
4.0	 -0.3283740820813539	 1.835816978845966	 
4.0	 -0.5323181304569008	 1.7891929432290767	 
4.0	 -0.7362621788324476	 1.7425689076121875	 
4.0	 -0.9207556124198546	 1.6524648055726767	 
4.0	 -1.0914432152210798	 1.5314990343190553	 
4.0	 -1.18310339840316	 1.3490972220067232	 
4.0	 -1.2582401962356993	 1.1538501037783493	 
4.0	 -1.333376994068238	 0.9586029855499767	 
4.0	 -1.4085137919007773	 0.7633558673216028	 
4.0	 -1.3949150639648873	 0.5584289118419581	 
4.0	 -1.363642127282569	 0.3515739409172154	 
4.0	 -1.3323691906002504	 0.14471896999247272	 
4.0	 -1.301096253917932	 -0.06213600093227001	 
4.0	 -1.2690031958429182	 -0.26882101160831673	 
4.0	 -1.2154947086502954	 -0.4710679333731953	 
4.0	 -1.1338287474036366	 -0.6623071727495156	 
4.0	 -0.9401372967791864	 -0.6833376542270282	 
4.0	 -0.7581465065235005	 -0.5801566102939323	 
4.0	 -0.5596098034488146	 -0.5641915856450346	 
4.0	 -0.3524745536517586	 -0.5935508066245355	 
4.0	 -0.16644253335605916	 -0.6574395675507823	 
4.5	 -0.4949692435125614	 -0.690826591345719	 
4.5	 -0.302403931167068	 -0.7173107706688472	 
4.5	 -0.10983861882157464	 -0.7437949499919755	 
4.5	 0.08272669352391868	 -0.7702791293151038	 
4.5	 0.23869004075377784	 -0.879085748456258	 
4.5	 0.3873509082212381	 -1.004316566376446	 
4.5	 0.5464316898437197	 -1.1144313952950395	 
4.5	 0.7163581532559812	 -1.2088125814781898	 
4.5	 0.8928557864133295	 -1.2778295331250293	 
4.5	 1.0872337977035396	 -1.2778295331250296	 
4.5	 1.2816118089937498	 -1.2778295331250293	 
4.5	 1.414342664932855	 -1.146449535522958	 
4.5	 1.4793773479286068	 -0.9755659042761841	 
4.5	 1.4793773479286063	 -0.7811878929859736	 
4.5	 1.4793773479286068	 -0.5868098816957634	 
4.5	 1.477938000283395	 -0.39264835080030336	 
4.5	 1.420761782035099	 -0.20686974239782807	 
4.5	 1.363585563786803	 -0.021091133995352847	 
4.5	 1.3229780737729313	 0.16899320905915877	 
4.5	 1.2824715328382899	 0.35910378586814995	 
4.5	 1.2419649919036484	 0.5492143626771413	 
4.5	 1.2014584509690067	 0.7393249394861319	 
4.5	 1.1609519100343653	 0.9294355162951231	 
4.5	 1.087258761737194	 1.0954277194976485	 
4.5	 0.9189436340848518	 1.1926533800843098	 
4.5	 0.7506285064325091	 1.2898790406709713	 
4.5	 0.569925740805927	 1.358007613948705	 
4.5	 0.3828277401285042	 1.4105608197784352	 
4.5	 0.19307632174839706	 1.4527177942414427	 
4.5	 0.004937591042668353	 1.4997206087988315	 
4.5	 -0.17223481422900747	 1.5796752839803752	 
4.5	 -0.3494072195006832	 1.659629959161919	 
4.5	 -0.5193991369372137	 1.6455023918322522	 
4.5	 -0.6823856274965368	 1.5395863157706229	 
4.5	 -0.8453721180558598	 1.433670239708994	 
4.5	 -1.0083586086151826	 1.3277541636473649	 
4.5	 -1.1219821330032755	 1.1710026508516533	 
4.5	 -1.2326417895423523	 1.0111988596332013	 
4.5	 -1.3125550820913696	 0.8363960086056352	 
4.5	 -1.370383102482588	 0.6508192553988559	 
4.5	 -1.4282111228738068	 0.4652425021920764	 
4.5	 -1.486039143265025	 0.27966574898529695	 
4.5	 -1.5374479423023368	 0.093847438290148	 
4.5	 -1.4937303478258692	 -0.0955505110290788	 
4.5	 -1.4500127533494016	 -0.28494846034830557	 
4.5	 -1.3540895997157563	 -0.4340756282882161	 
4.5	 -1.1819967735512584	 -0.5244463672242946	 
4.5	 -0.9976291055343587	 -0.565040246678724	 
4.5	 -0.80325109424415	 -0.565040246678724	 
4.5	 -0.6088730829539398	 -0.565040246678724	 
5.0	 -0.434189347842491	 -0.6589045128547025	 
5.0	 -0.26035900070290874	 -0.7444707691449592	 
5.0	 -0.08652865356332654	 -0.8300370254352161	 
5.0	 0.08730169357625575	 -0.9156032817254726	 
5.0	 0.26113204071583807	 -1.0011695380157295	 
5.0	 0.43496238785542035	 -1.086735794305986	 
5.0	 0.5702909223369728	 -1.2199343379234815	 
5.0	 0.6903991715381255	 -1.3719625664734167	 
5.0	 0.8557752636603457	 -1.3630894814936259	 
5.0	 1.037533269053091	 -1.295988056189476	 
5.0	 1.2192912744458364	 -1.2288866308853263	 
5.0	 1.3469412654444688	 -1.0927268437926583	 
5.0	 1.4555781679845485	 -0.9323005454226752	 
5.0	 1.5097880294259087	 -0.753729653823557	 
5.0	 1.5191486622253572	 -0.5602071684225279	 
5.0	 1.5285092950248051	 -0.36668468302149937	 
5.0	 1.5378699278242531	 -0.1731621976204702	 
5.0	 1.5472305606237013	 0.020360287780558928	 
5.0	 1.5565911934231493	 0.21388277318158752	 
5.0	 1.5659518262225975	 0.40740525858261667	 
5.0	 1.5540615239411013	 0.5977016396655677	 
5.0	 1.4876889645214255	 0.7797270696424781	 
5.0	 1.4213164051017495	 0.9617524996193891	 
5.0	 1.3549438456820737	 1.1437779295963002	 
5.0	 1.2287700913072768	 1.2823428883798766	 
5.0	 1.0761315811728682	 1.4016746068211432	 
5.0	 0.9234930710384598	 1.5210063252624098	 
5.0	 0.7708545609040514	 1.6403380437036765	 
5.0	 0.5814113887079646	 1.6634345380876647	 
5.0	 0.3880976559838205	 1.6764104597295169	 
5.0	 0.19478392325967528	 1.6893863813713685	 
5.0	 0.001508816109076886	 1.7010897801498919	 
5.0	 -0.19066202495391965	 1.6764130371042987	 
5.0	 -0.3828328660169162	 1.6517362940587057	 
5.0	 -0.5750037070799128	 1.6270595510131127	 
5.0	 -0.7671745481429093	 1.6023828079675198	 
5.0	 -0.8647357577737941	 1.4383053007137325	 
5.0	 -0.9586338673879	 1.2688304683252771	 
5.0	 -1.0525319770020056	 1.099355635936822	 
5.0	 -1.1464300866161115	 0.9298808035483666	 
5.0	 -1.2403281962302173	 0.7604059711599113	 
5.0	 -1.3342263058443231	 0.590931138771456	 
5.0	 -1.3866046914969885	 0.4107229071752072	 
5.0	 -1.3866046914969887	 0.21697416833493044	 
5.0	 -1.335776790083538	 0.044512264212659115	 
5.0	 -1.1977085277009918	 -0.09141318860932655	 
5.0	 -1.0530486152841905	 -0.2169548792004465	 
5.0	 -0.871290609891445	 -0.28405630450459646	 
5.0	 -0.7180937206860474	 -0.3961497785365022	 
5.0	 -0.5722576102250373	 -0.5229790600327168	 
5.5	 -0.5068637916627461	 -0.8013907664378213	 
5.5	 -0.31664167658505993	 -0.8381205660273008	 
5.5	 -0.1264195615073738	 -0.8748503656167803	 
5.5	 0.06454085436292187	 -0.906470356456492	 
5.5	 0.2573799527910314	 -0.9250879116113899	 
5.5	 0.4502190512191409	 -0.943705466766288	 
5.5	 0.6348801752548616	 -0.9953395991209245	 
5.5	 0.816312123625597	 -1.0398033476556845	 
5.5	 1.0045629198253536	 -0.9940303318858074	 
5.5	 1.1928137160251104	 -0.9482573161159302	 
5.5	 1.3810645122248675	 -0.9024843003460531	 
5.5	 1.5693153084246243	 -0.8567112845761761	 
5.5	 1.5915523058210241	 -0.6804535538421239	 
5.5	 1.5915523058210241	 -0.48671782858084967	 
5.5	 1.5711459986463479	 -0.294907518000142	 
5.5	 1.534909160085887	 -0.10459087980564599	 
5.5	 1.4986723215254258	 0.08572575838885055	 
5.5	 1.462435482964965	 0.2760423965833471	 
5.5	 1.4239254460402044	 0.46588761609030915	 
5.5	 1.381492558440832	 0.6549193099738769	 
5.5	 1.3390596708414593	 0.8439510038574445	 
5.5	 1.2966267832420868	 1.0329826977410117	 
5.5	 1.2541938956427143	 1.2220143916245796	 
5.5	 1.1742007314538991	 1.3879033754607615	 
5.5	 1.024437281484485	 1.5108034987144445	 
5.5	 0.8746738315150703	 1.6337036219681278	 
5.5	 0.7027834822194297	 1.7000378127709188	 
5.5	 0.5093797272607781	 1.711374426480738	 
5.5	 0.3159759723021265	 1.7227110401905574	 
5.5	 0.1225722173434759	 1.7340476539003766	 
5.5	 -0.07070718906541426	 1.7416757954642077	 
5.5	 -0.2629171347766219	 1.7174091926486799	 
5.5	 -0.4551270804878295	 1.693142589833152	 
5.5	 -0.6473370261990371	 1.6688759870176244	 
5.5	 -0.8395469719102447	 1.6446093842020966	 
5.5	 -0.9211420475166039	 1.4698599682664155	 
5.5	 -1.0016639259176792	 1.2936505521125854	 
5.5	 -1.0821858043187547	 1.1174411359587537	 
5.5	 -1.1582066088791072	 0.9392902017726236	 
5.5	 -1.2311154823865347	 0.7597969500710906	 
5.5	 -1.3040243558939622	 0.5803036983695575	 
5.5	 -1.3769332294013896	 0.40081044666802434	 
5.5	 -1.4498421029088167	 0.22131719496649221	 
5.5	 -1.4250538495764657	 0.04769273678818002	 
5.5	 -1.3311820280790472	 -0.1217817815656678	 
5.5	 -1.2373102065816286	 -0.2912562999195156	 
5.5	 -1.1270210809670853	 -0.44794600487240926	 
5.5	 -0.9857091108342856	 -0.5804769761195039	 
5.5	 -0.8003826999976293	 -0.601736319436011	 
5.5	 -0.6151124961520177	 -0.6446691655859865	 
6.0	 -0.6647306880234359	 -0.7846101004365709	 
6.0	 -0.47789480326194445	 -0.7846101004365708	 
6.0	 -0.2910589185004531	 -0.7846101004365709	 
6.0	 -0.10422303373896179	 -0.7846101004365708	 
6.0	 0.06761350039137283	 -0.8320790136208485	 
6.0	 0.22052709689706057	 -0.9394339382321816	 
6.0	 0.3734406934027482	 -1.0467888628435147	 
6.0	 0.5396701047752921	 -1.1170884019864682	 
6.0	 0.7259401145697286	 -1.1316187593733242	 
6.0	 0.9122101243641653	 -1.14614911676018	 
6.0	 1.089888489548342	 -1.1348588458389974	 
6.0	 1.2303172401917353	 -1.0116216200208834	 
6.0	 1.3432321279848527	 -0.8714412585186879	 
6.0	 1.390073051655547	 -0.6905723123054546	 
6.0	 1.4369139753262414	 -0.5097033660922212	 
6.0	 1.4504003014830966	 -0.3269658785347658	 
6.0	 1.4240538005144154	 -0.14199693594894502	 
6.0	 1.397707299545734	 0.042972006636875726	 
6.0	 1.371360798577053	 0.22794094922269598	 
6.0	 1.3450142976083717	 0.41290989180851667	 
6.0	 1.3186677966396905	 0.5978788343943374	 
6.0	 1.2889116507337222	 0.7821408932638281	 
6.0	 1.2395521727883334	 0.9623388115968878	 
6.0	 1.1901926948429444	 1.1425367299299474	 
6.0	 1.1408332168975555	 1.3227346482630067	 
6.0	 1.0036563733686	 1.4352021824248757	 
6.0	 0.8419091409188657	 1.528719456922484	 
6.0	 0.6801619084691315	 1.622236731420092	 
6.0	 0.5111855446878346	 1.6888076139508348	 
6.0	 0.3243496599263441	 1.6888076139508346	 
6.0	 0.13751377516485264	 1.6888076139508348	 
6.0	 -0.04932210959663885	 1.6888076139508348	 
6.0	 -0.23615799435813029	 1.6888076139508348	 
6.0	 -0.42299387911962183	 1.6888076139508348	 
6.0	 -0.567350891659904	 1.586467530373008	 
6.0	 -0.6992693116498251	 1.454160394125668	 
6.0	 -0.8311877316397455	 1.3218532578783289	 
6.0	 -0.9519207604211344	 1.1813457865782762	 
6.0	 -1.0384138632540263	 1.015736031440035	 
6.0	 -1.1249069660869182	 0.8501262763017939	 
6.0	 -1.2114000689198106	 0.6845165211635531	 
6.0	 -1.2965655199034525	 0.5185134826994099	 
6.0	 -1.3142276836784943	 0.33251430042864677	 
6.0	 -1.3318898474535361	 0.1465151181578827	 
6.0	 -1.349552011228578	 -0.039484064112881426	 
6.0	 -1.338315118125804	 -0.21900653116538243	 
6.0	 -1.2429591295674007	 -0.37967663815688	 
6.0	 -1.1075699573127349	 -0.4936152374877621	 
6.0	 -0.9341677591900868	 -0.5631804983644593	 
6.0	 -0.760765561067438	 -0.6327457592411568	 
6.5	 -1.1507387978859736	 -0.08611597410258764	 
6.5	 -1.0623513132879696	 -0.24179730011793604	 
6.5	 -0.9739638286899657	 -0.3974786261332844	 
6.5	 -0.885576344091962	 -0.5531599521486328	 
6.5	 -0.7971888594939579	 -0.7088412781639811	 
6.5	 -0.7088013748959541	 -0.8645226041793296	 
6.5	 -0.6204138902979501	 -1.020203930194678	 
6.5	 -0.5142304369305433	 -1.149302009386445	 
6.5	 -0.33661407444795904	 -1.171695099434824	 
6.5	 -0.15899771196537493	 -1.1940881894832032	 
6.5	 0.018618650517209456	 -1.2164812795315822	 
6.5	 0.1962350129997936	 -1.2388743695799613	 
6.5	 0.3726220980505926	 -1.245297399736479	 
6.5	 0.5447190509688652	 -1.1959855198320837	 
6.5	 0.7168160038871376	 -1.1466736399276887	 
6.5	 0.8858936136147102	 -1.087869357343299	 
6.5	 1.0548543429578978	 -1.028697618791202	 
6.5	 1.2238150723010859	 -0.9695258802391054	 
6.5	 1.3567148240549627	 -0.8869970160292394	 
6.5	 1.3416224956146792	 -0.7086119148416393	 
6.5	 1.3265301671743956	 -0.5302268136540393	 
6.5	 1.3114378387341126	 -0.3518417124664399	 
6.5	 1.296345510293829	 -0.1734566112788399	 
6.5	 1.276198295196003	 0.004358710321270956	 
6.5	 1.2512018338939432	 0.18162743183139546	 
6.5	 1.2262053725918833	 0.3588961533415204	 
6.5	 1.2012089112898234	 0.5361648748516454	 
6.5	 1.1762124499877635	 0.7134335963617704	 
6.5	 1.1512159886857039	 0.8907023178718954	 
6.5	 1.0157457738937976	 0.9937988571589446	 
6.5	 0.8611335533582056	 1.0840434357468745	 
6.5	 0.7065213328226136	 1.1742880143348047	 
6.5	 0.5519091122870219	 1.2645325929227347	 
6.5	 0.3972968917514299	 1.3547771715106645	 
6.5	 0.242684671215838	 1.4450217500985947	 
6.5	 0.07152838778312251	 1.4741028508148957	 
6.5	 -0.10749402060046309	 1.4741028508148957	 
6.5	 -0.2865164289840496	 1.4741028508148957	 
6.5	 -0.46553883736763624	 1.4741028508148957	 
6.5	 -0.6445612457512228	 1.4741028508148957	 
6.5	 -0.8235836541348094	 1.474102850814896	 
6.5	 -0.9438120095899013	 1.3454808318664961	 
6.5	 -1.0609521417178835	 1.2101027976493524	 
6.5	 -1.1780922738458666	 1.074724763432208	 
6.5	 -1.2952324059738496	 0.9393467292150635	 
6.5	 -1.3463581249951204	 0.7873590664382712	 
6.5	 -1.307234259573291	 0.6126640583300993	 
6.5	 -1.2681103941514618	 0.43796905022192734	 
6.5	 -1.2289865287296324	 0.2632740421137563	 
6.5	 -1.189862663307803	 0.08857903400558434	 
7.0	 -1.0575509258900642	 -0.8517211097836012	 
7.0	 -0.8678668968790122	 -0.8517211097836012	 
7.0	 -0.6784180398010594	 -0.8485523423341398	 
7.0	 -0.4908121062475835	 -0.8205515466776885	 
7.0	 -0.30376295420957566	 -0.8206939995196331	 
7.0	 -0.11741131426931986	 -0.8560931118452668	 
7.0	 0.06894032567093586	 -0.8914922241709005	 
7.0	 0.2552919656111919	 -0.9268913364965341	 
7.0	 0.4398929044660195	 -0.9206284120195687	 
7.0	 0.6226177795880175	 -0.8697201526354982	 
7.0	 0.8066643895521197	 -0.8239898932149612	 
7.0	 0.991433896156396	 -0.7810916381096786	 
7.0	 1.162595819329226	 -0.7075789882479024	 
7.0	 1.3182454285363425	 -0.5991666733776002	 
7.0	 1.4423322011717958	 -0.4679089614214925	 
7.0	 1.496688787273068	 -0.28618006330872553	 
7.0	 1.5344768385858674	 -0.10250986147324584	 
7.0	 1.523601439891031	 0.08686214428550931	 
7.0	 1.5127260411961938	 0.27623415004426394	 
7.0	 1.5018506425013571	 0.46560615580301906	 
7.0	 1.4909752438065202	 0.6549781615617742	 
7.0	 1.4800998451116836	 0.844350167320529	 
7.0	 1.4564349939664896	 1.0258610203328828	 
7.0	 1.292382967825566	 1.1210816251457245	 
7.0	 1.1283309416846432	 1.2163022299585657	 
7.0	 0.9493726575738428	 1.2686364267886099	 
7.0	 0.7616280305427178	 1.2956916644110985	 
7.0	 0.5738834035115925	 1.322746902033587	 
7.0	 0.3866562698879522	 1.3525578792315307	 
7.0	 0.20188676328367677	 1.395456134336813	 
7.0	 0.017117256679400367	 1.4383543894420956	 
7.0	 -0.16765224992487607	 1.4812526445473784	 
7.0	 -0.3388957716230548	 1.5618014371823423	 
7.0	 -0.508723078779265	 1.6462923633574988	 
7.0	 -0.6771201480203756	 1.7047434570125415	 
7.0	 -0.8366724681950749	 1.6021613533650925	 
7.0	 -0.9962247883697732	 1.499579249717644	 
7.0	 -1.1557771085444726	 1.396997146070195	 
7.0	 -1.2428940514314697	 1.2516002372336743	 
7.0	 -1.2558320851725746	 1.0623579635610627	 
7.0	 -1.2687701189136793	 0.8731156898884511	 
7.0	 -1.281708152654784	 0.6838734162158395	 
7.0	 -1.294646186395889	 0.49463114254322893	 
7.0	 -1.3075842201369936	 0.3053888688706173	 
7.0	 -1.3205222538780983	 0.11614659519800562	 
7.0	 -1.3228903585502019	 -0.07330772609334515	 
7.0	 -1.317552611542064	 -0.2629166375894632	 
7.0	 -1.3122148645339262	 -0.4525255490855812	 
7.0	 -1.3068771175257883	 -0.6421344605816982	 
7.0	 -1.2348693065002756	 -0.7843547772454736	 
7.5	 0.0176028805467572	 -0.9725223891921376	 
7.5	 0.19797238475541476	 -1.0399176419982732	 
7.5	 0.3799291159680416	 -1.0985302735060691	 
7.5	 0.572478533389336	 -1.0985302735060691	 
7.5	 0.7650279508106304	 -1.0985302735060691	 
7.5	 0.9547980233281481	 -1.1290679176130407	 
7.5	 1.1441836818922808	 -1.1638292535987262	 
7.5	 1.3290227412800857	 -1.1504032760022187	 
7.5	 1.4660068568261373	 -1.0496480714553131	 
7.5	 1.4782515188837668	 -0.857488381612791	 
7.5	 1.4943739270809586	 -0.6657133861774319	 
7.5	 1.5201230194742772	 -0.47489341240581623	 
7.5	 1.5458721118675955	 -0.28407343863420037	 
7.5	 1.5716212042609143	 -0.09325346486258435	 
7.5	 1.5574060928083697	 0.09525716742639108	 
7.5	 1.509848621415885	 0.2818411031337097	 
7.5	 1.4421476163766274	 0.4609042766410478	 
7.5	 1.3557884659802433	 0.6330012704907215	 
7.5	 1.2694293155838594	 0.8050982643403948	 
7.5	 1.183070165187475	 0.9771952581900685	 
7.5	 1.0361952512728205	 1.0766036033628608	 
7.5	 0.8959369600425474	 1.2028693760030196	 
7.5	 0.7646631322400257	 1.3437326440445987	 
7.5	 0.6105172668508966	 1.4491511342528438	 
7.5	 0.42807769750556335	 1.5107228947146747	 
7.5	 0.24563812816022965	 1.5722946551765058	 
7.5	 0.06319855881489587	 1.6338664156383365	 
7.5	 -0.12281966547838889	 1.6736431814004222	 
7.5	 -0.315369082899683	 1.6736431814004222	 
7.5	 -0.5079185003209763	 1.6736431814004222	 
7.5	 -0.7004679177422706	 1.673643181400422	 
7.5	 -0.8882297325580075	 1.653816678044959	 
7.5	 -1.0595612113329247	 1.5659485807053661	 
7.5	 -1.2308926901078416	 1.4780804833657735	 
7.5	 -1.2858280657122396	 1.304987480561672	 
7.5	 -1.3178537583776726	 1.1151200711450502	 
7.5	 -1.3498794510431058	 0.9252526617284293	 
7.5	 -1.378594180844746	 0.7352138135372361	 
7.5	 -1.3663495187871164	 0.5430541236947137	 
7.5	 -1.3507914523924753	 0.35137680201869864	 
7.5	 -1.3077395015393047	 0.16370206296994927	 
7.5	 -1.264687550686134	 -0.023972676078800114	 
7.5	 -1.1757791709784235	 -0.1936977861046922	 
7.5	 -1.0894755118078643	 -0.3656129414009582	 
7.5	 -0.986058277245947	 -0.52450616926599	 
7.5	 -0.8443688241080307	 -0.6535256962225608	 
7.5	 -0.6698713365282082	 -0.720506620564275	 
7.5	 -0.47732191910691396	 -0.720506620564275	 
7.5	 -0.29095778733799044	 -0.7467925313175691	 
7.5	 -0.12753148182098561	 -0.8459866432173799	 
8.0	 -0.0061200060528356515	 -0.9754524101902032	 
8.0	 0.18149541665364533	 -1.0315040531408135	 
8.0	 0.37173289479047306	 -1.0756127984670965	 
8.0	 0.5655736041099126	 -1.1033096019889959	 
8.0	 0.7594143134293523	 -1.1310064055108953	 
8.0	 0.9514873625179721	 -1.1386211869728968	 
8.0	 1.1375090871055975	 -1.0774881231183846	 
8.0	 1.32030108304699	 -1.0115451713767065	 
8.0	 1.4472907329808138	 -0.8624983253031345	 
8.0	 1.5229274498867715	 -0.6887866227721422	 
8.0	 1.5598824432170708	 -0.49649605622569976	 
8.0	 1.59683743654737	 -0.3042054896792576	 
8.0	 1.6337924298776692	 -0.11191492313281537	 
8.0	 1.6634176451607872	 0.08107358698518019	 
8.0	 1.6634176451607872	 0.27688301861398174	 
8.0	 1.6634176451607872	 0.4726924502427827	 
8.0	 1.6634176451607872	 0.6685018818715844	 
8.0	 1.5739519740932535	 0.8366191335121678	 
8.0	 1.4633329337466863	 0.9981888133026489	 
8.0	 1.3527138934001188	 1.1597584930931306	 
8.0	 1.2420948530535516	 1.3213281728836124	 
8.0	 1.0999701912276225	 1.442031030857305	 
8.0	 0.9155722156290409	 1.5078999925155792	 
8.0	 0.7311742400304593	 1.5737689541738535	 
8.0	 0.5460236154175285	 1.634296428692947	 
8.0	 0.3506040569426208	 1.6219461379973197	 
8.0	 0.15518449846771304	 1.6095958473016925	 
8.0	 -0.04023506000719472	 1.5972455566060655	 
8.0	 -0.23584393837519607	 1.5908924875473227	 
8.0	 -0.4316533700039963	 1.5908924875473227	 
8.0	 -0.6273987649137774	 1.5903906773546368	 
8.0	 -0.8169329988515845	 1.5412164190439825	 
8.0	 -1.0064672327893915	 1.4920421607333283	 
8.0	 -1.1761505991252967	 1.4114803296090235	 
8.0	 -1.3018114605894355	 1.261311486599281	 
8.0	 -1.4274723220535745	 1.111142643589538	 
8.0	 -1.44410957700845	 0.9177646603187457	 
8.0	 -1.4554396720929943	 0.7222832994165629	 
8.0	 -1.4667697671775388	 0.5268019385143801	 
8.0	 -1.4780998622620831	 0.33132057761219724	 
8.0	 -1.473223723948879	 0.13833472086759316	 
8.0	 -1.4036107917107388	 -0.04468269136414589	 
8.0	 -1.3089807263410453	 -0.20761839610140703	 
8.0	 -1.145351110287473	 -0.3151669073182285	 
8.0	 -0.9625846085669608	 -0.3701512116176925	 
8.0	 -0.7681100920219168	 -0.39297654686968064	 
8.0	 -0.5853825326758904	 -0.4569810770748139	 
8.0	 -0.4241847690168994	 -0.5656056808363396	 
8.0	 -0.2751965939073053	 -0.6924703319352158	 
8.0	 -0.13304372689752242	 -0.82692645846671	 
8.5	 0.15193777530333016	 -0.9781655964968888	 
8.5	 0.3385010886460093	 -1.0628448381377809	 
8.5	 0.531864005928487	 -1.1160917016755425	 
8.5	 0.7367455420665081	 -1.1160917016755425	 
8.5	 0.9416270782045293	 -1.1160917016755425	 
8.5	 1.1465086143425507	 -1.1160917016755425	 
8.5	 1.3036809197188317	 -1.001608836709635	 
8.5	 1.4385359285438786	 -0.849086602544811	 
8.5	 1.5373815788278655	 -0.6696263527115651	 
8.5	 1.619625361305331	 -0.48618187926481493	 
8.5	 1.6129907517920288	 -0.2814077944618758	 
8.5	 1.6063561422787267	 -0.07663370965893693	 
8.5	 1.5997215327654248	 0.1281403751440019	 
8.5	 1.5915089221989627	 0.33284544777530645	 
8.5	 1.5802412463353601	 0.5374169104256677	 
8.5	 1.5627334737382421	 0.7405707760633979	 
8.5	 1.4845094372543577	 0.9299313949006927	 
8.5	 1.391643688149415	 1.106728460601696	 
8.5	 1.2163615895277036	 1.2128068738300417	 
8.5	 1.0410794909059915	 1.3188852870583876	 
8.5	 0.8739232754327281	 1.437340492571048	 
8.5	 0.7069007930014308	 1.5559993911533376	 
8.5	 0.5398783105701331	 1.6746582897356277	 
8.5	 0.3545655445067941	 1.7445934422391058	 
8.5	 0.15071831857825194	 1.765154384131759	 
8.5	 -0.05315634912254309	 1.775277109009684	 
8.5	 -0.2571088647968602	 1.7557882609064066	 
8.5	 -0.4610613804711773	 1.736299412803129	 
8.5	 -0.6631505771296125	 1.7029089541651956	 
8.5	 -0.865036345223418	 1.668000781892085	 
8.5	 -1.045358575149125	 1.5982577174300765	 
8.5	 -1.1666317441686904	 1.4331236436408452	 
8.5	 -1.2576645696950868	 1.251755704028367	 
8.5	 -1.3282857361987315	 1.0594302124991892	 
8.5	 -1.398906902702376	 0.8671047209700113	 
8.5	 -1.4180859028310817	 0.6656331027516635	 
8.5	 -1.411477179154585	 0.46103106932113674	 
8.5	 -1.3941780151701524	 0.2568811666130655	 
8.5	 -1.3768788511857193	 0.052731263904994205	 
8.5	 -1.3427226767716987	 -0.1484097350015123	 
8.5	 -1.2883240968503427	 -0.34593755165733164	 
8.5	 -1.1920400386287922	 -0.5225666847989064	 
8.5	 -1.0581244734946866	 -0.6749553286998634	 
8.5	 -0.8608767535791173	 -0.7023133861395816	 
8.5	 -0.6590428995386384	 -0.6717934318619772	 
8.5	 -0.4740125776796797	 -0.5907263507893835	 
8.5	 -0.28029968255265025	 -0.5303022491173752	 
8.5	 -0.08049882613262288	 -0.4849584333968324	 
8.5	 0.04239018851419691	 -0.5878794665401791	 
8.5	 0.1012918502022201	 -0.7822886198458993	 
