9.0	 -0.15872367400052506	 -1.0753863281183087	 
9.0	 0.04073344222973572	 -1.095364826429412	 
9.0	 0.24048987131721353	 -1.1123806383382742	 
9.0	 0.42132461242116087	 -1.1767747640651034	 
9.5	 0.4692674335335676	 -1.0783292798650217	 
9.5	 0.6593922294714325	 -1.1232466112192954	 
9.5	 0.8495170254092976	 -1.1681639425735693	 
9.5	 1.0396418213471625	 -1.213081273927843	 
9.5	 1.2297666172850277	 -1.2579986052821166	 
9.5	 1.3565083112632776	 -1.11756443980935	 
9.5	 1.479319109933368	 -0.9656351390921447	 
9.5	 1.5753683083731946	 -0.7963549882265218	 
9.5	 1.6639515977011134	 -0.6222343244951583	 
9.5	 1.7462695189947626	 -0.44688225316542074	 
9.5	 1.7301738712180794	 -0.2521877878895598	 
9.5	 1.7140782234413958	 -0.05749332261369901	 
9.5	 1.6933158658275833	 0.13586531064675125	 
9.5	 1.6039533674448694	 0.30958735464003384	 
9.5	 1.5145908690621557	 0.48330939863331646	 
9.5	 1.425228370679442	 0.6570314426265985	 
9.5	 1.3205141298684793	 0.8191253477309586	 
9.5	 1.1774919600436462	 0.9522030078584235	 
9.5	 1.0313295179024742	 1.080665153666471	 
9.5	 0.8550360625174988	 1.164841292059903	 
9.5	 0.6787426071325232	 1.249017430453335	 
9.5	 0.4946838312021812	 1.3094538936983613	 
9.5	 0.3027236492627198	 1.345734649426065	 
9.5	 0.10953328836466308	 1.3733179666439694	 
9.5	 -0.08495885326473585	 1.3916976165539685	 
9.5	 -0.2798861830378415	 1.4008464897076158	 
9.5	 -0.47483418042377845	 1.3943023710834244	 
9.5	 -0.6686602803812982	 1.3698800931048594	 
9.5	 -0.8636742963071227	 1.364388022508018	 
9.5	 -1.0590329528504252	 1.364388022508018	 
9.5	 -1.2376617349055363	 1.294022506369592	 
9.5	 -1.3395717098193416	 1.1491285621065943	 
9.5	 -1.3836283323383847	 0.9588024769300767	 
9.5	 -1.427684954857428	 0.768476391753559	 
9.5	 -1.4717415773764713	 0.5781503065770413	 
9.5	 -1.483849592201005	 0.384174743998515	 
9.5	 -1.4815731643681074	 0.18911210818486796	 
9.5	 -1.4316101659071272	 0.0002505094645547379	 
9.5	 -1.3816471674461472	 -0.18861108925575848	 
9.5	 -1.3316841689851675	 -0.3774726879760717	 
9.5	 -1.273532852117233	 -0.56305263911423	 
9.5	 -1.1792358634061957	 -0.7341464221878271	 
9.5	 -0.9933615498401073	 -0.7502030750686431	 
9.5	 -0.7980028932968041	 -0.7502030750686431	 
9.5	 -0.6026442367535011	 -0.7502030750686431	 
9.5	 -0.40728558021019745	 -0.7502030750686433	 
9.5	 -0.2164407509788647	 -0.7691881420989262	 
9.5	 -0.04198694889808549	 -0.8571135401700462	 
9.5	 0.10340849821603865	 -0.9689538782662288	 
9.5	 0.2958950836584118	 -0.9921042304990824	 
10.0	 0.4549647500928831	 -1.124588745308662	 
10.0	 0.6490873994311734	 -1.0997169837361738	 
10.0	 0.8432100487694638	 -1.0748452221636857	 
10.0	 1.0373326981077542	 -1.0499734605911974	 
10.0	 1.2151078082121949	 -0.9805916283824058	 
10.0	 1.3791820111061561	 -0.8739058118248764	 
10.0	 1.543256214000117	 -0.767219995267347	 
10.0	 1.633082876471204	 -0.6032587254378761	 
10.0	 1.6946222341104829	 -0.4174762855486862	 
10.0	 1.7561615917497613	 -0.23169384565949633	 
10.0	 1.7448501028129344	 -0.04177191854130717	 
10.0	 1.7047517373649865	 0.14978571925535783	 
10.0	 1.6646533719170384	 0.3413433570520228	 
10.0	 1.6245550064690903	 0.532900994848688	 
10.0	 1.509291890649883	 0.6790475981599797	 
10.0	 1.3583777732873676	 0.8036555300524898	 
10.0	 1.207463655924852	 0.9282634619450002	 
10.0	 1.0164450831929175	 0.918811320471922	 
10.0	 0.8218938610720629	 0.8975503355202025	 
10.0	 0.6395964399920792	 0.9624088590770663	 
10.0	 0.48996390105513893	 1.0841803142476172	 
10.0	 0.3509401033966414	 1.221928603509025	 
10.0	 0.20672183991793114	 1.3534890271083715	 
10.0	 0.04697282529861299	 1.4665485682271666	 
10.0	 -0.11277618932070478	 1.579608109345961	 
10.0	 -0.2797498633592446	 1.6639347575877506	 
10.0	 -0.47397535931952517	 1.6398793168555843	 
10.0	 -0.656427734874	 1.5824191111039492	 
10.0	 -0.8228164519377057	 1.479380272097827	 
10.0	 -0.9814455024086	 1.3661660082072749	 
10.0	 -1.124836748671012	 1.2329700698114365	 
10.0	 -1.2417400069418159	 1.0810859389927245	 
10.0	 -1.319144351277128	 0.9013339571180979	 
10.0	 -1.39654869561244	 0.7215819752434713	 
10.0	 -1.473953039947752	 0.5418299933688449	 
10.0	 -1.4811272232969763	 0.34923320096008964	 
10.0	 -1.4723572990112186	 0.15372029617409527	 
10.0	 -1.4554907797901615	 -0.040457163994999094	 
10.0	 -1.4010088708284387	 -0.22843037779346084	 
10.0	 -1.3465269618667157	 -0.41640359159192253	 
10.0	 -1.2818860542249206	 -0.5998226964413312	 
10.0	 -1.1778048462589612	 -0.7655613752649002	 
10.0	 -1.0222136101995674	 -0.8679789518179171	 
10.0	 -0.8340043857209962	 -0.9096991761414018	 
10.0	 -0.6382948879702848	 -0.9096991761414018	 
10.0	 -0.4425853902195739	 -0.9096991761414019	 
10.0	 -0.24687589246886296	 -0.9096991761414018	 
10.0	 -0.0537899906257542	 -0.8784106117987389	 
10.0	 0.12015282263487903	 -0.9314215411056561	 
10.0	 0.3018578267037449	 -1.0026851870334905	 
10.5	 0.7246888250490899	 -1.1624219874206612	 
10.5	 0.9365473543432628	 -1.1364371177411463	 
10.5	 1.1484058836374358	 -1.1104522480616317	 
10.5	 1.3602644129316086	 -1.0844673783821168	 
10.5	 1.4818809459771212	 -0.9629257490446546	 
10.5	 1.519933820871892	 -0.7528990159862312	 
10.5	 1.557986695766663	 -0.5428722829278081	 
10.5	 1.5960395706614339	 -0.3328455498693846	 
10.5	 1.6340924455562045	 -0.12281881681096136	 
10.5	 1.6677675343045704	 0.08786830424689218	 
10.5	 1.6933630991099264	 0.2997742195707601	 
10.5	 1.6743431511803748	 0.5059862446784168	 
10.5	 1.5963473777616566	 0.7046716976329983	 
10.5	 1.5183516043429384	 0.9033571505875801	 
10.5	 1.4403558309242204	 1.102042603542162	 
10.5	 1.3171729070609695	 1.2344452517709321	 
10.5	 1.1037267782908478	 1.2344452517709321	 
10.5	 0.9311053580137166	 1.14011970068691	 
10.5	 0.785009206162741	 0.984507476548548	 
10.5	 0.6389130543117649	 0.8288952524101854	 
10.5	 0.47062227145514623	 0.7068104108653787	 
10.5	 0.271694294692304	 0.7540561732205157	 
10.5	 0.07658946323106931	 0.8373531347254001	 
10.5	 -0.07784255658974673	 0.9796661949635128	 
10.5	 -0.2726556617045848	 1.065077542361275	 
10.5	 -0.43789448928585295	 1.2001900130903655	 
10.5	 -0.622197262187366	 1.3059004064562574	 
10.5	 -0.8200284202557525	 1.3776760995109034	 
10.5	 -1.0322354740051787	 1.4006416438314613	 
10.5	 -1.2145848763334703	 1.3542012336306863	 
10.5	 -1.3438409635373225	 1.1843421337634679	 
10.5	 -1.4730970507411745	 1.0144830338962494	 
10.5	 -1.5282859184052717	 0.8150936700172999	 
10.5	 -1.551353460416208	 0.6028976794978633	 
10.5	 -1.5473749581139113	 0.39080537951183186	 
10.5	 -1.5226810620389934	 0.17879249928142543	 
10.5	 -1.4979871659640758	 -0.033220380948979805	 
10.5	 -1.4613148088897847	 -0.243238455824199	 
10.5	 -1.4159673419551921	 -0.4518118413017509	 
10.5	 -1.3515458792752355	 -0.653872961967862	 
10.5	 -1.259870949435247	 -0.8466291736078104	 
10.5	 -1.1172861008116126	 -0.9914606228281828	 
10.5	 -0.926122186610207	 -1.0600711628867443	 
10.5	 -0.7196870020440912	 -1.005814693594088	 
10.5	 -0.5096159130375748	 -0.9889906957120055	 
10.5	 -0.2965980225274387	 -1.0025046962138209	 
10.5	 -0.08358013201730265	 -1.0160186967156366	 
10.5	 0.11792263812769205	 -1.0565029985076997	 
10.5	 0.30769825234898474	 -1.117198077247235	 
10.5	 0.5112426962789697	 -1.1624219874206612	 
11.0	 0.5593194238489819	 -1.1185743831025132	 
11.0	 0.7758046087762422	 -1.1709401623243814	 
11.0	 0.9879512653945745	 -1.2121520386268758	 
11.0	 1.112153918989221	 -1.027269073033634	 
11.0	 1.2363565725838672	 -0.8423861074403921	 
11.0	 1.350404669138231	 -0.6519677041889446	 
11.0	 1.4384982558870818	 -0.4474010155511653	 
11.0	 1.5265918426359328	 -0.2428343269133856	 
11.0	 1.5884035215772867	 -0.03317018126918063	 
11.0	 1.5831732520441382	 0.18949695687004758	 
11.0	 1.5779429825109896	 0.41216409500927614	 
11.0	 1.5727127129778409	 0.6348312331485043	 
11.0	 1.5674824434446926	 0.8574983712877325	 
11.0	 1.5338589696186173	 1.070736526567405	 
11.0	 1.404850404277863	 1.2522986376898078	 
11.0	 1.2758418389371085	 1.4338607488122102	 
11.0	 1.055336145566081	 1.4381670639889457	 
11.0	 0.8326075885139963	 1.4381670639889457	 
11.0	 0.6490551231949003	 1.3549426656146588	 
11.0	 0.5071287314522537	 1.183289208167929	 
11.0	 0.3937332570054203	 0.9916024524550362	 
11.0	 0.26749531011080196	 0.8325543627965422	 
11.0	 0.053595711502996024	 0.8946427823441772	 
11.0	 -0.16030388710480994	 0.9567312018918122	 
11.0	 -0.294608703463188	 1.111169512585017	 
11.0	 -0.3875786278625272	 1.3135666550640663	 
11.0	 -0.5302210103184525	 1.4440697477576934	 
11.0	 -0.7524195425431204	 1.4594262578985733	 
11.0	 -0.9746180747677884	 1.474782768039453	 
11.0	 -1.1939696403350417	 1.481454216485969	 
11.0	 -1.3639586640110553	 1.3375384704531632	 
11.0	 -1.533947687687069	 1.193622724420357	 
11.0	 -1.6189689310046567	 1.0055144371556282	 
11.0	 -1.639196350619972	 0.7837062731439994	 
11.0	 -1.6594237702352872	 0.5618981091323705	 
11.0	 -1.6796511898506024	 0.3400899451207417	 
11.0	 -1.667056568417958	 0.11903680438516054	 
11.0	 -1.6366511939419963	 -0.10160662590334843	 
11.0	 -1.6062458194660345	 -0.3222500561918575	 
11.0	 -1.5535465615276154	 -0.5315854523640339	 
11.0	 -1.3821100866630938	 -0.6583609226260507	 
11.0	 -1.159381529611009	 -0.6583609226260507	 
11.0	 -0.9366529725589258	 -0.6583609226260507	 
11.0	 -0.7278465188722129	 -0.5838166421178898	 
11.0	 -0.5391580864151515	 -0.643210154196204	 
11.0	 -0.36048583188182054	 -0.7761922416609466	 
11.0	 -0.18899750500978157	 -0.9181482458270205	 
11.0	 -0.009878873305203685	 -0.984863438943387	 
11.0	 0.1966168629185631	 -0.9140350673351965	 
11.0	 0.39925191609001276	 -0.9636989393215964	 
11.5	 0.2721348045313655	 -1.1413118537645637	 
11.5	 0.4881610905751488	 -1.0954457473639647	 
11.5	 0.6969316004117836	 -1.0288210416854906	 
11.5	 0.8944923900884112	 -0.9301255992346418	 
11.5	 1.11145773430641	 -0.8955710674717923	 
11.5	 1.3111884109600702	 -0.8158504856846014	 
11.5	 1.489118794005147	 -0.6896581790144954	 
11.5	 1.5328153111013356	 -0.4731826137146582	 
11.5	 1.5765118281975243	 -0.2567070484148213	 
11.5	 1.6202083452937133	 -0.040231483114984354	 
11.5	 1.6380445934649976	 0.1781468508420538	 
11.5	 1.6265031691795304	 0.39868675993717495	 
11.5	 1.6149617448940632	 0.6192266690322962	 
11.5	 1.5841451275415697	 0.836886421632354	 
11.5	 1.5307143701390133	 1.0511671023798512	 
11.5	 1.477283612736457	 1.2654477831273476	 
11.5	 1.3354162482559486	 1.347061564196371	 
11.5	 1.1644732956249921	 1.2460433045365291	 
11.5	 1.0581210086708435	 1.0524968061495943	 
11.5	 0.9428245407347544	 0.8663961332415465	 
11.5	 0.7717703651277651	 0.7267124728311937	 
11.5	 0.5761779029470194	 0.776333815307804	 
11.5	 0.4214015623683749	 0.9229707630014266	 
11.5	 0.29618033580549963	 1.1048792575702913	 
11.5	 0.1709591092426247	 1.2867877521391553	 
11.5	 -0.019189201664087524	 1.3981018643171246	 
11.5	 -0.21091740261783903	 1.507698182399711	 
11.5	 -0.4008336302362651	 1.620370917833158	 
11.5	 -0.5614419532597323	 1.6313218861226997	 
11.5	 -0.6657330073797645	 1.4367075211732256	 
11.5	 -0.7257899514570472	 1.224188770362103	 
11.5	 -0.7970608225351006	 1.016084439696296	 
11.5	 -0.8979885633910909	 0.8196546886301005	 
11.5	 -1.0228247381914173	 0.6535141820970705	 
11.5	 -1.2373235488660042	 0.6009659547491449	 
11.5	 -1.443136730370049	 0.5352362729757588	 
11.5	 -1.568437108444929	 0.356138687802569	 
11.5	 -1.577884357792777	 0.13549915041640354	 
11.5	 -1.5873316071406247	 -0.08514038696976198	 
11.5	 -1.5967788564884728	 -0.30577992435592743	 
11.5	 -1.5911782949638575	 -0.5257345058247228	 
11.5	 -1.5218944184978136	 -0.6990535104307953	 
11.5	 -1.3010527195860806	 -0.6990535104307953	 
11.5	 -1.0802110206743443	 -0.6990535104307952	 
11.5	 -0.8850743907550461	 -0.7420824256530602	 
11.5	 -0.7804010421782176	 -0.9365420514778965	 
11.5	 -0.5735199673154975	 -0.9830263429978929	 
11.5	 -0.3564103393561955	 -0.9651819881946342	 
11.5	 -0.14682774333667462	 -1.017626803574859	 
11.5	 0.05732216044892488	 -1.1016918019265565	 
12.0	 0.3395579301920127	 -1.1318221547350578	 
12.0	 0.5419260575859393	 -1.0726356720964834	 
12.0	 0.7442941849798659	 -1.0134491894579092	 
12.0	 0.9296422943800375	 -0.9137500378595658	 
12.0	 1.113561993234092	 -0.8106508473414793	 
12.0	 1.2683581048799741	 -0.6736342611529685	 
12.0	 1.3980825058493835	 -0.5074191038863143	 
12.0	 1.4707334489170245	 -0.3171044545461398	 
12.0	 1.4993978842879505	 -0.10821632932855652	 
12.0	 1.5277740896559584	 0.10069709994477591	 
12.0	 1.535944681689151	 0.31138440411348467	 
12.0	 1.5441152737223438	 0.5220717082821932	 
12.0	 1.5522858657555363	 0.7327590124509016	 
12.0	 1.5604564577887292	 0.9434463166196103	 
12.0	 1.5060396831149077	 1.1382289095536497	 
12.0	 1.3982760044086782	 1.319454979046289	 
12.0	 1.2459732019318954	 1.370125867812183	 
12.0	 1.049918143972433	 1.29254808129721	 
12.0	 0.9084548498583276	 1.1386848990381253	 
12.0	 0.7717694553373666	 0.9781451792280423	 
12.0	 0.6295973171218997	 0.8465159880056417	 
12.0	 0.4435986875192428	 0.9458155776220356	 
12.0	 0.2580023910563777	 1.0458017222471108	 
12.0	 0.08046529929221678	 1.1595403689771238	 
12.0	 -0.07858524750931864	 1.2959343180939031	 
12.0	 -0.22562487790127503	 1.4470476722564247	 
12.0	 -0.37266450829323144	 1.5981610264189468	 
12.0	 -0.5594380291107606	 1.6551716747518257	 
12.0	 -0.7577950271109178	 1.6300997099711074	 
12.0	 -0.884811447117476	 1.4618061338585062	 
12.0	 -1.0118278671240346	 1.293512557745904	 
12.0	 -1.1388442871305933	 1.125218981633302	 
12.0	 -1.1812982218021593	 0.9190505879008842	 
12.0	 -1.2329797359137409	 0.7158933041528714	 
12.0	 -1.3275327297867996	 0.5274373940261465	 
12.0	 -1.4220857236598583	 0.33898148389942157	 
12.0	 -1.5166387175329166	 0.15052557377269754	 
12.0	 -1.6111917114059753	 -0.03793033635402737	 
12.0	 -1.705744705279034	 -0.22638624648075237	 
12.0	 -1.7062899572409942	 -0.4361357021970918	 
12.0	 -1.5409548470819054	 -0.5669798845696106	 
12.0	 -1.370660258390732	 -0.6879062575898649	 
12.0	 -1.1667888242873843	 -0.7416867100674578	 
12.0	 -0.963430979104057	 -0.7973552021036081	 
12.0	 -0.7604091138362368	 -0.8542588130191356	 
12.0	 -0.5573872485684167	 -0.9111624239346633	 
12.0	 -0.34987483548788034	 -0.9457532587239932	 
12.0	 -0.1419196476250065	 -0.958169166911615	 
12.0	 0.06185672230926786	 -0.9052589120777427	 
12.0	 0.252744794542755	 -0.9473949203486264	 
12.5	 0.5454330895961335	 -1.0419136478971192	 
12.5	 0.7332133231876989	 -0.9523270605898532	 
12.5	 0.9209935567792644	 -0.8627404732825871	 
12.5	 1.0778425481366412	 -0.7339529244599768	 
12.5	 1.2086493807627985	 -0.57216063387919	 
12.5	 1.3242193970895553	 -0.4015315013881192	 
12.5	 1.3996927766273024	 -0.20764766571784876	 
12.5	 1.4751661561650493	 -0.013763830047577988	 
12.5	 1.5413155114129677	 0.18318127522586408	 
12.5	 1.595454039501571	 0.3840697829346543	 
12.5	 1.5977088376612563	 0.587935154899236	 
12.5	 1.5669021757071593	 0.7936974506006382	 
12.5	 1.5360955137530623	 0.9994597463020405	 
12.5	 1.467604778457058	 1.1894841338874171	 
12.5	 1.3392881933481546	 1.3331976646363939	 
12.5	 1.1690880308366922	 1.213535317032242	 
12.5	 1.0039723917296783	 1.087743896611665	 
12.5	 0.8549331807412668	 0.9425733543483767	 
12.5	 0.6912127723934524	 0.9148305984384628	 
12.5	 0.5110203444643904	 1.0188395483903552	 
12.5	 0.3308067275741204	 1.1228069093294097	 
12.5	 0.14666547896452592	 1.2160022724204214	 
12.5	 0.00042736586761485396	 1.3639941202733366	 
12.5	 -0.14581074722929618	 1.511985968126252	 
12.5	 -0.3153788395674685	 1.6292648790634854	 
12.5	 -0.49717190238618714	 1.7304501302815096	 
12.5	 -0.6460092154744741	 1.6990873838374592	 
12.5	 -0.7592480514553233	 1.5245475924465908	 
12.5	 -0.8540787305818459	 1.3401825195878951	 
12.5	 -0.9360635486578024	 1.1489610188142707	 
12.5	 -1.0180483667337594	 0.9577395180406452	 
12.5	 -1.1000331848097162	 0.7665180172670198	 
12.5	 -1.228429844839382	 0.645692964893989	 
12.5	 -1.4071714967346212	 0.597694715490843	 
12.5	 -1.5021846371998013	 0.4126010205901006	 
12.5	 -1.5412186658247422	 0.20948718282166173	 
12.5	 -1.5651812195352275	 0.0031294466371235494	 
12.5	 -1.5703712754707797	 -0.20486150526331687	 
12.5	 -1.5755613314063321	 -0.4128524571637573	 
12.5	 -1.5679864562012178	 -0.6163977106486924	 
12.5	 -1.434715229543404	 -0.7761661458860293	 
12.5	 -1.2651881656625208	 -0.8584781465067813	 
12.5	 -1.0571324693861037	 -0.8584781465067813	 
12.5	 -0.8546548403289667	 -0.9017890176157678	 
12.5	 -0.6515805725734742	 -0.9458939770513322	 
12.5	 -0.4533760515279776	 -0.9996001009035806	 
12.5	 -0.25745801094352155	 -1.0585970497001072	 
12.5	 -0.05078738897457129	 -1.0786007481751867	 
12.5	 0.15726830730184613	 -1.078600748175187	 
12.5	 0.352270915155396	 -1.033760576327352	 
13.0	 -0.18563952263833475	 -1.4230285743143274	 
13.0	 0.022379580363716803	 -1.3692627785878508	 
13.0	 0.23039868336576838	 -1.315496982861374	 
13.0	 0.4123886846349121	 -1.234261827488694	 
13.0	 0.47726885521977286	 -1.0294368498400719	 
13.0	 0.5421490258046336	 -0.8246118721914493	 
13.0	 0.6070291963894945	 -0.619786894542827	 
13.0	 0.6587298074040862	 -0.41146657485916827	 
13.0	 0.7038803273906398	 -0.20140910998628364	 
13.0	 0.8345659456257604	 -0.09722555476681727	 
13.0	 1.0489836184928552	 -0.09378524955428957	 
13.0	 1.2411941406017017	 -0.009468976246728215	 
13.0	 1.3885591411780767	 0.14279770869222383	 
13.0	 1.4587424331711873	 0.34272948753806015	 
13.0	 1.4902897947469136	 0.5548406867658291	 
13.0	 1.4552412248235878	 0.7668178217361105	 
13.0	 1.4201926549002617	 0.9787949567063924	 
13.0	 1.3291536281576857	 1.1697118477589816	 
13.0	 1.2158129505729551	 1.3522401984569306	 
13.0	 1.0251559295557084	 1.4357206886233498	 
13.0	 0.820573529624852	 1.5013617553606486	 
13.0	 0.6325907096499837	 1.463516578861163	 
13.0	 0.4609677964105646	 1.3351004359868932	 
13.0	 0.34153465963831664	 1.1564991094391295	 
13.0	 0.21826565201508802	 1.0216135569958573	 
13.0	 0.06955404977907186	 1.176686337857865	 
13.0	 -0.0791575524569443	 1.3317591187198725	 
13.0	 -0.22786915469296046	 1.48683189958188	 
13.0	 -0.43056413553864686	 1.5545515576289228	 
13.0	 -0.6012751196472822	 1.459880462484794	 
13.0	 -0.761397825657103	 1.3166204644952229	 
13.0	 -0.9171028491919699	 1.1694309574650077	 
13.0	 -1.0407209468610352	 0.9937002716626671	 
13.0	 -1.1643390445301	 0.8179695858603264	 
13.0	 -1.332171652307383	 0.6890864689795817	 
13.0	 -1.4606399839869795	 0.536522202463623	 
13.0	 -1.5118952931036236	 0.3278703362097211	 
13.0	 -1.563150602220268	 0.11921846995581806	 
13.0	 -1.5821349199811794	 -0.09442495799461528	 
13.0	 -1.5963137101436298	 -0.30881168779244716	 
13.0	 -1.5848865588870076	 -0.5222212491776188	 
13.0	 -1.5544100409532342	 -0.7349038527410316	 
13.0	 -1.5239335230194608	 -0.9475864563044434	 
13.0	 -1.345262616835189	 -1.050199997009583	 
13.0	 -1.1597527161012762	 -1.0065543384269644	 
13.0	 -0.9785074093556391	 -0.892172725623859	 
13.0	 -0.7648433951389687	 -0.8695807573010719	 
13.0	 -0.5788017949621153	 -0.913084401644374	 
13.0	 -0.4447506403558994	 -1.0809921023391877	 
13.0	 -0.30712527521994065	 -1.2458931197837446	 
13.5	 0.10018877168734909	 -1.1004234371248853	 
13.5	 0.3095841988635642	 -1.1760998162787297	 
13.5	 0.5242097250011064	 -1.2219168876703994	 
13.5	 0.7468604813082567	 -1.2219168876703994	 
13.5	 0.9678741658030268	 -1.1965739394994352	 
13.5	 1.1555294714355093	 -1.104110241805112	 
13.5	 1.305950865515276	 -0.939955548033519	 
13.5	 1.4563722595950428	 -0.7758008542619257	 
13.5	 1.5408146157461966	 -0.5743068473432996	 
13.5	 1.5563876621501722	 -0.3522101947886058	 
13.5	 1.5718812238012454	 -0.13009916662586346	 
13.5	 1.5873747854523181	 0.09201186153687867	 
13.5	 1.5819695075711744	 0.31448634969266676	 
13.5	 1.5742086211436468	 0.5370018051693711	 
13.5	 1.566447734716119	 0.7595172606460755	 
13.5	 1.502673830198787	 0.9709768006464985	 
13.5	 1.392536078178074	 1.1477249187921008	 
13.5	 1.1855850166943942	 1.2298505386370946	 
13.5	 0.9743732744174786	 1.2931500197179648	 
13.5	 0.7522274522197537	 1.3081364457176132	 
13.5	 0.530081630022029	 1.3231228717172618	 
13.5	 0.375760899753521	 1.2158872380490429	 
13.5	 0.270938266654546	 1.0194551254138027	 
13.5	 0.1200183992799983	 0.9808158623193441	 
13.5	 -0.04434669656791363	 1.121445864273703	 
13.5	 -0.16467767827162516	 1.3087792946228192	 
13.5	 -0.2850086599753367	 1.4961127249719353	 
13.5	 -0.4806116767032246	 1.5833030781404869	 
13.5	 -0.6940112953246763	 1.6468165574686207	 
13.5	 -0.9153381605880946	 1.6654214649895434	 
13.5	 -1.1375861088082835	 1.678808353950846	 
13.5	 -1.3598340570284722	 1.6921952429121487	 
13.5	 -1.3885666952039997	 1.5000598830872316	 
13.5	 -1.3899254840465658	 1.2774894115599635	 
13.5	 -1.416144832387539	 1.0563878397502613	 
13.5	 -1.4423641807285126	 0.835286267940559	 
13.5	 -1.4685835290694857	 0.6141846961308579	 
13.5	 -1.4874635631104378	 0.39252809011060125	 
13.5	 -1.4947937702393252	 0.16999803068582692	 
13.5	 -1.5021239773682127	 -0.05253202873894747	 
13.5	 -1.5014914981809346	 -0.2740401750763962	 
13.5	 -1.4382063608242446	 -0.4875076214795682	 
13.5	 -1.256725997318461	 -0.6142969551405236	 
13.5	 -1.058285905137849	 -0.5966840908091012	 
13.5	 -0.8557345654718871	 -0.50431725406697	 
13.5	 -0.6541130653784649	 -0.4098602268841056	 
13.5	 -0.48775188718482093	 -0.47313839788996725	 
13.5	 -0.3241940336229033	 -0.6188552052220733	 
13.5	 -0.16758769499279141	 -0.7718335367313388	 
13.5	 0.011119500444193839	 -0.9038199738677617	 
14.0	 0.49056311879470665	 -1.1052280425858818	 
14.0	 0.6984549920879206	 -1.156207058471809	 
14.0	 0.9063468653811348	 -1.207186074357736	 
14.0	 1.1060005398238568	 -1.2284419118930527	 
14.0	 1.2579874334598697	 -1.077717410882319	 
14.0	 1.4099743270958829	 -0.9269929098715858	 
14.0	 1.5148865327282488	 -0.7487598056843668	 
14.0	 1.5715913245604005	 -0.5423561777479089	 
14.0	 1.6282961163925516	 -0.3359525498114512	 
14.0	 1.678805662201922	 -0.12849602662646395	 
14.0	 1.6934725533945076	 0.0850520320039162	 
14.0	 1.708139444587093	 0.29860009063429604	 
14.0	 1.7228063357796786	 0.5121481492646759	 
14.0	 1.6027708164794428	 0.6839207769597985	 
14.0	 1.4698438457521714	 0.8516953623275786	 
14.0	 1.3369168750249	 1.0194699476953581	 
14.0	 1.1353594733909007	 1.0713691227164481	 
14.0	 0.9243460549674765	 1.1073027878136832	 
14.0	 0.7133326365440529	 1.1432364529109185	 
14.0	 0.49975650957993395	 1.1488554653195346	 
14.0	 0.2857053683961986	 1.1488554653195346	 
14.0	 0.0716542272124636	 1.1488554653195346	 
14.0	 -0.06758150401184758	 1.253852134148984	 
14.0	 -0.13746904022583212	 1.4561727295514255	 
14.0	 -0.20735657643981648	 1.6584933249538665	 
14.0	 -0.3434165025791911	 1.7548201795487515	 
14.0	 -0.5558766361327323	 1.7287705597344263	 
14.0	 -0.7683367696862735	 1.702720939920101	 
14.0	 -0.9165467397066758	 1.5735825961872283	 
14.0	 -1.0335142575066627	 1.394316060487537	 
14.0	 -1.1251343290998619	 1.2034190698619271	 
14.0	 -1.184750973480863	 0.9978375853969862	 
14.0	 -1.3537710654128792	 0.880473082855175	 
14.0	 -1.542043037144975	 0.7786322477144112	 
14.0	 -1.601883907344238	 0.5973800997257126	 
14.0	 -1.6088633799748486	 0.3834427771196327	 
14.0	 -1.6158428526054593	 0.16950545451355406	 
14.0	 -1.6013544615716206	 -0.041592912052489175	 
14.0	 -1.539004368185486	 -0.2463619451038756	 
14.0	 -1.4766542747993512	 -0.451130978155262	 
14.0	 -1.3313873118942219	 -0.5864800728639903	 
14.0	 -1.1407703390863722	 -0.6838610808667359	 
14.0	 -0.9345294608438695	 -0.6756933250494399	 
14.0	 -0.7238752192071847	 -0.6377106773990657	 
14.0	 -0.5102813528765231	 -0.6325976296379721	 
14.0	 -0.30043718717806034	 -0.6633673863167237	 
14.0	 -0.10557507234906446	 -0.7423817238848351	 
14.0	 0.05865013209281078	 -0.8796696449415823	 
14.0	 0.23622203865466243	 -0.9951484560544086	 
14.0	 0.44780267506311106	 -0.962721224611456	 
14.5	 0.4802761156877527	 -1.2033880910357744	 
14.5	 0.6815884175723042	 -1.1858282142306549	 
14.5	 0.8829007194568557	 -1.1682683374255358	 
14.5	 1.0786672220717046	 -1.1186842327013145	 
14.5	 1.2741613183174278	 -1.0675271169056035	 
14.5	 1.3837325343252562	 -0.9083246898922743	 
14.5	 1.4747771111235934	 -0.7285306056659464	 
14.5	 1.494155248783466	 -0.5273851857720226	 
14.5	 1.5135333864433385	 -0.32623976587809905	 
14.5	 1.4999495997678045	 -0.12697162037039061	 
14.5	 1.4578592468615599	 0.07067299593801188	 
14.5	 1.4157688939553155	 0.268317612246414	 
14.5	 1.3722895917009026	 0.46560219237188655	 
14.5	 1.313066336927485	 0.6588057074990984	 
14.5	 1.2504836523379659	 0.8497619798761112	 
14.5	 1.0945160897420159	 0.9782497675500613	 
14.5	 0.9120101350201808	 0.9983722349010087	 
14.5	 0.7143204189138105	 0.9564942178843153	 
14.5	 0.5639177928596177	 0.8249092442540413	 
14.5	 0.41765112645905866	 0.6854780624347099	 
14.5	 0.2828646427378181	 0.7238355397001243	 
14.5	 0.14818753781955496	 0.8740782745041574	 
14.5	 0.004479025298154781	 1.0161446519210342	 
14.5	 -0.11042241567243348	 1.1820948137515805	 
14.5	 -0.2234066223413432	 1.3496345439855308	 
14.5	 -0.3683991214412384	 1.4635342793897113	 
14.5	 -0.5694955746892668	 1.4834141348854502	 
14.5	 -0.7694667875753212	 1.5115396660182865	 
14.5	 -0.9685369176155738	 1.5462682635889466	 
14.5	 -1.1466834257933987	 1.5017654341448852	 
14.5	 -1.293682483071284	 1.3674962770207186	 
14.5	 -1.346311341731964	 1.1723932391162768	 
14.5	 -1.3989402003926443	 0.9772902012118349	 
14.5	 -1.4515690590533243	 0.782187163307393	 
14.5	 -1.4869330835590495	 0.5843721964735858	 
14.5	 -1.496655738405483	 0.38252952966053333	 
14.5	 -1.5063783932519164	 0.18068686284748192	 
14.5	 -1.5072590621303497	 -0.02136863747904076	 
14.5	 -1.4818580717815477	 -0.22102053156102064	 
14.5	 -1.443625578640352	 -0.4194475172047996	 
14.5	 -1.3909055702056385	 -0.6096367572195618	 
14.5	 -1.2399335711909478	 -0.7439589358684208	 
14.5	 -1.0650155660062843	 -0.8321216739834338	 
14.5	 -0.8682599426568981	 -0.8781891988123471	 
14.5	 -0.6710240250959096	 -0.9218458312431297	 
14.5	 -0.4719796625357592	 -0.9563149534716598	 
14.5	 -0.27648556629003557	 -1.0074720692673707	 
14.5	 -0.08099147004431191	 -1.0586291850630816	 
14.5	 0.10525733923673503	 -1.1369243386987458	 
14.5	 0.2875990337229652	 -1.2222701024039404	 
15.0	 0.23245933113405226	 -0.9773527973202707	 
15.0	 0.4530995650072355	 -1.0355898113771616	 
15.0	 0.6737397988804188	 -1.0938268254340522	 
15.0	 0.8865149535479565	 -1.1629112368762842	 
15.0	 1.026786293269841	 -1.2990827848560278	 
15.0	 1.2348129595925383	 -1.2052820987788957	 
15.0	 1.4236601715690433	 -1.0783148235254076	 
15.0	 1.521789198370911	 -0.8927254226369845	 
15.0	 1.5521875602370825	 -0.6665626445196985	 
15.0	 1.5779296628028787	 -0.4398720402361045	 
15.0	 1.5989270125236061	 -0.21264357829838632	 
15.0	 1.5676367761718262	 0.013392853362047319	 
15.0	 1.5363061060861691	 0.23942836323131356	 
15.0	 1.504975436000512	 0.46546387310058013	 
15.0	 1.473644765914855	 0.6914993829698467	 
15.0	 1.3880654706460542	 0.8941823381479153	 
15.0	 1.2460193798033583	 1.0727517660445585	 
15.0	 1.1141035310520473	 1.2589556098773236	 
15.0	 0.9821876823007367	 1.4451594537100885	 
15.0	 0.8490859178423646	 1.630505006483514	 
15.0	 0.7134336616029072	 1.8140046740227769	 
15.0	 0.5777814053634504	 1.9975043415620397	 
15.0	 0.41976484393452285	 2.004744225066822	 
15.0	 0.2425831237943945	 1.8609377556085223	 
15.0	 0.06540140365426667	 1.7171312861502228	 
15.0	 -0.009611845639409713	 1.5064288323527273	 
15.0	 -0.07057316916291019	 1.2865257181316263	 
15.0	 -0.13153449268641065	 1.0666226039105253	 
15.0	 -0.32415796487655313	 1.0198463972037608	 
15.0	 -0.5482357611859339	 1.0390007694639756	 
15.0	 -0.7562624275086308	 1.132801455541108	 
15.0	 -0.975688817113908	 1.1048335969707408	 
15.0	 -1.203885360930583	 1.1048335969707408	 
15.0	 -1.3604908931227166	 0.9732626657938074	 
15.0	 -1.4844299900539581	 0.7816569172846775	 
15.0	 -1.5029700818266543	 0.5568054251000932	 
15.0	 -1.5109856523713385	 0.3287569686222117	 
15.0	 -1.5109856523713385	 0.10056042480553684	 
15.0	 -1.5109856523713385	 -0.12763611901113814	 
15.0	 -1.5109856523713387	 -0.355832662827813	 
15.0	 -1.4713212244203466	 -0.5725205913856982	 
15.0	 -1.349181527384206	 -0.7652783591093243	 
15.0	 -1.1441487574799873	 -0.8073783977863105	 
15.0	 -0.9225249475591063	 -0.7650569845937629	 
15.0	 -0.7159799489119563	 -0.6733571069287568	 
15.0	 -0.5354687545723279	 -0.5340389492303983	 
15.0	 -0.3310957012652505	 -0.43531262350296673	 
15.0	 -0.13200357095988174	 -0.43802080542956606	 
15.0	 0.044974580514938314	 -0.5816438808163277	 
15.0	 0.18552406338808186	 -0.7591000818195933	 
15.5	 0.45456641280709714	 -1.0235370916101802	 
15.5	 0.646928814308356	 -1.0403783561507567	 
15.5	 0.839291215809615	 -1.057219620691333	 
15.5	 1.008954645247596	 -0.9949039231398159	 
15.5	 1.1631597769320434	 -0.8786812959760858	 
15.5	 1.3173649086164911	 -0.7624586688123558	 
15.5	 1.4416791233161	 -0.6209615946205904	 
15.5	 1.530655661522973	 -0.44958453270337195	 
15.5	 1.5914234686216542	 -0.26817117092728626	 
15.5	 1.630687251268697	 -0.07910695677002423	 
15.5	 1.6699510339157393	 0.10995725738723802	 
15.5	 1.6599254914929964	 0.2905644611211571	 
15.5	 1.559883889646156	 0.4557268042947008	 
15.5	 1.4598422877993151	 0.6208891474682448	 
15.5	 1.3507500002165647	 0.7796653088474148	 
15.5	 1.2286808137666911	 0.9292849446647873	 
15.5	 1.1201813240206961	 1.088220425941861	 
15.5	 1.0244187604372268	 1.2559000404409983	 
15.5	 0.9195970896759045	 1.411912016214683	 
15.5	 0.7334181791024257	 1.4631402795107364	 
15.5	 0.5484438737309288	 1.5184116303310837	 
15.5	 0.36458674027537197	 1.5774326111782597	 
15.5	 0.18072960681981465	 1.6364535920254362	 
15.5	 0.0004689363642330635	 1.5941745232479043	 
15.5	 -0.1787397119191564	 1.5222635916512588	 
15.5	 -0.35794836020254645	 1.4503526600546137	 
15.5	 -0.5292485973105633	 1.3613173067186177	 
15.5	 -0.7103372908387826	 1.2984626337326786	 
15.5	 -0.8980710517713493	 1.2532635551052191	 
15.5	 -1.0721775457127654	 1.1718575452955367	 
15.5	 -1.2033433602520898	 1.0435474753211367	 
15.5	 -1.2875482940359801	 0.8697762152431022	 
15.5	 -1.3717532278198703	 0.6960049551650676	 
15.5	 -1.4559581616037607	 0.522233695087033	 
15.5	 -1.480914412604796	 0.33114633932383425	 
15.5	 -1.5035423965579209	 0.13937852126023317	 
15.5	 -1.5261703805110458	 -0.05238929680336682	 
15.5	 -1.5487983644641705	 -0.2441571148669679	 
15.5	 -1.53623289338392	 -0.42949489635458327	 
15.5	 -1.4271927646303757	 -0.5876807477826541	 
15.5	 -1.305123578180502	 -0.7373003836000269	 
15.5	 -1.1543049496082698	 -0.8547044468914946	 
15.5	 -0.9918138432833469	 -0.9590287588612337	 
15.5	 -0.811884224519451	 -0.940793057270497	 
15.5	 -0.6286930732954543	 -0.8804155852331582	 
15.5	 -0.4502003638699952	 -0.8067455480089534	 
15.5	 -0.2657581183864206	 -0.8096053397129706	 
15.5	 -0.09689736367822893	 -0.8990101848983034	 
15.5	 0.08343383866248705	 -0.9425265455466655	 
15.5	 0.27437547917718247	 -0.954124202747687	 
16.0	 -0.335653686254844	 -0.727541813108136	 
16.0	 -0.26520715152053953	 -0.9319031397299123	 
16.0	 -0.19476061678623505	 -1.1362644663516885	 
16.0	 -0.12391283733885411	 -1.3401859131555116	 
16.0	 0.08604594850462863	 -1.3916016142770022	 
16.0	 0.290695415708988	 -1.3978277679906272	 
16.0	 0.4830194735327077	 -1.299147867013263	 
16.0	 0.6635511491790167	 -1.1820703961424588	 
16.0	 0.8335272632945011	 -1.048524948054987	 
16.0	 1.0109508661235533	 -0.928088548049354	 
16.0	 1.2126915142093284	 -0.8504549407351538	 
16.0	 1.4222753326025301	 -0.8150412739273775	 
16.0	 1.5249492488473546	 -0.67854879860948	 
16.0	 1.5461606343858156	 -0.4645654262915568	 
16.0	 1.5408125047948709	 -0.24846900433005728	 
16.0	 1.5354643752039263	 -0.032372582368558334	 
16.0	 1.5198607677641662	 0.18280761135107593	 
16.0	 1.48681767932163	 0.3964297552895328	 
16.0	 1.4537745908790936	 0.610051899227989	 
16.0	 1.333279738124137	 0.7871052679576531	 
16.0	 1.2044207310483142	 0.9606610871344151	 
16.0	 1.023333674160827	 0.9893358234415828	 
16.0	 0.8133748883173435	 0.937920122320092	 
16.0	 0.5975709190560543	 0.9349479424574485	 
16.0	 0.432874300294593	 1.059402274866286	 
16.0	 0.2798467453644168	 1.2120745824625747	 
16.0	 0.1268191904342405	 1.3647468900588633	 
16.0	 -0.008026895579580584	 1.533599911159822	 
16.0	 -0.14190751553378464	 1.7033121549001071	 
16.0	 -0.3457749830852303	 1.7563438295805422	 
16.0	 -0.5233612689994247	 1.662869379122765	 
16.0	 -0.6722886092092569	 1.5124535249286268	 
16.0	 -0.7414098095164223	 1.3076401324398041	 
16.0	 -0.8105310098235876	 1.1028267399509812	 
16.0	 -0.921512437800216	 0.9186112512688359	 
16.0	 -1.0416108186776327	 0.7388818853173953	 
16.0	 -1.1774741613726842	 0.5728159157739007	 
16.0	 -1.326593844619361	 0.41959056348254464	 
16.0	 -1.4205455730191496	 0.22491303831495754	 
16.0	 -1.514497301418938	 0.03023551314737049	 
16.0	 -1.5327062613983893	 -0.18405214771300127	 
16.0	 -1.5450317923732446	 -0.39986305420493895	 
16.0	 -1.5119328384931263	 -0.5999740152145879	 
16.0	 -1.3689766773712149	 -0.7621153180093102	 
16.0	 -1.2243033242926398	 -0.8824689903144121	 
16.0	 -1.0685257779292574	 -0.7326036436738758	 
16.0	 -0.8939990995370474	 -0.6068407585740282	 
16.0	 -0.71570003695076	 -0.6201288620602999	 
16.0	 -0.5421968942176167	 -0.7490587869668388	 
16.0	 -0.36869375148447264	 -0.8779887118733785	 
16.5	 -0.5875157561042014	 -1.1921659248684904	 
16.5	 -0.3933629051688696	 -1.2309331413436835	 
16.5	 -0.1992100542335377	 -1.2697003578188764	 
16.5	 -0.005057203298205865	 -1.3084675742940692	 
16.5	 0.18208696071709912	 -1.3729534421228384	 
16.5	 0.36772116439967106	 -1.3332440141549444	 
16.5	 0.5529687202140672	 -1.263375783432077	 
16.5	 0.7332577570863357	 -1.1823395481259271	 
16.5	 0.909321963890345	 -1.0917877856802038	 
16.5	 1.0824834521941777	 -0.996094921509044	 
16.5	 1.2519462079993082	 -0.8937730156501269	 
16.5	 1.3668125322765527	 -0.753079685548914	 
16.5	 1.412642594130608	 -0.5604717105582478	 
16.5	 1.4584726559846635	 -0.36786373556758145	 
16.5	 1.5125740045977938	 -0.17745651974925497	 
16.5	 1.5685228324721543	 0.012459133262908983	 
16.5	 1.5769190948910503	 0.21006032811469677	 
16.5	 1.5836451525630437	 0.40793146483692	 
16.5	 1.5691550440352753	 0.6036466188601648	 
16.5	 1.52276226934254	 0.7961198301282806	 
16.5	 1.4596332540677015	 0.978655632395814	 
16.5	 1.3128510572290542	 1.111521027780663	 
16.5	 1.151263487898562	 1.16104751404832	 
16.5	 0.9676994037192495	 1.0868689888610255	 
16.5	 0.7841353195399374	 1.0126904636737315	 
16.5	 0.6057134392247067	 0.9271498527488932	 
16.5	 0.4696049280846005	 1.0495924981156612	 
16.5	 0.3189724162094632	 1.1642374780413625	 
16.5	 0.14440877681944586	 1.2387558235848308	 
16.5	 0.008880764684661757	 1.3830831755536976	 
16.5	 -0.13490499625110938	 1.5150438669764872	 
16.5	 -0.30161153707571126	 1.4675148346670777	 
16.5	 -0.45631062419666907	 1.3439574834349717	 
16.5	 -0.6053899943142391	 1.2137929200111883	 
16.5	 -0.7521721911528864	 1.0809275246263397	 
16.5	 -0.8945488187602493	 0.9433603187229149	 
16.5	 -1.046046354309293	 0.8192973048951879	 
16.5	 -1.2264180259268938	 0.7376622225015008	 
16.5	 -1.311207468174051	 0.5699868947070907	 
16.5	 -1.368278681600326	 0.3808464435670606	 
16.5	 -1.3949530106913492	 0.18466615208217252	 
16.5	 -1.4216273397823724	 -0.011514139402715548	 
16.5	 -1.427337940884822	 -0.20853299299997935	 
16.5	 -1.4164184302960876	 -0.4062170613718502	 
16.5	 -1.2881120189942545	 -0.5557192785013199	 
16.5	 -1.148462407962814	 -0.6958029624899837	 
16.5	 -1.000031560877002	 -0.8261659969836244	 
16.5	 -0.8453649602531306	 -0.9464075825186878	 
16.5	 -0.7188333904141377	 -1.0605810944934317	 
16.5	 -0.5367753999878743	 -1.0007928785408	 
17.0	 -0.10723248409281669	 -1.3498760052573495	 
17.0	 0.08458068534454377	 -1.4238995783735817	 
17.0	 0.2703379364256101	 -1.4193765499828577	 
17.0	 0.4485372293949028	 -1.3168251319929345	 
17.0	 0.6279999640720302	 -1.2165257911708796	 
17.0	 0.8210110244153346	 -1.1475955643531615	 
17.0	 1.0223466499583336	 -1.119638152181238	 
17.0	 1.2018055791872035	 -1.2071428939504307	 
17.0	 1.3891520675501268	 -1.179994013728852	 
17.0	 1.5793824934413214	 -1.1019929469941312	 
17.0	 1.7009926167047478	 -0.948069316512273	 
17.0	 1.7564045274821183	 -0.7554837923792002	 
17.0	 1.764233587931983	 -0.5500318827775319	 
17.0	 1.7607096908318958	 -0.3455596280490169	 
17.0	 1.717801240244487	 -0.14448589477018287	 
17.0	 1.6748927896570784	 0.05658783850865062	 
17.0	 1.5874772453483161	 0.2287827031472362	 
17.0	 1.4213329729729671	 0.34989365270740447	 
17.0	 1.2310262761120092	 0.4213121450652213	 
17.0	 1.0448530494670867	 0.5085549730060793	 
17.0	 0.9110599242473649	 0.6574952565270062	 
17.0	 0.7780459365646653	 0.8117007414276193	 
17.0	 0.6293539576294271	 0.9529324345091421	 
17.0	 0.4700592467047371	 1.0816980816962949	 
17.0	 0.30391497432938847	 1.2028090312564628	 
17.0	 0.11105232924170588	 1.2594863296052465	 
17.0	 -0.08696665570623024	 1.3057999331010792	 
17.0	 -0.26888354158938943	 1.2937842673986144	 
17.0	 -0.40763918519315173	 1.1420652748017566	 
17.0	 -0.5546716894727861	 1.0124637728770158	 
17.0	 -0.7404685950766255	 0.9525025255037647	 
17.0	 -0.9430322357295111	 0.9325940962138156	 
17.0	 -1.1132355386619925	 0.8230204791958048	 
17.0	 -1.2704975916171022	 0.6924779010882	 
17.0	 -1.3641998112841403	 0.5131068766203681	 
17.0	 -1.3928453915967514	 0.30981335066040505	 
17.0	 -1.4177322225813827	 0.10572408835089073	 
17.0	 -1.443060917065717	 -0.09830457138542495	 
17.0	 -1.4740420508123333	 -0.30155798635864006	 
17.0	 -1.456375814404566	 -0.5060276454092539	 
17.0	 -1.4263756196878612	 -0.708781897633479	 
17.0	 -1.3689294781490107	 -0.9061944660499759	 
17.0	 -1.3048230215667271	 -1.1004536204760091	 
17.0	 -1.1707822982949658	 -1.2264232635100585	 
17.0	 -0.9691276856466697	 -1.1863333826900135	 
17.0	 -0.783863156151971	 -1.1154651247900866	 
17.0	 -0.6380461857000115	 -0.9705196437473431	 
17.0	 -0.4413057636149981	 -0.9135686728636043	 
17.0	 -0.2905761831188066	 -0.9847936508609771	 
17.0	 -0.17813245689565765	 -1.1569220615884142	 
17.5	 -0.7814856244097983	 -0.9213584718577036	 
17.5	 -0.61292638355542	 -1.009236975704068	 
17.5	 -0.4443671427010415	 -1.0971154795504323	 
17.5	 -0.2758079018466632	 -1.1849939833967968	 
17.5	 -0.09076358542774111	 -1.1586607720136939	 
17.5	 0.09576632576792889	 -1.122035079596822	 
17.5	 0.2822962369635987	 -1.08540938717995	 
17.5	 0.4129971966486137	 -1.191047716425627	 
17.5	 0.5248319161444938	 -1.344761231221684	 
17.5	 0.7129336415760079	 -1.3295515696700044	 
17.5	 0.9021926504822408	 -1.311778650283749	 
17.5	 1.0708814030283862	 -1.2304430053170243	 
17.5	 1.2346689588665005	 -1.1339625115980534	 
17.5	 1.4066540795108797	 -1.0573915536170098	 
17.5	 1.5908908322147661	 -1.0105762989577993	 
17.5	 1.6415088208981043	 -0.856711912357794	 
17.5	 1.6470071577792966	 -0.6666997616746841	 
17.5	 1.6525054946604885	 -0.4766876109915743	 
17.5	 1.6461422502231318	 -0.28709054458058614	 
17.5	 1.6273750549814332	 -0.09792754212386949	 
17.5	 1.6086078597397349	 0.09123546033284718	 
17.5	 1.5619350451540075	 0.27417043767897414	 
17.5	 1.4984920827558064	 0.45336262399807775	 
17.5	 1.4350491203576055	 0.6325548103171813	 
17.5	 1.3716061579594048	 0.8117469966362845	 
17.5	 1.1915324435358072	 0.8583947534397489	 
17.5	 1.0066818943140647	 0.9005039265932228	 
17.5	 0.8598927271554742	 1.0212838484369096	 
17.5	 0.7131035599968835	 1.1420637702805967	 
17.5	 0.5555504365507722	 1.2462500204919884	 
17.5	 0.3843612649093808	 1.328402046093772	 
17.5	 0.20271970244607523	 1.3844483831870114	 
17.5	 0.02926362400381815	 1.4609386263478603	 
17.5	 -0.13901728942266792	 1.4843048124614948	 
17.5	 -0.30373998328341767	 1.3894297196133845	 
17.5	 -0.4523534010326159	 1.2722141710254147	 
17.5	 -0.5943962384085861	 1.1458864960453723	 
17.5	 -0.761612753791322	 1.0703180333876685	 
17.5	 -0.9217115637163462	 0.9840025678363289	 
17.5	 -1.0563372980481356	 0.84979839215127	 
17.5	 -1.1571689628052333	 0.6902320185521736	 
17.5	 -1.2484148984689902	 0.523471626550579	 
17.5	 -1.3206736266416872	 0.3514642447690171	 
17.5	 -1.3280023584068512	 0.16151388597389887	 
17.5	 -1.335331090172015	 -0.02843647282121938	 
17.5	 -1.2882080083265581	 -0.21027829496721032	 
17.5	 -1.2258526759976658	 -0.389851849940746	 
17.5	 -1.1523052240091471	 -0.5632004897359292	 
17.5	 -1.0342908350023767	 -0.7121389698159047	 
17.5	 -0.8726614289473047	 -0.7665583408832266	 
18.0	 0.22696747639266143	 -1.2891363545146124	 
18.0	 0.4078334311942935	 -1.218268397268594	 
18.0	 0.5886993859959256	 -1.1474004400225755	 
18.0	 0.7752271033685586	 -1.094997509162687	 
18.0	 0.964731386220007	 -1.0523022195924339	 
18.0	 1.1542356690714555	 -1.0096069300221808	 
18.0	 1.31677339658668	 -0.9100956665835601	 
18.0	 1.4696722531334119	 -0.7902762164211117	 
18.0	 1.6225711096801436	 -0.6704567662586635	 
18.0	 1.6631563804267553	 -0.4822338198080879	 
18.0	 1.6780978759160865	 -0.2900683921390486	 
18.0	 1.6658053669503552	 -0.09620334837443169	 
18.0	 1.6535128579846237	 0.09766169539018532	 
18.0	 1.6079766580823498	 0.2824556743255951	 
18.0	 1.5200986748740908	 0.4556960305875774	 
18.0	 1.354843895873839	 0.5295412597759244	 
18.0	 1.1653396130223905	 0.5722365493461773	 
18.0	 1.0212042757386879	 0.694906048953235	 
18.0	 0.8873293323659637	 0.8356620808221366	 
18.0	 0.801102073809973	 1.0066501007704902	 
18.0	 0.7307767230227638	 1.1877277250292195	 
18.0	 0.5982413383602135	 1.3279116683380567	 
18.0	 0.45989625048293203	 1.4642766111597247	 
18.0	 0.28236312718454465	 1.5308681188292474	 
18.0	 0.09475108885967978	 1.581219958045538	 
18.0	 -0.09277073948988597	 1.6319183294490216	 
18.0	 -0.2782945399240677	 1.631232512399981	 
18.0	 -0.46131339960197804	 1.5661259998783676	 
18.0	 -0.6370409182622967	 1.4850099962709016	 
18.0	 -0.8062940321206473	 1.3896782365064806	 
18.0	 -0.9512300800020455	 1.2620633856039	 
18.0	 -1.0895751678793268	 1.1256984427822319	 
18.0	 -1.2129863983617257	 0.9763733359278279	 
18.0	 -1.3267059926107618	 0.8191126947537147	 
18.0	 -1.411362666305719	 0.6442756032386845	 
18.0	 -1.496019340000676	 0.46943851172365425	 
18.0	 -1.5268408389199009	 0.2874822750404246	 
18.0	 -1.4905401805160752	 0.09664982714442778	 
18.0	 -1.4542395221122495	 -0.09418262075156907	 
18.0	 -1.406525899770922	 -0.2819228607437157	 
18.0	 -1.3263704490115897	 -0.456459922737939	 
18.0	 -1.2037634462862228	 -0.6071326935136551	 
18.0	 -1.0479700887547754	 -0.7146498288392695	 
18.0	 -0.8611256642049281	 -0.7491314593457135	 
18.0	 -0.672729839282338	 -0.7041625463082648	 
18.0	 -0.48455324336332617	 -0.6760574963768814	 
18.0	 -0.3134358864087248	 -0.7476931512386333	 
18.0	 -0.19427421472699313	 -0.9011052008714602	 
18.0	 -0.07166727426605213	 -1.0510155106003667	 
18.0	 0.09118499074072799	 -1.1566128844556527	 
18.5	 -0.4324849837053852	 -0.9857777300995343	 
18.5	 -0.24382783581289535	 -1.0651387039277571	 
18.5	 -0.05100975818640249	 -1.1308563041424313	 
18.5	 0.1507042259190482	 -1.1612564883371477	 
18.5	 0.35392178368127314	 -1.1492454194954975	 
18.5	 0.553109055086265	 -1.1022585943757472	 
18.5	 0.7346932496738563	 -1.0246206134794305	 
18.5	 0.880758066932995	 -0.8812513253562515	 
18.5	 1.0451499205359394	 -0.763762903725266	 
18.5	 1.1960908349228154	 -0.6284159769516915	 
18.5	 1.3579014771836078	 -0.5213082604731069	 
18.5	 1.432017082645097	 -0.33359486408722705	 
18.5	 1.4825337025141028	 -0.13525738720778543	 
18.5	 1.4837479519952053	 0.06846472541583432	 
18.5	 1.4772350722792766	 0.27303076857964614	 
18.5	 1.4707221925633478	 0.47759681174345747	 
18.5	 1.454259419131298	 0.6812832170070764	 
18.5	 1.4247817425133626	 0.8838190168033127	 
18.5	 1.3311656208558647	 1.0646811930226838	 
18.5	 1.231748144940212	 1.2435829792084383	 
18.5	 1.1111300190286229	 1.3961840801696475	 
18.5	 0.9152009492181604	 1.4553574121790867	 
18.5	 0.7138264153055469	 1.488226533851252	 
18.5	 0.5105078280555414	 1.5117049430084915	 
18.5	 0.3542809009613924	 1.396108050844291	 
18.5	 0.25251587622446664	 1.2185311284748974	 
18.5	 0.1303854378716428	 1.076097679192424	 
18.5	 -0.06447239262452631	 1.0942528760529358	 
18.5	 -0.17660935814059858	 1.2654690685778835	 
18.5	 -0.31232498442594964	 1.4087571647274582	 
18.5	 -0.5040247858831464	 1.470924885227054	 
18.5	 -0.7086944798241221	 1.470924885227054	 
18.5	 -0.913364173765098	 1.470924885227054	 
18.5	 -1.1150880559398824	 1.4619543281529948	 
18.5	 -1.2799123214801578	 1.340617420713414	 
18.5	 -1.3539416202308105	 1.1501753764994065	 
18.5	 -1.4269863827352836	 0.9589839899555628	 
18.5	 -1.500031145239757	 0.7677926034117183	 
18.5	 -1.5730759077442305	 0.5766012168678738	 
18.5	 -1.6228338553779522	 0.38023201190193207	 
18.5	 -1.6376886989918429	 0.17610210904813772	 
18.5	 -1.6001304663613225	 -0.024292333652817216	 
18.5	 -1.5564762888803476	 -0.22425232066609882	 
18.5	 -1.512822111399372	 -0.4242123076793815	 
18.5	 -1.4414828074781216	 -0.6155792303037175	 
18.5	 -1.2860124767441328	 -0.7211422231654556	 
18.5	 -1.0982620593288872	 -0.6425447040776201	 
18.5	 -0.8952039060695762	 -0.6348202136243074	 
18.5	 -0.6989743127475466	 -0.6813246100440926	 
18.5	 -0.5890445978767641	 -0.8539662661017237	 
19.0	 -0.4679636580689534	 -0.8237366556908099	 
19.0	 -0.2895821119182871	 -0.9276628008297274	 
19.0	 -0.11120056576762077	 -1.031588945968645	 
19.0	 0.06910751998244924	 -1.1321183523452794	 
19.0	 0.2498517560504548	 -1.2318787692386084	 
19.0	 0.4444649950878028	 -1.2778105719019985	 
19.0	 0.6509126147169417	 -1.2778105719019985	 
19.0	 0.8566569512562561	 -1.2665002624983512	 
19.0	 1.0615142845827725	 -1.2409250277411468	 
19.0	 1.2580194024145948	 -1.178077356637647	 
19.0	 1.4488844805880352	 -1.1031464645657432	 
19.0	 1.5347169308992914	 -0.9362494862242025	 
19.0	 1.5543142602860536	 -0.7307341234615994	 
19.0	 1.5670953816472784	 -0.524894509541599	 
19.0	 1.5670953816472784	 -0.31844688991245984	 
19.0	 1.5670953816472781	 -0.11199927028332121	 
19.0	 1.556697118664821	 0.09330551769933262	 
19.0	 1.5118590621152428	 0.29482516521637886	 
19.0	 1.4670210055656647	 0.4963448127334245	 
19.0	 1.4221829490160867	 0.6978644602504706	 
19.0	 1.2691343418294054	 0.8251702333550053	 
19.0	 1.0972936341363408	 0.9395878492630652	 
19.0	 0.9252828795098182	 1.0537480605184881	 
19.0	 0.7526179927506416	 1.1669180942331536	 
19.0	 0.5921487919425228	 1.292183262250104	 
19.0	 0.480412101823115	 1.465779148525376	 
19.0	 0.3686754117037072	 1.6393750348006475	 
19.0	 0.25693872158429937	 1.8129709210759195	 
19.0	 0.08407251134944296	 1.8200838437932063	 
19.0	 -0.11345140310880907	 1.7600428339114065	 
19.0	 -0.31203251494900824	 1.7043497749090055	 
19.0	 -0.5150723893547949	 1.6669943328446928	 
19.0	 -0.7039826566921313	 1.6077288751058685	 
19.0	 -0.8217737632492685	 1.4381827903189206	 
19.0	 -0.9395648698064059	 1.268636705531973	 
19.0	 -1.0548417946956177	 1.097898044284278	 
19.0	 -1.1116227761035948	 0.899412428178515	 
19.0	 -1.2666594912296385	 0.7692342244260397	 
19.0	 -1.432934284000563	 0.6468687352572224	 
19.0	 -1.52879230643167	 0.488894769471844	 
19.0	 -1.5287923064316702	 0.2824471498427054	 
19.0	 -1.3580476937058867	 0.17413181931887467	 
19.0	 -1.179666147555221	 0.07020567417995752	 
19.0	 -0.9865795538182598	 0.0016975777558179079	 
19.0	 -0.7856350121952488	 -0.03637833696879901	 
19.0	 -0.6416929462007747	 -0.184369219416942	 
19.0	 -0.4977508802063005	 -0.3323601018650851	 
19.0	 -0.42580529707847303	 -0.5091013169911558	 
