4.0	 -1.2063553360816077	 -0.6406338344860011	 
4.0	 -1.0970472044638133	 -0.8066808125942331	 
4.0	 -0.9661196757787691	 -0.9592417854843837	 
4.0	 -0.8292802085858686	 -1.106543969665269	 
4.5	 -0.7335609828757366	 -0.9834892091924466	 
4.5	 -0.5474807555722084	 -0.8768825836625194	 
4.5	 -0.3780914952715968	 -0.751413508273489	 
4.5	 -0.24963144573556573	 -0.5796903611051145	 
4.5	 -0.08639826285465252	 -0.4614024911288175	 
4.5	 0.12523873761425214	 -0.43649240183260274	 
4.5	 0.3140964068321946	 -0.5337626616093313	 
4.5	 0.504516867319313	 -0.6188246709525507	 
4.5	 0.7189594605905852	 -0.6187175327788684	 
4.5	 0.9282701502966786	 -0.5732416036725637	 
4.5	 1.142724862532644	 -0.5732416036725637	 
4.5	 1.3546521957168334	 -0.5530731333716312	 
4.5	 1.5105162794833413	 -0.43132029072510447	 
4.5	 1.613593057648601	 -0.24467015838037404	 
4.5	 1.6135930576486008	 -0.030215446144408242	 
4.5	 1.6135930576486008	 0.18423926609155697	 
4.5	 1.6101317614639419	 0.3982804098054806	 
4.5	 1.5596054029989936	 0.606698045096937	 
4.5	 1.4996665070406041	 0.8101104255372527	 
4.5	 1.355120794194305	 0.9685318903012365	 
4.5	 1.210575081348006	 1.1269533550652202	 
4.5	 1.0660293685017073	 1.2853748198292037	 
4.5	 0.8561151843674586	 1.2956641548069028	 
4.5	 0.6416604721314929	 1.2956641548069028	 
4.5	 0.42720575989552706	 1.2956641548069028	 
4.5	 0.3230303173433226	 1.4789032253486467	 
4.5	 0.2226204020447151	 1.668399063060026	 
4.5	 0.12221048674610757	 1.8578949007714054	 
4.5	 -0.020157237409650766	 2.011843884072766	 
4.5	 -0.19057926234981154	 2.142025130861639	 
4.5	 -0.38294668610605664	 2.2073255004066423	 
4.5	 -0.5974013983420228	 2.2073255004066423	 
4.5	 -0.8118561105779889	 2.2073255004066423	 
4.5	 -1.0032000651648532	 2.163003352915766	 
4.5	 -1.1259685307970149	 1.9871661343113547	 
4.5	 -1.2487369964291768	 1.8113289157069437	 
4.5	 -1.3206721247997062	 1.6132669222107558	 
4.5	 -1.3663875609350602	 1.4037414524006029	 
4.5	 -1.4121029970704138	 1.1942159825904501	 
4.5	 -1.4578184332057678	 0.9846905127802972	 
4.5	 -1.4894241484683197	 0.7736436698712053	 
4.5	 -1.48942414846832	 0.5591889576352397	 
4.5	 -1.4894241484683197	 0.34473424539927505	 
4.5	 -1.4894241484683197	 0.13027953316330926	 
4.5	 -1.4664176226278665	 -0.08281098555360711	 
4.5	 -1.4410741440663943	 -0.29576293246796426	 
4.5	 -1.382301891683352	 -0.4996444053939842	 
4.5	 -1.2848337363768785	 -0.6878466737229364	 
4.5	 -1.1267463128647193	 -0.8327576468322841	 
4.5	 -0.9388300483097283	 -0.9346684770512508	 
5.0	 -0.6724543444168022	 -0.9012772882995723	 
5.0	 -0.4977933996207663	 -0.8002078660412302	 
5.0	 -0.3167254938849271	 -0.7230026598447119	 
5.0	 -0.11492987016459232	 -0.7230026598447119	 
5.0	 0.0868657535557425	 -0.723002659844712	 
5.0	 0.2886613772760774	 -0.7230026598447119	 
5.0	 0.4855932581170233	 -0.7617171457186119	 
5.0	 0.6811179085614948	 -0.8116329229964049	 
5.0	 0.8828498309048531	 -0.8121399740721421	 
5.0	 1.0838241087163145	 -0.7962004691094123	 
5.0	 1.284550941769821	 -0.7754589107063227	 
5.0	 1.4839442628673791	 -0.7453180197318916	 
5.0	 1.6180729071676854	 -0.6473692068975312	 
5.0	 1.6464031641695547	 -0.44757213411895636	 
5.0	 1.674733421171424	 -0.24777506134038166	 
5.0	 1.663762529944919	 -0.05051455081083886	 
5.0	 1.6099838297268843	 0.14398307168243915	 
5.0	 1.5490565769900775	 0.335695722384143	 
5.0	 1.4570851702713163	 0.5153140235086415	 
5.0	 1.3651137635525548	 0.6949323246331405	 
5.0	 1.1737328121329689	 0.748317959454416	 
5.0	 0.9773336853389369	 0.7944786961519694	 
5.0	 0.7779192609805496	 0.8253876125110403	 
5.0	 0.601038462569784	 0.9111167368996771	 
5.0	 0.44628749444134663	 1.0368371195540569	 
5.0	 0.3556484480158674	 1.2171314262189066	 
5.0	 0.26500940159038816	 1.3974257328837565	 
5.0	 0.15386075456334353	 1.5630014723368602	 
5.0	 0.012069789268169082	 1.706586972695851	 
5.0	 -0.14066760659218663	 1.8330703128573003	 
5.0	 -0.33043379274687185	 1.9017017076047793	 
5.0	 -0.5144184709232701	 1.9202910861039764	 
5.0	 -0.6835359252271858	 1.8101967610801943	 
5.0	 -0.8526533795311013	 1.7001024360564125	 
5.0	 -0.973781592947262	 1.5412612236339611	 
5.0	 -1.0865113373739301	 1.3738889485279058	 
5.0	 -1.1992410818005976	 1.2065166734218515	 
5.0	 -1.2710936230276313	 1.0257992348341154	 
5.0	 -1.2788374429182494	 0.8241522487267581	 
5.0	 -1.2865812628088675	 0.6225052626194009	 
5.0	 -1.2920435693191432	 0.4207881873414729	 
5.0	 -1.2966920522949263	 0.21904611101949437	 
5.0	 -1.3013405352707093	 0.01730403469751704	 
5.0	 -1.3059890182464926	 -0.18443804162446142	 
5.0	 -1.2993914341720862	 -0.3854515799264639	 
5.0	 -1.2687526975211632	 -0.5849076943203686	 
5.0	 -1.2293080775632594	 -0.7823460882383158	 
5.0	 -1.1700455732584725	 -0.9752435463247412	 
5.0	 -1.00531721407261	 -1.0756227825136686	 
5.0	 -0.8194574852284834	 -1.0124498169211353	 
5.5	 -0.9947803718715029	 -1.0455823368633748	 
5.5	 -0.8061422244627221	 -1.0455823368633748	 
5.5	 -0.6175040770539413	 -1.0455823368633748	 
5.5	 -0.4296993055490456	 -1.0410222062920929	 
5.5	 -0.25325439476714035	 -0.9743023133291809	 
5.5	 -0.07680948398523504	 -0.9075824203662689	 
5.5	 0.10180731819963794	 -0.8469464746632379	 
5.5	 0.2806151609251596	 -0.7868456756863348	 
5.5	 0.45454003832480716	 -0.8027768974079668	 
5.5	 0.6285457676070125	 -0.8663396505439394	 
5.5	 0.8171839150157936	 -0.8663396505439394	 
5.5	 0.9704987863970267	 -0.7748553699751198	 
5.5	 1.11316776251451	 -0.6515036389217493	 
5.5	 1.2579024439857078	 -0.5305233817007965	 
5.5	 1.4015960679049564	 -0.4083183392702076	 
5.5	 1.5443143847382839	 -0.2849658658532597	 
5.5	 1.6638461837629137	 -0.14935695598404677	 
5.5	 1.685394010351279	 0.038046464014454634	 
5.5	 1.7069418369396439	 0.2254498840129555	 
5.5	 1.7284896635280091	 0.4128533040114569	 
5.5	 1.7500374901163742	 0.6002567240099583	 
5.5	 1.690178100584898	 0.7740628749166758	 
5.5	 1.6088958901885073	 0.9442908189531762	 
5.5	 1.5123856985717372	 1.1032677916786606	 
5.5	 1.3735462610466762	 1.2309704198643856	 
5.5	 1.234706823521615	 1.3586730480501108	 
5.5	 1.0958673859965535	 1.4863756762358364	 
5.5	 0.9543782618676082	 1.6064442582392502	 
5.5	 0.7662772623274001	 1.5922187659879585	 
5.5	 0.5781762627871929	 1.5779932737366669	 
5.5	 0.39099893747608044	 1.5557955441335172	 
5.5	 0.20462841919844318	 1.5266342585867205	 
5.5	 0.01935401916209703	 1.4938077609925888	 
5.5	 -0.1524265346141252	 1.415860394121401	 
5.5	 -0.3201791356600694	 1.330840577491015	 
5.5	 -0.47485588196706185	 1.2228616220890514	 
5.5	 -0.6283221776461689	 1.1131711533905955	 
5.5	 -0.7816651204943563	 1.003306270300162	 
5.5	 -0.9674927539298661	 0.9785404462309517	 
5.5	 -1.12781003656237	 0.9285351548045265	 
5.5	 -1.1645100176849092	 0.7435014766715384	 
5.5	 -1.2012099988074487	 0.5584677985385501	 
5.5	 -1.237909979929988	 0.3734341204055629	 
5.5	 -1.2619791859894451	 0.18731584112244212	 
5.5	 -1.257361446795272	 -0.0012657781901292409	 
5.5	 -1.2527437076010992	 -0.1898473975027007	 
5.5	 -1.248125968406926	 -0.3784290168152721	 
5.5	 -1.2148331268748191	 -0.5638115192327556	 
5.5	 -1.1777766754544328	 -0.7487741372558174	 
5.5	 -1.1196774123762077	 -0.9278026093964863	 
6.0	 -1.1423628780934743	 -0.8378314234981017	 
6.0	 -1.0376965971840455	 -1.018229384433125	 
6.0	 -0.9330303162746167	 -1.1986273453681482	 
6.0	 -0.7308364722412574	 -1.2317402520219463	 
6.0	 -0.5251943339519319	 -1.2151385593660504	 
6.0	 -0.32022321009280497	 -1.1765990594620284	 
6.0	 -0.11843846695923825	 -1.127392196613959	 
6.0	 0.06468236841114214	 -1.0287312319666608	 
6.0	 0.21663790068058095	 -0.885874762453946	 
6.0	 0.4183262116680688	 -0.8507891987415896	 
6.0	 0.6261746409043559	 -0.8378314234981017	 
6.0	 0.8331767372493848	 -0.8280368950046368	 
6.0	 1.03141032650033	 -0.7632148404119814	 
6.0	 1.2176047057270243	 -0.6873237926810399	 
6.0	 1.26558191667518	 -0.4843542336369264	 
6.0	 1.316887025337274	 -0.2822203042438304	 
6.0	 1.3967728233154677	 -0.09098994041112574	 
6.0	 1.4947068710439666	 0.09314961797988874	 
6.0	 1.592640918772465	 0.27728917637090267	 
6.0	 1.6626580404403544	 0.46900022328178803	 
6.0	 1.6711834848407023	 0.6773887341615924	 
6.0	 1.672184888721343	 0.8854625388496471	 
6.0	 1.6462872367948522	 1.0924112433481774	 
6.0	 1.6203895848683612	 1.2993599478467077	 
6.0	 1.5330535536607994	 1.4730911283760348	 
6.0	 1.3740739503699717	 1.6080872038983132	 
6.0	 1.2150943470791438	 1.7430832794205915	 
6.0	 1.056114743788316	 1.8780793549428698	 
6.0	 0.8487372764213811	 1.8907385498100222	 
6.0	 0.6404292863372849	 1.9010456316496782	 
6.0	 0.43212129625318774	 1.911352713489335	 
6.0	 0.2951143669198736	 1.7857020202155547	 
6.0	 0.18515187281275308	 1.60848265175187	 
6.0	 0.10648769548905276	 1.4189035153746283	 
6.0	 0.06569479228115122	 1.2143689370833368	 
6.0	 0.024901889073249653	 1.0098343587920453	 
6.0	 -0.08651172864414218	 0.8371166207954399	 
6.0	 -0.23592387716646734	 0.7811752842131402	 
6.0	 -0.4184373366477167	 0.8821073989096625	 
6.0	 -0.6140172379340167	 0.9518629727373907	 
6.0	 -0.8125923684734633	 1.0019077115925135	 
6.0	 -0.9871410856877965	 0.887753430079482	 
6.0	 -1.1616898029021285	 0.7735991485664515	 
6.0	 -1.2486478821985978	 0.597419171215875	 
6.0	 -1.2983673385308432	 0.3948693493671469	 
6.0	 -1.3087754022066838	 0.1896671519724456	 
6.0	 -1.2867151530908667	 -0.01772571212339026	 
6.0	 -1.2640018149448409	 -0.22504043758303827	 
6.0	 -1.236512864224395	 -0.4317837863447677	 
6.0	 -1.195952205436547	 -0.6362711727974395	 
6.5	 -0.9083174277823365	 -0.8678838886768474	 
6.5	 -0.7140353957869364	 -0.8386928461680103	 
6.5	 -0.5197533637915366	 -0.8095018036591735	 
6.5	 -0.3514020917678814	 -0.8976449822844942	 
6.5	 -0.17793151788218134	 -0.9889632657576947	 
6.5	 0.0175758987986831	 -0.993223793824926	 
6.5	 0.21292326654999566	 -1.0028020114946237	 
6.5	 0.40517839993450605	 -1.0429425680462445	 
6.5	 0.5817461515086563	 -0.9901699647389376	 
6.5	 0.7487364911711231	 -0.8866718904649286	 
6.5	 0.9080759113648977	 -0.771922110005238	 
6.5	 1.0657184201473149	 -0.6546767930676314	 
6.5	 1.1885961111548857	 -0.5105971714116389	 
6.5	 1.3146113286451733	 -0.3613413877611113	 
6.5	 1.4511617899938787	 -0.2201816399272616	 
6.5	 1.5949821619604012	 -0.08684210428272571	 
6.5	 1.7520577676048579	 0.0311616203637513	 
6.5	 1.7785303594670947	 0.22068210034134655	 
6.5	 1.7933467389785018	 0.4165853923432632	 
6.5	 1.7568839316033602	 0.5956467775590564	 
6.5	 1.6287990898807796	 0.7446162316089251	 
6.5	 1.5007142481581994	 0.8935856856587934	 
6.5	 1.3726294064356193	 1.0425551397086623	 
6.5	 1.2237250714341164	 1.1609448726881306	 
6.5	 1.038173701203917	 1.2255073534700036	 
6.5	 0.8911764344630927	 1.3355191473743655	 
6.5	 0.7972209370312847	 1.5080589671880995	 
6.5	 0.6757188949743596	 1.6599123928109312	 
6.5	 0.5229344739699361	 1.772529174220361	 
6.5	 0.32937904549304303	 1.8062029180891432	 
6.5	 0.1486079808838709	 1.7832440179525388	 
6.5	 -0.011711052707304964	 1.6696859606100243	 
6.5	 -0.1720300862984808	 1.5561279032675093	 
6.5	 -0.2610322919434057	 1.383679334795516	 
6.5	 -0.3422166294967769	 1.2047750915394249	 
6.5	 -0.5099167263072548	 1.210598533547122	 
6.5	 -0.7026068198354462	 1.246382941183237	 
6.5	 -0.8866665489381311	 1.2260184122977789	 
6.5	 -1.0490854312878177	 1.1154845642000446	 
6.5	 -1.180450900407451	 0.9799249427826675	 
6.5	 -1.253943701246932	 0.797726059296015	 
6.5	 -1.3274365020864136	 0.6155271758093624	 
6.5	 -1.380623816853437	 0.42974016577951313	 
6.5	 -1.3740236803375079	 0.23338827982731353	 
6.5	 -1.3674235438215785	 0.03703639387511393	 
6.5	 -1.3549007598477187	 -0.15888068753158274	 
6.5	 -1.3327547736167131	 -0.35409129229697633	 
6.5	 -1.3106087873857075	 -0.5493018970623699	 
6.5	 -1.2368986967274258	 -0.7295799760763131	 
6.5	 -1.1047802103112776	 -0.8678838886768474	 
7.0	 -1.1835184715400187	 -1.038801469748847	 
7.0	 -1.0307808400134693	 -1.1620641586775002	 
7.0	 -0.8780432084869199	 -1.2853268476061537	 
7.0	 -0.7253055769603706	 -1.4085895365348071	 
7.0	 -0.5500189546608191	 -1.484280314554681	 
7.0	 -0.3579074565461813	 -1.5244754244364993	 
7.0	 -0.18560735100670447	 -1.5163722725941313	 
7.0	 -0.07705849321587502	 -1.352849735803118	 
7.0	 0.03149036457495427	 -1.189327199012105	 
7.0	 0.14003922236578356	 -1.0258046622210921	 
7.0	 0.24858808015661302	 -0.8622821254300788	 
7.0	 0.3627799228566206	 -0.7065249652432961	 
7.0	 0.5482192354964042	 -0.645305065911973	 
7.0	 0.717205440284773	 -0.5454745237042626	 
7.0	 0.8930059473685352	 -0.4629924467950582	 
7.0	 1.0847605129320343	 -0.4211276507031686	 
7.0	 1.2750648178466877	 -0.37571190579373887	 
7.0	 1.4413018124269308	 -0.27136759018819107	 
7.0	 1.6123034694837624	 -0.21093943860195757	 
7.0	 1.6671581834828442	 -0.13688835362951457	 
7.0	 1.6153225309908446	 0.05241441892543405	 
7.0	 1.563486878498845	 0.24171719148038212	 
7.0	 1.511651226006845	 0.4310199640353307	 
7.0	 1.3996243601118314	 0.5800082398940432	 
7.0	 1.2443032168760664	 0.699999143841787	 
7.0	 1.0889820736403009	 0.8199900477895311	 
7.0	 0.9170290399810388	 0.9039075051089434	 
7.0	 0.7434840493534158	 0.9752642983015853	 
7.0	 0.6166855849735615	 1.1250795979113815	 
7.0	 0.489887120593708	 1.2748948975211767	 
7.0	 0.31288546993342486	 1.342163204646194	 
7.0	 0.1215351929596045	 1.3858386676466503	 
7.0	 -0.05247934888060504	 1.4700483757339096	 
7.0	 -0.2162350990604481	 1.578245089405346	 
7.0	 -0.3926577354619048	 1.6167269789562424	 
7.0	 -0.5840080124357252	 1.573051515955786	 
7.0	 -0.7698396603769657	 1.514504059373247	 
7.0	 -0.9433619065390992	 1.4227843523681007	 
7.0	 -1.0794485166111958	 1.3042672204153023	 
7.0	 -1.1103282276367339	 1.1104401892425544	 
7.0	 -1.141207938662272	 0.9166131580698067	 
7.0	 -1.1720876496878103	 0.7227861268970589	 
7.0	 -1.1927244756033972	 0.527762816720636	 
7.0	 -1.2073411841795814	 0.33203640972183324	 
7.0	 -1.2219578927557657	 0.1363100027230305	 
7.0	 -1.2365746013319499	 -0.059416404275772154	 
7.0	 -1.2334141682240312	 -0.2554515691251636	 
7.0	 -1.225603075678118	 -0.45156750779283317	 
7.0	 -1.2146888764069403	 -0.6474981294545437	 
7.0	 -1.1991036739734795	 -0.843149799601695	 
7.5	 -1.3125793788677116	 -1.0020436445798364	 
7.5	 -1.3414595301159076	 -0.8063567253232757	 
7.5	 -1.370339681364104	 -0.6106698060667153	 
7.5	 -1.3728022344133215	 -0.41379902882297276	 
7.5	 -1.3615414223574231	 -0.21631326321926128	 
7.5	 -1.350280610301525	 -0.01882749761554979	 
7.5	 -1.3007572890282872	 0.17056483952397006	 
7.5	 -1.2310856840780666	 0.35569533665478525	 
7.5	 -1.1148187038571795	 0.5023426364291095	 
7.5	 -0.9423091934095804	 0.5803597869836515	 
7.5	 -0.7504871439975931	 0.5320717463977308	 
7.5	 -0.5589849657518341	 0.4825473179955923	 
7.5	 -0.3906810514675565	 0.5147050119110333	 
7.5	 -0.2525421509206049	 0.6562856520420969	 
7.5	 -0.12246905065630787	 0.8051544302898606	 
7.5	 -0.014897420053676745	 0.9702620162856658	 
7.5	 0.08731996493743109	 1.1382744865101047	 
7.5	 0.24916205469989938	 1.2481655876708184	 
7.5	 0.4365951359465282	 1.2674510842348208	 
7.5	 0.6217991280907098	 1.1979750826364253	 
7.5	 0.8041014101431083	 1.2416769104581347	 
7.5	 0.9358212206738883	 1.3815840571084204	 
7.5	 1.0813454664822963	 1.497034450648313	 
7.5	 1.2668947372265684	 1.5043951086523004	 
7.5	 1.4045783940289847	 1.3770682875046825	 
7.5	 1.452714562607688	 1.1852080707352726	 
7.5	 1.4993843649369074	 0.9930226642630834	 
7.5	 1.5368681043750476	 0.7988001043428314	 
7.5	 1.566710229871581	 0.6035617541327413	 
7.5	 1.5812671381631158	 0.40629155890489166	 
7.5	 1.5953417354094668	 0.2090435822996303	 
7.5	 1.5627096781528529	 0.0139472411154771	 
7.5	 1.5300776208962394	 -0.18114910006867607	 
7.5	 1.3966654594233159	 -0.3242317529839289	 
7.5	 1.256192102469912	 -0.4632271925702379	 
7.5	 1.064370053057925	 -0.5115152331561587	 
7.5	 0.8835466216552097	 -0.5829770644033981	 
7.5	 0.7248464349653323	 -0.7010519738839497	 
7.5	 0.5443066623455712	 -0.776572504300958	 
7.5	 0.3558487939232706	 -0.7900195808138013	 
7.5	 0.1673909255009708	 -0.7299274404461518	 
7.5	 0.017554035847268626	 -0.797294251588833	 
7.5	 -0.10585370292283985	 -0.9518839133256081	 
7.5	 -0.23746002979651207	 -1.0993649316812864	 
7.5	 -0.37300429835068327	 -1.2434315300528627	 
7.5	 -0.5574464381266195	 -1.2909849368010784	 
7.5	 -0.754789333471331	 -1.2985746231834003	 
7.5	 -0.9525958892379238	 -1.2985746231834003	 
7.5	 -1.144611731163022	 -1.30736255191954	 
7.5	 -1.285272222016783	 -1.197956259510477	 
8.0	 0.7756239785760091	 0.861113131804545	 
8.0	 0.9708373966512032	 0.8219105337491069	 
8.0	 1.166050814726397	 0.7827079356936688	 
8.0	 1.2518502076212235	 0.6122624100905423	 
8.0	 1.3255378534239628	 0.42728875481242784	 
8.0	 1.395248810190347	 0.24080335414712756	 
8.0	 1.4630482295732732	 0.05359127915666452	 
8.0	 1.518845402022539	 -0.13639159527083128	 
8.0	 1.5399717495479288	 -0.33437846284323636	 
8.0	 1.5610980970733184	 -0.5323653304156414	 
8.0	 1.5391520839274138	 -0.7207759964331909	 
8.0	 1.4361264126246327	 -0.8911603658557057	 
8.0	 1.3331007413218514	 -1.0615447352782204	 
8.0	 1.2300750700190703	 -1.2319291047007352	 
8.0	 1.0586515915316554	 -1.3314782955221856	 
8.0	 0.8847656498483335	 -1.4284772727116428	 
8.0	 0.6895955529041355	 -1.4436308386135022	 
8.0	 0.490484723738827	 -1.4436308386135022	 
8.0	 0.29137389457351887	 -1.4436308386135024	 
8.0	 0.09226306540821022	 -1.4436308386135024	 
8.0	 -0.10662771919507406	 -1.4405470796736528	 
8.0	 -0.3037212058536703	 -1.4122755426150766	 
8.0	 -0.500348503051781	 -1.4239458189807215	 
8.0	 -0.696728432605099	 -1.4568098655899073	 
8.0	 -0.8913812345574447	 -1.473752026614863	 
8.0	 -1.076146431061151	 -1.3995432370287004	 
8.0	 -1.2609116275648573	 -1.3253344474425375	 
8.0	 -1.3846383748593518	 -1.1717578401670765	 
8.0	 -1.5037922964022827	 -1.0122352233635719	 
8.0	 -1.5394112950820826	 -0.819543569591292	 
8.0	 -1.5621423133692267	 -0.6217345124211859	 
8.0	 -1.5801336015991316	 -0.42373285251424464	 
8.0	 -1.5735272868793024	 -0.22473164925979355	 
8.0	 -1.5669209721594735	 -0.025730446005342522	 
8.0	 -1.5554386382378134	 0.17203816353841428	 
8.0	 -1.4666845086968592	 0.35027347648263457	 
8.0	 -1.3704397048147152	 0.523735131584358	 
8.0	 -1.2463662753982645	 0.6794621568681469	 
8.0	 -1.122292845981814	 0.8351891821519357	 
8.0	 -0.991892743146846	 0.9854832639520723	 
8.0	 -0.8567051781962524	 1.1316661787322404	 
8.0	 -0.6838573369362669	 1.2022674997207432	 
8.0	 -0.4857427074435543	 1.2221601081937767	 
8.0	 -0.3403891911745412	 1.1398782238908738	 
8.0	 -0.24190678965837953	 0.9668281187695351	 
8.0	 -0.09435026991751602	 0.8355950789415632	 
8.0	 0.06645148521655542	 0.7184891196188075	 
8.0	 0.2319128874001046	 0.7852474143425245	 
8.0	 0.4034557651926518	 0.8844919005769767	 
8.0	 0.5908587820723019	 0.935321921390708	 
8.5	 0.06860214030921111	 -0.8188308812673912	 
8.5	 0.27333410778703254	 -0.8188308812673912	 
8.5	 0.47806607526485395	 -0.8188308812673911	 
8.5	 0.6771185637499795	 -0.7724736643888221	 
8.5	 0.8632896304220631	 -0.6971243724449043	 
8.5	 1.02564241455286	 -0.572397663227036	 
8.5	 1.1873579606202451	 -0.44687268799474616	 
8.5	 1.344956010578806	 -0.3161897390052215	 
8.5	 1.4894570064649404	 -0.17125586546683333	 
8.5	 1.5948586457201972	 -0.007330673947146947	 
8.5	 1.615651983319864	 0.1963426321555578	 
8.5	 1.6364453209195307	 0.40001593825826226	 
8.5	 1.657238658519197	 0.6036892443609667	 
8.5	 1.659595781393606	 0.8058835821807173	 
8.5	 1.6065996275243555	 1.0036374346903627	 
8.5	 1.5536034736551054	 1.2013912872000077	 
8.5	 1.4933662128140266	 1.3941016162061879	 
8.5	 1.326249506567601	 1.5123690462141393	 
8.5	 1.159132800321176	 1.6306364762220906	 
8.5	 0.9920160940747504	 1.7489039062300424	 
8.5	 0.8108931126398355	 1.8329371988323615	 
8.5	 0.6088034904031601	 1.8657238286008726	 
8.5	 0.4067138681664839	 1.8985104583693837	 
8.5	 0.20198684457340835	 1.8985718028584597	 
8.5	 -0.002745122904412464	 1.8985718028584597	 
8.5	 -0.1896266827037048	 1.863242241853069	 
8.5	 -0.31108756363047585	 1.6984319481459325	 
8.5	 -0.4325484445572469	 1.533621654438796	 
8.5	 -0.5540093254840179	 1.3688113607316594	 
8.5	 -0.6357385469954415	 1.188767328999019	 
8.5	 -0.6555958338969005	 0.9850006323475478	 
8.5	 -0.7178523445166143	 0.8093038082281867	 
8.5	 -0.8976823869807764	 0.7114450613801023	 
8.5	 -1.0775124294449387	 0.6135863145320181	 
8.5	 -1.2453477739656624	 0.49865236429558657	 
8.5	 -1.3983999658756219	 0.36267367089512453	 
8.5	 -1.5514521577855807	 0.2266949774946633	 
8.5	 -1.620065928840601	 0.052785315453684145	 
8.5	 -1.6200659288406007	 -0.1519466520241377	 
8.5	 -1.6200659288406007	 -0.3566786195019596	 
8.5	 -1.6200659288406005	 -0.5614105869797814	 
8.5	 -1.5345019352047111	 -0.7380194434247728	 
8.5	 -1.4130410542779406	 -0.9028297371319082	 
8.5	 -1.225563055037713	 -0.9369788240554717	 
8.5	 -1.0220680098802137	 -0.9326477658336961	 
8.5	 -0.848214839244263	 -0.824526289857983	 
8.5	 -0.6682351737249156	 -0.7325735179373899	 
8.5	 -0.4687222013913607	 -0.708723881694053	 
8.5	 -0.30017289829009025	 -0.8247880630902652	 
8.5	 -0.11363496639764141	 -0.8975961764594449	 
9.0	 -1.2715662714865337	 0.6316078671425724	 
9.0	 -1.172209131034606	 0.831646299062287	 
9.0	 -1.072851990582678	 1.0316847309820016	 
9.0	 -0.9734948501307501	 1.2317231629017165	 
9.0	 -0.8741377096788221	 1.4317615948214308	 
9.0	 -0.6767368838819607	 1.5358807938363945	 
9.0	 -0.47892267412157	 1.6395955662680715	 
9.0	 -0.3177279621044254	 1.6178952194573875	 
9.0	 -0.20680226998184206	 1.4240326226760378	 
9.0	 -0.09587657785925877	 1.2301700258946882	 
9.0	 0.015049114263324705	 1.036307429113338	 
9.0	 0.125974806385908	 0.8424448323319882	 
9.0	 0.22662761576167706	 0.6431244089922104	 
9.0	 0.33177749981808174	 0.4558390223960801	 
9.0	 0.5513492541032592	 0.4967714096195517	 
9.0	 0.7047706046554008	 0.6571440373180977	 
9.0	 0.8568436572077813	 0.8206710533726027	 
9.0	 1.0180145084310475	 0.9751734941725476	 
9.0	 1.1701045427668462	 1.1387456099484887	 
9.0	 1.3316351706132326	 1.2928887155612911	 
9.0	 1.488857013036011	 1.235790781534124	 
9.0	 1.5300824531524988	 1.022990768453671	 
9.0	 1.5499719591305094	 0.8005236401950602	 
9.0	 1.5698614651085196	 0.5780565119364492	 
9.0	 1.5585569596891111	 0.3562156823049064	 
9.0	 1.5297539021820616	 0.13472618033714204	 
9.0	 1.4910487334567077	 -0.08494425192226741	 
9.0	 1.4392502673490708	 -0.3022093768562483	 
9.0	 1.3874518012414336	 -0.5194745017902294	 
9.0	 1.335653335133797	 -0.7367396267242091	 
9.0	 1.1885623263932068	 -0.8908583276150399	 
9.0	 1.0059215051408998	 -1.0148790047040888	 
9.0	 0.7840810029920029	 -1.0083897281488994	 
9.0	 0.5837856769455032	 -0.9095514867258093	 
9.0	 0.3670036564726813	 -0.8813800691489541	 
9.0	 0.15077165437157705	 -0.8952310380801392	 
9.0	 0.020835465646333838	 -1.0769005249601316	 
9.0	 -0.11737462795782891	 -1.2487723230361727	 
9.0	 -0.3182366682216244	 -1.346453725486934	 
9.0	 -0.5257209175750579	 -1.4153758113694925	 
9.0	 -0.7490753793699431	 -1.4153758113694928	 
9.0	 -0.9153988119195835	 -1.3162717694724568	 
9.0	 -1.0276226880730812	 -1.123157768880148	 
9.0	 -1.093015377089047	 -0.9125192559098748	 
9.0	 -1.1398740299997197	 -0.6941354601486517	 
9.0	 -1.1867326829103924	 -0.47575166438742844	 
9.0	 -1.2346209202430052	 -0.2576010284666852	 
9.0	 -1.266162391893585	 -0.03713595341962893	 
9.0	 -1.2838566828938769	 0.18551652842074667	 
9.0	 -1.2848552461315865	 0.408649084502	 
9.5	 -0.05726575747083816	 1.1103084649158825	 
9.5	 0.06721974042745038	 0.9581900806439592	 
9.5	 0.1917052383257389	 0.8060716963720358	 
9.5	 0.31619073622402744	 0.6539533121001123	 
9.5	 0.41909618447972186	 0.49032274587009805	 
9.5	 0.493964446795176	 0.3298261842841543	 
9.5	 0.6889015855602265	 0.35504827679411055	 
9.5	 0.8848944957889837	 0.3638826061489028	 
9.5	 1.0801741700780159	 0.38262691749382566	 
9.5	 1.2754652921432739	 0.4012038990872516	 
9.5	 1.4664128130337246	 0.38764728588654535	 
9.5	 1.6054171341635302	 0.24867088239398388	 
9.5	 1.6723856494162967	 0.06991831830559089	 
9.5	 1.7084037504702536	 -0.12270390845429843	 
9.5	 1.713658597375288	 -0.3191957113481853	 
9.5	 1.718913444280322	 -0.5156875142420717	 
9.5	 1.7241682911853564	 -0.7121793171359586	 
9.5	 1.6979709717772549	 -0.9069040214732035	 
9.5	 1.6707394051721802	 -1.1015706179933014	 
9.5	 1.5658116750955984	 -1.2266190882870265	 
9.5	 1.3752898170627703	 -1.2749726158957166	 
9.5	 1.185248748617365	 -1.3250204417505504	 
9.5	 0.9977263964667255	 -1.383944201511592	 
9.5	 0.8102040443160856	 -1.4428679612726332	 
9.5	 0.6197581949689857	 -1.490709256563342	 
9.5	 0.42757137200905476	 -1.5319508266238238	 
9.5	 0.2353845490491239	 -1.5731923966843055	 
9.5	 0.04316716775755661	 -1.614145919583594	 
9.5	 -0.15339488865335252	 -1.6141459195835939	 
9.5	 -0.3499569450642605	 -1.6141459195835939	 
9.5	 -0.5427184484900316	 -1.5825865560098002	 
9.5	 -0.728559338317133	 -1.5278261984622397	 
9.5	 -0.8530448362154222	 -1.3757078141903156	 
9.5	 -0.9658509992923636	 -1.2148541928420384	 
9.5	 -1.071755526900445	 -1.049269251798967	 
9.5	 -1.1578142436397298	 -0.8728837075487843	 
9.5	 -1.2091833524038338	 -0.6852323696286008	 
9.5	 -1.2364149190089084	 -0.4905657731085026	 
9.5	 -1.2619676183388409	 -0.2957823186188216	 
9.5	 -1.2619676183388409	 -0.0992202622079124	 
9.5	 -1.2557192321282997	 0.09672640852853766	 
9.5	 -1.2173735060767394	 0.2895119041293844	 
9.5	 -1.1790277800251794	 0.48229739973023006	 
9.5	 -1.1378646191531667	 0.6741756626153104	 
9.5	 -1.0374547410382435	 0.8423871975437285	 
9.5	 -0.9140854495812979	 0.995104765808877	 
9.5	 -0.7860257409842782	 1.1442267060273839	 
9.5	 -0.6296242281204715	 1.1941873887742147	 
9.5	 -0.44357108091804	 1.1571739507369683	 
9.5	 -0.25013300541107136	 1.1476297578542314	 
10.0	 -0.9446614783346686	 1.3460946899215966	 
10.0	 -1.0886569769979844	 1.1877315281651368	 
10.0	 -1.2407687459863304	 1.0385130810323604	 
10.0	 -1.4148872201111438	 0.9141127346238108	 
10.0	 -1.543181782637728	 0.7427823524293152	 
10.0	 -1.596442310584028	 0.5445867238030409	 
10.0	 -1.6060492357938811	 0.3307613239441564	 
10.0	 -1.6156561610037343	 0.11693592408527165	 
10.0	 -1.6252630862135873	 -0.09688947577361284	 
10.0	 -1.631529194315201	 -0.31033091436188726	 
10.0	 -1.5736634594950867	 -0.5164016579683679	 
10.0	 -1.5157977246749725	 -0.7224724015748483	 
10.0	 -1.4570092026691328	 -0.926899155977818	 
10.0	 -1.2509567687877663	 -0.8689682563786854	 
10.0	 -1.0956830852054367	 -0.9607534071112187	 
10.0	 -0.9673885226788523	 -1.1320837893057139	 
10.0	 -0.8829058842765721	 -1.3273769628078416	 
10.0	 -0.7060197247819718	 -1.4319812293748395	 
10.0	 -0.5570210221253766	 -1.2891979974976953	 
10.0	 -0.4144311763585181	 -1.1296646746385404	 
10.0	 -0.2765299306765047	 -0.9659672675847063	 
10.0	 -0.10046070437229603	 -0.9077294422316918	 
10.0	 0.11185517764203476	 -0.9272599028744442	 
10.0	 0.3188744084976077	 -0.9756025350227762	 
10.0	 0.5157617733222704	 -1.056736340142336	 
10.0	 0.7068537135643896	 -1.0935931359229434	 
10.0	 0.9066434504422525	 -1.0180537641373335	 
10.0	 1.11318981849827	 -0.9664556717157553	 
10.0	 1.2829353389067424	 -0.8452339994148974	 
10.0	 1.4311179494047184	 -0.696352469319146	 
10.0	 1.4745618013871322	 -0.4885372523777698	 
10.0	 1.495826336662079	 -0.2755550602199741	 
10.0	 1.517090871937026	 -0.06257286806217843	 
10.0	 1.5207666142564773	 0.1512851955310185	 
10.0	 1.5207666142564773	 0.3653263005477883	 
10.0	 1.4667240193642817	 0.5724031381951019	 
10.0	 1.4038584038131832	 0.7749931260503092	 
10.0	 1.2614240209197451	 0.895912491913677	 
10.0	 1.0922771051053028	 0.7647526066313939	 
10.0	 0.9231301892908609	 0.6335927213491106	 
10.0	 0.747189126587447	 0.5124149030573557	 
10.0	 0.5475311641777464	 0.52872583506651	 
10.0	 0.39736249145249086	 0.6510707099094057	 
10.0	 0.31427634613366473	 0.8483276162342759	 
10.0	 0.1922655559522566	 1.0232616719347096	 
10.0	 0.03901057201363737	 1.171124960829909	 
10.0	 -0.12408953286326349	 1.3097321411126905	 
10.0	 -0.3242884298379045	 1.355072619840172	 
10.0	 -0.537118376278791	 1.3778104415205537	 
10.0	 -0.7446828643975385	 1.4223976951349189	 
10.5	 -1.3512189781009865	 0.18829852941166292	 
10.5	 -1.3738772271983795	 -0.03125946902028007	 
10.5	 -1.3965354762957727	 -0.250817467452223	 
10.5	 -1.419193725393166	 -0.47037546588416596	 
10.5	 -1.4101511862342355	 -0.6871175542258172	 
10.5	 -1.34914737042098	 -0.8992440386256275	 
10.5	 -1.2881435546077242	 -1.1113705230254376	 
10.5	 -1.171408604182717	 -1.2788552216951243	 
10.5	 -0.9734912480066674	 -1.3453582717166694	 
10.5	 -0.761742650814305	 -1.2830554426102216	 
10.5	 -0.5566841355686203	 -1.2067931743366427	 
10.5	 -0.36963607104767904	 -1.0920238684611623	 
10.5	 -0.16224428808132846	 -1.0164741544601241	 
10.5	 0.034973908506375155	 -0.9195853115535448	 
10.5	 0.22675484844306715	 -0.8189999255612322	 
10.5	 0.4447279777775565	 -0.853739324170454	 
10.5	 0.6345758870137894	 -0.9625718635630753	 
10.5	 0.7936444271975333	 -1.1098288267558296	 
10.5	 0.9265809917376452	 -1.2847181310885554	 
10.5	 1.1246512047547328	 -1.3706819957394822	 
10.5	 1.343413839055871	 -1.4000421858142622	 
10.5	 1.4562925187697153	 -1.2197345763922787	 
10.5	 1.5014570195240464	 -1.0052631661364642	 
10.5	 1.5366430264006157	 -0.7873616841596713	 
10.5	 1.5718290332771847	 -0.5694602021828788	 
10.5	 1.5941960486338107	 -0.3501303583810221	 
10.5	 1.6078370751220668	 -0.12982821739290687	 
10.5	 1.621478101610323	 0.09047392359520831	 
10.5	 1.635119128098579	 0.31077606458332346	 
10.5	 1.5910620746236073	 0.5269496885103742	 
10.5	 1.5461937010489288	 0.7430652593986463	 
10.5	 1.5013253274742506	 0.9591808302869184	 
10.5	 1.3474701212938514	 1.0873354551950394	 
10.5	 1.1456975733033832	 1.1768170164522893	 
10.5	 0.9362683201317636	 1.2457817451711737	 
10.5	 0.7252047149905351	 1.3103670802898244	 
10.5	 0.5302973089234434	 1.2605460563123025	 
10.5	 0.3780736605897437	 1.100711542468831	 
10.5	 0.2577041406050476	 0.9193151130021091	 
10.5	 0.130945704720917	 0.7661168554923613	 
10.5	 -0.07716791908220731	 0.7550166728720451	 
10.5	 -0.2316906798318725	 0.9126295763346193	 
10.5	 -0.38051303578699247	 1.0754859848527714	 
10.5	 -0.5476201860174577	 1.1925573529405316	 
10.5	 -0.7683442466171138	 1.1925573529405318	 
10.5	 -0.9890683072167701	 1.1925573529405318	 
10.5	 -1.0682499776471683	 1.0113514733714983	 
10.5	 -1.121693699473512	 0.7971952698074893	 
10.5	 -1.1940497204072407	 0.5890793418950184	 
10.5	 -1.284132117513532	 0.3975191176468439	 
11.0	 -0.782140616615122	 -1.1817716278718546	 
11.0	 -0.9964646220960317	 -1.1569676770347457	 
11.0	 -1.1568372824220012	 -1.0684720000889065	 
11.0	 -1.2165522005340894	 -0.8611458226356543	 
11.0	 -1.2762671186461776	 -0.6538196451824023	 
11.0	 -1.3195717489226166	 -0.4435050033701511	 
11.0	 -1.3367785670959131	 -0.22843770992258436	 
11.0	 -1.35398538526921	 -0.013370416475017272	 
11.0	 -1.3711922034425068	 0.20169687697254948	 
11.0	 -1.3566736087840008	 0.4168612208615629	 
11.0	 -1.3407829146247379	 0.632029762106903	 
11.0	 -1.2777098118412797	 0.8319104030331551	 
11.0	 -1.164392520250378	 1.0155110749518963	 
11.0	 -0.9572794046761807	 1.012443445579608	 
11.0	 -0.7423330570719432	 0.9937864642024105	 
11.0	 -0.5750809863552423	 0.8754220007235172	 
11.0	 -0.4256576268679742	 0.7197856459022559	 
11.0	 -0.2762342673807063	 0.5641492910809948	 
11.0	 -0.14964918972759966	 0.6865371328161454	 
11.0	 -0.024596820214928754	 0.8622129171648056	 
11.0	 0.11105057909976582	 1.0299919336170147	 
11.0	 0.24669797841445995	 1.197770950069223	 
11.0	 0.38234537772915456	 1.3655499665214321	 
11.0	 0.517992777043849	 1.5333289829736412	 
11.0	 0.6997322606996058	 1.6167474996530715	 
11.0	 0.9142015772638008	 1.6402619112978005	 
11.0	 1.1259313216324458	 1.681049640294631	 
11.0	 1.3190293954497214	 1.5939698016345285	 
11.0	 1.5103885274134732	 1.494311897198453	 
11.0	 1.6002936552810416	 1.3060090557594983	 
11.0	 1.6733793081316064	 1.1030102807633975	 
11.0	 1.7145308669426649	 0.8944379995813588	 
11.0	 1.7145308669426647	 0.6786834740146608	 
11.0	 1.7145308669426649	 0.46292894844796273	 
11.0	 1.6917024787661241	 0.250248652823235	 
11.0	 1.633047929738207	 0.04294701311081668	 
11.0	 1.50487354240888	 -0.13060799757819175	 
11.0	 1.3766991550795522	 -0.30416300826720116	 
11.0	 1.2485247677502245	 -0.4777180189562105	 
11.0	 1.0774577622105401	 -0.6085313593958869	 
11.0	 0.8887980560005552	 -0.6903418420241528	 
11.0	 0.6730435304338576	 -0.6903418420241528	 
11.0	 0.4586579034011792	 -0.6724944429194297	 
11.0	 0.2454270627010012	 -0.6395911926725895	 
11.0	 0.03269647407626438	 -0.6121982979653379	 
11.0	 -0.11406370539898499	 -0.7437647988828402	 
11.0	 -0.19761678829204649	 -0.9426841233376952	 
11.0	 -0.37505416783156	 -1.0497797731296907	 
11.0	 -0.5763036624292918	 -1.1155263019089428	 
11.0	 -0.77397873573845	 -1.1980835643054806	 
11.5	 -0.6714174580937388	 1.1988214107485355	 
11.5	 -0.8365930869750405	 1.0933120991424286	 
11.5	 -1.0017687158563422	 0.9878027875363216	 
11.5	 -1.160638982220978	 0.8779183331576957	 
11.5	 -1.2016601759699046	 0.6862611786464666	 
11.5	 -1.2426813697188313	 0.49460402413523763	 
11.5	 -1.2837025634677577	 0.3029468696240087	 
11.5	 -1.3247237572166846	 0.11128971511277952	 
11.5	 -1.365744950965611	 -0.08036743939844943	 
11.5	 -1.3716786256043922	 -0.2757375125282002	 
11.5	 -1.371678625604392	 -0.4717354798950282	 
11.5	 -1.371678625604392	 -0.6677334472618559	 
11.5	 -1.3716786256043922	 -0.8637314146286835	 
11.5	 -1.3595730870651292	 -1.055095937824295	 
11.5	 -1.228707015260918	 -1.2010043833045452	 
11.5	 -1.0978409434567074	 -1.3469128287847951	 
11.5	 -0.9337216778761818	 -1.3974490053924098	 
11.5	 -0.7405067617310838	 -1.3645370107556372	 
11.5	 -0.5791741256127115	 -1.2670632363958052	 
11.5	 -0.4355874202568534	 -1.1336538616990537	 
11.5	 -0.27977814830704284	 -1.0198557739912624	 
11.5	 -0.09676146100377034	 -0.9497123824246714	 
11.5	 0.08625522629950261	 -0.8795689908580802	 
11.5	 0.27768724727607047	 -0.8548972355337926	 
11.5	 0.473685214642898	 -0.8548972355337926	 
11.5	 0.6667943903036888	 -0.877872582861015	 
11.5	 0.8566916848786759	 -0.9263928953603056	 
11.5	 1.0465889794536627	 -0.9749132078595961	 
11.5	 1.2364862740286497	 -1.0234335203588867	 
11.5	 1.4302002242775018	 -1.041598930650368	 
11.5	 1.5615395604885065	 -0.9672738936969506	 
11.5	 1.5886718892711857	 -0.7731629976948025	 
11.5	 1.615804218053865	 -0.5790521016926545	 
11.5	 1.642936546836544	 -0.3849412056905065	 
11.5	 1.6700688756192235	 -0.19083030968835846	 
11.5	 1.6558652861935275	 0.0041352022412551315	 
11.5	 1.6367791598337824	 0.19920166012806745	 
11.5	 1.6176930334740371	 0.3942681180148809	 
11.5	 1.4980190102651585	 0.5297053750644839	 
11.5	 1.3360452308690574	 0.6400670441351873	 
11.5	 1.174071451472956	 0.7504287132058908	 
11.5	 1.0120976720768549	 0.8607903822765942	 
11.5	 0.8243810398740434	 0.8876519188875769	 
11.5	 0.6283830725072155	 0.8876519188875768	 
11.5	 0.4323851051403876	 0.8876519188875768	 
11.5	 0.25068437150762635	 0.9383165637814224	 
11.5	 0.0835998178573328	 1.0407760930767016	 
11.5	 -0.10154039677706517	 1.0933903031083683	 
11.5	 -0.29548210179942064	 1.1217066987997215	 
11.5	 -0.4802133702241028	 1.1789053659573219	 
12.0	 -0.8467586167916475	 -1.160939592402955	 
12.0	 -0.6546308106592634	 -1.1609395924029553	 
12.0	 -0.462503004526879	 -1.160939592402955	 
12.0	 -0.27037519839449475	 -1.160939592402955	 
12.0	 -0.11246793839614008	 -1.0560858026272735	 
12.0	 0.007756984470168721	 -0.9161195650416447	 
12.0	 0.0760411365745153	 -0.7365356892046602	 
12.0	 0.24937956214805276	 -0.6592542915677024	 
12.0	 0.42536425088389124	 -0.6171623830890298	 
12.0	 0.593858448317624	 -0.7094813915347737	 
12.0	 0.7698481177198977	 -0.7725211414131189	 
12.0	 0.9574923307441461	 -0.7550070632503164	 
12.0	 1.1259865281778787	 -0.6626880548045726	 
12.0	 1.2853819299506348	 -0.5578283423831811	 
12.0	 1.397201126948655	 -0.40875588391165923	 
12.0	 1.4531145391771965	 -0.22494406649448623	 
12.0	 1.4839844584080908	 -0.03545003891915227	 
12.0	 1.5128737456075267	 0.1544933815363917	 
12.0	 1.5266933290644522	 0.34373564471937756	 
12.0	 1.4802918066669637	 0.5301759638792594	 
12.0	 1.4338902842694754	 0.7166162830391412	 
12.0	 1.3331490578191094	 0.8739453085459068	 
12.0	 1.1964613122436933	 1.0045946145473308	 
12.0	 1.0131099522736544	 1.0619999512886147	 
12.0	 0.8276670360025732	 1.1118814141035598	 
12.0	 0.6486043128699652	 1.1587840564105	 
12.0	 0.4983547424514583	 1.2785261145116422	 
12.0	 0.34169775451066126	 1.389646873628207	 
12.0	 0.18371582610031503	 1.4989849007962115	 
12.0	 0.014650730606050225	 1.5862478916374783	 
12.0	 -0.16795287435210382	 1.644304775856973	 
12.0	 -0.3600806804844887	 1.6443047758569729	 
12.0	 -0.5519010718950246	 1.6436595736954929	 
12.0	 -0.6729357763542905	 1.4944493387727462	 
12.0	 -0.7939704808135566	 1.3452391038499996	 
12.0	 -0.9216619838106448	 1.2021074543500925	 
12.0	 -1.0592904852842602	 1.0680496702740845	 
12.0	 -1.1969189867578764	 0.9339918861980757	 
12.0	 -1.2648366233869683	 0.7581891911790408	 
12.0	 -1.3180386384906946	 0.5735743502855035	 
12.0	 -1.3712406535944206	 0.3889595093919664	 
12.0	 -1.424442668698147	 0.20434466849842914	 
12.0	 -1.4609485367924495	 0.0169391248906891	 
12.0	 -1.47067654940401	 -0.17494224382413034	 
12.0	 -1.4639939695165647	 -0.3656959045771321	 
12.0	 -1.4281098252340905	 -0.5544428835684729	 
12.0	 -1.3922256809516163	 -0.7431898625598137	 
12.0	 -1.2986736947435609	 -0.9030923149041503	 
12.0	 -1.158231667423623	 -1.031466775406343	 
12.0	 -0.9661038612912384	 -1.031466775406343	 
12.5	 -0.8789425610351108	 -0.7780924301899941	 
12.5	 -0.7151060779708944	 -0.893307949785471	 
12.5	 -0.5512695949066779	 -1.008523469380948	 
12.5	 -0.3882400770758259	 -1.1247920502222146	 
12.5	 -0.23438111215872753	 -1.2530278800559471	 
12.5	 -0.087614140507593	 -1.138514993939571	 
12.5	 0.06495546768564459	 -1.0090573312025586	 
12.5	 0.22419471851577558	 -0.8915384986639295	 
12.5	 0.4210110065441079	 -0.9286662472293206	 
12.5	 0.6171085134693577	 -0.9649413842664936	 
12.5	 0.8174008227039037	 -0.9649413842664936	 
12.5	 0.9873695498435677	 -0.8768829803521296	 
12.5	 1.1516252151783897	 -0.7655753440638939	 
12.5	 1.3417756084213066	 -0.7026481076072435	 
12.5	 1.5361586504374025	 -0.6659830577440945	 
12.5	 1.5925895806234625	 -0.5029433317437569	 
12.5	 1.617524866629192	 -0.3042092364044833	 
12.5	 1.6424601526349214	 -0.10547514106520955	 
12.5	 1.640138325067	 0.093681359993983	 
12.5	 1.6213731312305328	 0.2930926852460531	 
12.5	 1.6026079373940654	 0.4925040104981232	 
12.5	 1.515616174957756	 0.6475963839113024	 
12.5	 1.3410528515680276	 0.7458035896837928	 
12.5	 1.1687090885240154	 0.8474132720587111	 
12.5	 1.008484250642307	 0.9676006693359925	 
12.5	 0.848259412760598	 1.0877880666132742	 
12.5	 0.683498228979287	 1.2015416249045536	 
12.5	 0.516475967109074	 1.3120883262495746	 
12.5	 0.3711616414645912	 1.4476643519318086	 
12.5	 0.2383734791526106	 1.5976094944832524	 
12.5	 0.10720762875833258	 1.7489783447426537	 
12.5	 -0.03534913915310914	 1.8778708082101927	 
12.5	 -0.2349789908859672	 1.8941475227319933	 
12.5	 -0.43460884261882526	 1.9104242372537938	 
12.5	 -0.6030815273122476	 1.812240490098794	 
12.5	 -0.7669180103764643	 1.6970249705033171	 
12.5	 -0.9307544934406801	 1.5818094509078406	 
12.5	 -1.0614527046949433	 1.43044234743465	 
12.5	 -1.1904563514595674	 1.2772265902164865	 
12.5	 -1.3194599982241915	 1.1240108329983234	 
12.5	 -1.4484636449888155	 0.9707950757801603	 
12.5	 -1.5274048644405593	 0.8033083257249786	 
12.5	 -1.49857922928958	 0.6051011313634991	 
12.5	 -1.462293642414922	 0.4085856187066645	 
12.5	 -1.402801968525373	 0.21733251448002225	 
12.5	 -1.3433102946358242	 0.02607941025338003	 
12.5	 -1.1969258593071106	 -0.10597114442739337	 
12.5	 -1.0270857725766358	 -0.21213777797057415	 
12.5	 -0.9289913916298808	 -0.3852778894020216	 
12.5	 -0.8789425610351108	 -0.5778001209554474	 
13.0	 -1.2093836015310333	 0.009780279685649516	 
13.0	 -1.1750215899202003	 -0.18523971623100488	 
13.0	 -1.1406595783093674	 -0.38025971214765925	 
13.0	 -1.0945828174759344	 -0.572144661656911	 
13.0	 -1.0269471423038035	 -0.7582601153228679	 
13.0	 -0.9593114671316723	 -0.9443755689888246	 
13.0	 -0.8720213072530089	 -1.1190821797135617	 
13.0	 -0.7439511612512552	 -1.270117223171577	 
13.0	 -0.6158810152495017	 -1.4211522666295917	 
13.0	 -0.4309211605642786	 -1.4697444449141295	 
13.0	 -0.23775483086868618	 -1.4763727562268898	 
13.0	 -0.054710500464026715	 -1.4008193330351855	 
13.0	 0.12833382994063275	 -1.3252659098434814	 
13.0	 0.3075087009294452	 -1.2411420905582542	 
13.0	 0.4852353194945605	 -1.153810563017022	 
13.0	 0.6635211721600335	 -1.0719357362342656	 
13.0	 0.8558378523230283	 -1.1169079401012003	 
13.0	 1.0538619585557671	 -1.1169079401012005	 
13.0	 1.2468549686408539	 -1.095029845658573	 
13.0	 1.4249872472756469	 -1.008528759204982	 
13.0	 1.5894832221696158	 -0.9129050235270767	 
13.0	 1.6014551769167382	 -0.715243143163645	 
13.0	 1.611247744986487	 -0.5175153228388245	 
13.0	 1.6112477449864873	 -0.3194912166060857	 
13.0	 1.611247744986487	 -0.12146711037334743	 
13.0	 1.611247744986487	 0.07655699585939135	 
13.0	 1.6030041798807424	 0.2734292279414954	 
13.0	 1.5487241159020473	 0.46386877557733647	 
13.0	 1.494444051923352	 0.6543083232131777	 
13.0	 1.440163987944657	 0.8447478708490176	 
13.0	 1.3858839239659622	 1.0351874184848586	 
13.0	 1.2078365541823852	 1.1151992326237614	 
13.0	 1.0247922237777258	 1.1907526558154655	 
13.0	 0.837004313516208	 1.2093009312602865	 
13.0	 0.6439898952686023	 1.1650405539707362	 
13.0	 0.4582232452899797	 1.102040239840161	 
13.0	 0.28565645311174936	 1.0049101781363299	 
13.0	 0.14452758911464159	 1.1242543062987753	 
13.0	 0.006718748324028044	 1.2664593345123452	 
13.0	 -0.1746592553324478	 1.342607816553877	 
13.0	 -0.3596343703330515	 1.4133026075910418	 
13.0	 -0.5446094853336554	 1.483997398628207	 
13.0	 -0.7011219929952097	 1.426217255840631	 
13.0	 -0.8389308337858233	 1.2840122276270611	 
13.0	 -0.8755163523733539	 1.0910350152154324	 
13.0	 -0.9070908810051355	 0.8955443612420116	 
13.0	 -0.9386654096369171	 0.700053707268591	 
13.0	 -0.9702399382686988	 0.5045630532951703	 
13.0	 -0.9969228909687132	 0.30838137360995055	 
13.0	 -1.1230350416451582	 0.1879865446005251	 
13.5	 -1.231368464453728	 -0.5362067642906765	 
13.5	 -1.1624306995620715	 -0.7145396086277345	 
13.5	 -1.0934929346704152	 -0.8928724529647925	 
13.5	 -1.024555169778759	 -1.0712052973018502	 
13.5	 -0.9104579268582202	 -1.2170177775357334	 
13.5	 -0.7631786975431578	 -1.3389351569775667	 
13.5	 -0.6158994682280957	 -1.4608525364193998	 
13.5	 -0.46003783994432285	 -1.5408631587183632	 
13.5	 -0.27668906689334155	 -1.4866575665870863	 
13.5	 -0.09334029384236027	 -1.4324519744558093	 
13.5	 0.017176066079155755	 -1.2771799934730836	 
13.5	 0.1266047254784302	 -1.1203986575313325	 
13.5	 0.2752095475677327	 -1.0083348405376236	 
13.5	 0.44502198464976606	 -0.9204783950719484	 
13.5	 0.6250075400330162	 -0.8574256837805893	 
13.5	 0.8076056594748852	 -0.8007428329887019	 
13.5	 0.9945666446668722	 -0.797181569326036	 
13.5	 1.1839173223785746	 -0.818602298590967	 
13.5	 1.3727334662784467	 -0.7885443112933255	 
13.5	 1.470025638145757	 -0.6487962264608613	 
13.5	 1.5334155543293206	 -0.4684168004615432	 
13.5	 1.582254640132364	 -0.2853737800210799	 
13.5	 1.5868726267167994	 -0.09423589001099134	 
13.5	 1.591490613301234	 0.09690199999909732	 
13.5	 1.5961085998856692	 0.2880398900091854	 
13.5	 1.6007265864701041	 0.47917778001927397	 
13.5	 1.465362333767822	 0.6132268350488228	 
13.5	 1.3283909443932993	 0.7466204529261996	 
13.5	 1.1641254299624357	 0.8292504324485012	 
13.5	 0.9773129697245926	 0.8699459297115469	 
13.5	 0.8121368706509928	 0.9550938012490985	 
13.5	 0.6648576413359305	 1.0770111806909317	 
13.5	 0.5175784120208682	 1.1989285601327646	 
13.5	 0.36548810303002965	 1.314751969561849	 
13.5	 0.20340095900958308	 1.414254063717506	 
13.5	 0.030388775672956683	 1.4956285266324536	 
13.5	 -0.14262340766366874	 1.5770029895474007	 
13.5	 -0.3318786683386069	 1.5593540518428473	 
13.5	 -0.5181027361809668	 1.5283981801796112	 
13.5	 -0.6691475224167803	 1.4111783382219456	 
13.5	 -0.819518677213251	 1.2933698786822725	 
13.5	 -0.9154256751605917	 1.1279707657997322	 
13.5	 -1.0113326731079317	 0.9625716529171927	 
13.5	 -1.0809043444548736	 0.7863469821183755	 
13.5	 -1.1290480690885918	 0.6013140105268359	 
13.5	 -1.17719179372231	 0.41628103893529617	 
13.5	 -1.2026498085905164	 0.22741334959107457	 
13.5	 -1.2179978967860396	 0.03683671149934721	 
13.5	 -1.2313684644537277	 -0.15381942769280937	 
13.5	 -1.231368464453728	 -0.3450130959917431	 
14.0	 -0.5158218813919672	 -1.3908788414682818	 
14.0	 -0.324976294695211	 -1.3232719130071537	 
14.0	 -0.1341307079984549	 -1.2556649845460257	 
14.0	 0.010886019650537964	 -1.14038912214981	 
14.0	 0.08594952794151083	 -0.952351348123876	 
14.0	 0.1787672297999591	 -0.7754378612286754	 
14.0	 0.31523527960984815	 -0.6258744762754631	 
14.0	 0.4517033294197374	 -0.47631109132225047	 
14.0	 0.6241043145930578	 -0.4625984449650852	 
14.0	 0.8189763287781816	 -0.5105757772478501	 
14.0	 1.0214429550097095	 -0.5105757772478501	 
14.0	 1.2200056026926815	 -0.4878638677275143	 
14.0	 1.4112445679429966	 -0.42254547082580696	 
14.0	 1.5851168763942924	 -0.39395115304557504	 
14.0	 1.5851168763942924	 -0.191484526814047	 
14.0	 1.5851168763942924	 0.01098209941748042	 
14.0	 1.569613275209071	 0.2126550898127889	 
14.0	 1.5489387492120286	 0.41406337840185065	 
14.0	 1.4833147429769014	 0.6010590108442886	 
14.0	 1.3830159087010818	 0.7769364641476866	 
14.0	 1.285167290025516	 0.9541405195871936	 
14.0	 1.1927172730303228	 1.1342675000625388	 
14.0	 1.0817445239424677	 1.3033627444084548	 
14.0	 0.9674010317346489	 1.470450447508646	 
14.0	 0.8288877275606678	 1.6137585118951314	 
14.0	 0.6636828936479156	 1.7308059278829993	 
14.0	 0.5310993486157334	 1.584799163567833	 
14.0	 0.3994891093054971	 1.4309437780713234	 
14.0	 0.27584276156697574	 1.271091018143364	 
14.0	 0.1643283413477628	 1.1021020574957834	 
14.0	 0.0006924869253246355	 1.0299545851379053	 
14.0	 -0.1960119369244758	 1.057765477538688	 
14.0	 -0.3818108502187568	 1.138211102380823	 
14.0	 -0.5676097635130372	 1.1933736687410252	 
14.0	 -0.753408676807318	 1.1129280438988904	 
14.0	 -0.9392075901015988	 1.0324824190567556	 
14.0	 -1.095572940653147	 0.904262066423489	 
14.0	 -1.250983398138914	 0.7744917907759364	 
14.0	 -1.312269956262179	 0.5838563950280621	 
14.0	 -1.3668527143027909	 0.3888859940379189	 
14.0	 -1.3941098541702364	 0.19058208913003782	 
14.0	 -1.3879999427954992	 -0.011792325558603017	 
14.0	 -1.3818900314207623	 -0.2141667402472427	 
14.0	 -1.3757801200460251	 -0.4165411549358835	 
14.0	 -1.3587054280111384	 -0.6181882341579401	 
14.0	 -1.2795053988710252	 -0.7991335503022274	 
14.0	 -1.161284349062364	 -0.9632864770374745	 
14.0	 -1.0263801684988163	 -1.1135759936395055	 
14.0	 -0.8344975334796351	 -1.1702172728060252	 
14.0	 -0.645749152592787	 -1.243416185333121	 
14.5	 -0.839866597061089	 -1.067402143914939	 
14.5	 -0.6376178289464332	 -1.0896377028433677	 
14.5	 -0.43536906083177707	 -1.1118732617717964	 
14.5	 -0.2665896306969111	 -1.0305195828943055	 
14.5	 -0.11558587885052064	 -0.8941493104260391	 
14.5	 0.047620784179223864	 -0.7732094414486919	 
14.5	 0.21413062736671806	 -0.7479308126613543	 
14.5	 0.39384814564829185	 -0.8376711470134733	 
