25.5	 -0.21023676297656918	 1.6501400785969556	 
25.5	 -0.405501433513562	 1.6675639607707555	 
25.5	 -0.6007661040505548	 1.6849878429445557	 
25.5	 -0.7960307745875475	 1.7024117251183557	 
25.5	 -0.9912954451245404	 1.719835607292156	 
25.5	 -1.1342237642213107	 1.6111524373681199	 
25.5	 -1.2597703054143532	 1.460587005663527	 
25.5	 -1.3853168466073955	 1.3100215739589338	 
25.5	 -1.5108633878004378	 1.1594561422543408	 
25.5	 -1.4885253277937636	 0.9668566027467203	 
25.5	 -1.4609423191807442	 0.7727662607258432	 
25.5	 -1.433359310567725	 0.5786759187049664	 
25.5	 -1.4057763019547058	 0.38458557668409055	 
25.5	 -1.3755405779364671	 0.19100454002229672	 
25.5	 -1.329283590661741	 0.0004994892803475426	 
25.5	 -1.283026603387015	 -0.19000556146160164	 
25.5	 -1.236769616112289	 -0.38051061220355087	 
25.5	 -1.190512628837563	 -0.5710156629455001	 
25.5	 -1.1442556415628369	 -0.7615207136874481	 
25.5	 -0.9781369881774974	 -0.7995774061582928	 
25.5	 -0.7820964739210642	 -0.7995774061582928	 
25.5	 -0.5860559596646309	 -0.7995774061582926	 
25.5	 -0.3941542752878099	 -0.8216135147331706	 
25.5	 -0.2121289138884602	 -0.8676719764527427	 
25.5	 -0.03341271864590202	 -0.7870965162433841	 
25.5	 0.14587641054515543	 -0.7284458762053194	 
26.0	 0.3007134479510207	 -0.7596960371542592	 
26.0	 0.49400482628579834	 -0.7939774321574087	 
26.0	 0.6872962046205761	 -0.8282588271605582	 
26.0	 0.8805875829553538	 -0.8625402221637076	 
26.0	 1.0738789612901314	 -0.896821617166857	 
26.0	 1.2646895968687	 -0.8881094968174297	 
26.0	 1.452755209899103	 -0.831823653327092	 
26.0	 1.5641672882015067	 -0.718466336894437	 
26.0	 1.564167288201507	 -0.5221584894152287	 
26.0	 1.564167288201507	 -0.32585064193602054	 
26.0	 1.564167288201507	 -0.1295427944568121	 
26.0	 1.564167288201507	 0.0667650530223961	 
26.0	 1.5404252007247194	 0.2608993014065155	 
26.0	 1.5047798135269712	 0.4539437971929604	 
26.0	 1.4691344263292228	 0.6469882929794053	 
26.0	 1.4334890391314745	 0.8400327887658496	 
26.0	 1.291474989858482	 0.9646145201650587	 
26.0	 1.1305278754654728	 1.0770102378347446	 
26.0	 0.9695807610724638	 1.18940595550443	 
26.0	 0.8086336466794545	 1.301801673174116	 
26.0	 0.6472906805144734	 1.4134568446916265	 
26.0	 0.46442287069203664	 1.484844064224713	 
26.0	 0.28155506086959936	 1.5562312837577994	 
26.0	 0.09868725104716208	 1.627618503290886	 
26.0	 -0.08418055877527467	 1.6990057228239726	 
26.0	 -0.26864481674401747	 1.758648861856929	 
26.0	 -0.4639330365821899	 1.7386668155563658	 
26.0	 -0.6592212564203623	 1.7186847692558027	 
26.0	 -0.8545094762585348	 1.69870272295524	 
26.0	 -1.0397917856427146	 1.6538447675927213	 
26.0	 -1.1945245177439967	 1.5330368514680188	 
26.0	 -1.3492572498452786	 1.4122289353433164	 
26.0	 -1.4502822341756272	 1.2644534332595578	 
26.0	 -1.4547532250851032	 1.068196506701009	 
26.0	 -1.459224215994579	 0.8719395801424608	 
26.0	 -1.4636952069040547	 0.6756826535839122	 
26.0	 -1.4675059496239105	 0.4795254078802976	 
26.0	 -1.4052951529128739	 0.29333575254333133	 
26.0	 -1.3430843562018375	 0.10714609720636502	 
26.0	 -1.2808735594908012	 -0.07904355813060131	 
26.0	 -1.2119554078540429	 -0.262448396293963	 
26.0	 -1.123996983200836	 -0.4379479305225372	 
26.0	 -1.03603855854763	 -0.6134474647511104	 
26.0	 -0.948080133894423	 -0.7889469989796846	 
26.0	 -0.8105972183380807	 -0.9072483252574317	 
26.0	 -0.6243190999036087	 -0.9691937332747582	 
26.0	 -0.4478827764459145	 -0.9315889794900333	 
26.0	 -0.2768304163878288	 -0.8355470857549654	 
26.0	 -0.08916503573580634	 -0.777940871796301	 
26.0	 0.10440560047181169	 -0.7596960371542592	 
26.5	 0.16496469947491157	 -0.7664931909963963	 
26.5	 0.35716974219875586	 -0.7934016111816811	 
26.5	 0.5493747849226002	 -0.8203100313669658	 
26.5	 0.7415798276464444	 -0.8472184515522505	 
26.5	 0.9352021782751485	 -0.8537806718216087	 
26.5	 1.129281650464617	 -0.8537806718216087	 
26.5	 1.3233611226540853	 -0.8537806718216088	 
26.5	 1.4723444626213198	 -0.7789005119425063	 
26.5	 1.5631109117780482	 -0.607353745045483	 
26.5	 1.6380209829926653	 -0.43261245370018797	 
26.5	 1.6207609375415364	 -0.2393019978102706	 
26.5	 1.6035008920904075	 -0.045991541920353374	 
26.5	 1.5862408466392783	 0.14731891396956381	 
26.5	 1.5689808011881492	 0.3406293698594812	 
26.5	 1.55172075573702	 0.5339398257493986	 
26.5	 1.5344607102858911	 0.7272502816393156	 
26.5	 1.517200664834762	 0.920560737529233	 
26.5	 1.3536789553634394	 1.0112948412137661	 
26.5	 1.177807075802343	 1.09336751330984	 
26.5	 1.001935196241246	 1.175440185405914	 
26.5	 0.8218676485579055	 1.2475485675494875	 
26.5	 0.6402602141312939	 1.3159998734999694	 
26.5	 0.4586527797046817	 1.384451179450451	 
26.5	 0.27704534527806957	 1.452902485400933	 
26.5	 0.09394100484210932	 1.516742758398774	 
26.5	 -0.09324353002214927	 1.568014499475061	 
26.5	 -0.28042806488640787	 1.6192862405513484	 
26.5	 -0.46761259975066655	 1.670557981627636	 
26.5	 -0.6547971346149251	 1.721829722703923	 
26.5	 -0.8370756981172569	 1.7464066447453745	 
26.5	 -0.9937992858614035	 1.6319315008496562	 
26.5	 -1.1505228736055502	 1.5174563569539372	 
26.5	 -1.2919920251746628	 1.3942485442522388	 
26.5	 -1.3113517770957621	 1.2011370698886052	 
26.5	 -1.3307115290168616	 1.008025595524972	 
26.5	 -1.3500712809379611	 0.8149141211613385	 
26.5	 -1.3694310328590602	 0.6218026467977062	 
26.5	 -1.3645959987779572	 0.4281218061153121	 
26.5	 -1.3543414784733572	 0.23431343080953393	 
26.5	 -1.3440869581687571	 0.04050505550375583	 
26.5	 -1.3338324378641573	 -0.15330331980202233	 
26.5	 -1.250970980145791	 -0.32358895981258806	 
26.5	 -1.145628240845495	 -0.4865912567352151	 
26.5	 -1.0402855015451986	 -0.6495935536578431	 
26.5	 -0.933807717784325	 -0.811209557529196	 
26.5	 -0.7532226295975364	 -0.8823141807959882	 
26.5	 -0.570293608973825	 -0.9410681526468211	 
26.5	 -0.3762141367843561	 -0.9410681526468211	 
26.5	 -0.20548089166886474	 -0.8602114653713685	 
26.5	 -0.026967590775557486	 -0.795282728758443	 
27.0	 0.369939358835175	 -0.8773898636058489	 
27.0	 0.5615679710824748	 -0.9027691121890269	 
27.0	 0.7531965833297747	 -0.9281483607722052	 
27.0	 0.9448251955770745	 -0.9535276093553832	 
27.0	 1.117338041315931	 -0.8802219449905159	 
27.0	 1.2856296751419527	 -0.785124325279815	 
27.0	 1.4539213089679741	 -0.6900267055691142	 
27.0	 1.5509381791816146	 -0.5533376653696213	 
27.0	 1.5509381791816146	 -0.36003574791800175	 
27.0	 1.5509381791816144	 -0.16673383046638224	 
27.0	 1.5509381791816148	 0.026568086985237535	 
27.0	 1.5409147191020511	 0.21880704939694062	 
27.0	 1.5003725844663198	 0.40780960654803045	 
27.0	 1.459830449830588	 0.5968121636991205	 
27.0	 1.3421184412980034	 0.7473625373526159	 
27.0	 1.2156438361550141	 0.8935466867820174	 
27.0	 1.0891692310120245	 1.0397308362114193	 
27.0	 0.9387910062042484	 1.1569993898825734	 
27.0	 0.7714278649429642	 1.2537217256568307	 
27.0	 0.6040647236816797	 1.3504440614310882	 
27.0	 0.4367015824203952	 1.4471663972053452	 
27.0	 0.251496825725965	 1.4977545097607052	 
27.0	 0.06260463388663204	 1.538807781891017	 
27.0	 -0.1262875579527009	 1.5798610540213291	 
27.0	 -0.31517974979203334	 1.6209143261516408	 
27.0	 -0.5068347896539221	 1.6454362042769086	 
27.0	 -0.6988109859359729	 1.6680364554159657	 
27.0	 -0.8907871822180236	 1.6906367065550223	 
27.0	 -1.067302755725925	 1.6642408439834653	 
27.0	 -1.2115391681246692	 1.5355493966032618	 
27.0	 -1.3557755805234144	 1.406857949223058	 
27.0	 -1.416863679651351	 1.2293247072675926	 
27.0	 -1.4590331780574202	 1.040678571090216	 
27.0	 -1.5012026764634896	 0.8520324349128394	 
27.0	 -1.543372174869559	 0.6633862987354628	 
27.0	 -1.525719289734067	 0.474028938504814	 
27.0	 -1.4880466776703087	 0.2844335651678941	 
27.0	 -1.4503740656065502	 0.09483819183097311	 
27.0	 -1.4127014535427918	 -0.09475718150594784	 
27.0	 -1.3466876283758238	 -0.2754140278218059	 
27.0	 -1.26877052663809	 -0.45231670317541517	 
27.0	 -1.190853424900356	 -0.6292193785290244	 
27.0	 -1.0886772557559845	 -0.7850940606219637	 
27.0	 -0.9246283629687262	 -0.8873368699815839	 
27.0	 -0.7515779316380635	 -0.958118228780237	 
27.0	 -0.5582760141864436	 -0.958118228780237	 
27.0	 -0.36497409673482367	 -0.9581182287802371	 
27.0	 -0.19065615748968429	 -0.881730096072997	 
27.0	 -0.008464180954904407	 -0.8370256810186549	 
27.0	 0.184837736496715	 -0.837025681018655	 
27.5	 0.6112773500751673	 -1.066248928250303	 
27.5	 0.8023408187924338	 -1.081096194532801	 
27.5	 0.9934042875097003	 -1.0959434608152994	 
27.5	 1.1455659249561607	 -1.0331073205994898	 
27.5	 1.2481258504270132	 -0.8712210886903171	 
27.5	 1.350685775897866	 -0.7093348567811444	 
27.5	 1.4163022288272302	 -0.5359910887099549	 
27.5	 1.4233435596573643	 -0.34448101050392954	 
27.5	 1.4303848904874985	 -0.15297093229790448	 
27.5	 1.4175145121784736	 0.0375638030115726	 
27.5	 1.3917901749383819	 0.22746890791371938	 
27.5	 1.3660658376982902	 0.41737401281586595	 
27.5	 1.3403415004581984	 0.6072791177180126	 
27.5	 1.2873287108058256	 0.7909214954109639	 
27.5	 1.2276733926765149	 0.9730394061535048	 
27.5	 1.1035833346685746	 1.085074767899523	 
27.5	 0.9171058386376906	 1.129254331822099	 
27.5	 0.7306283426068063	 1.1734338957446746	 
27.5	 0.5441508465759228	 1.2176134596672505	 
27.5	 0.3617340320877058	 1.2721372455568953	 
27.5	 0.19500044479090495	 1.3666126458549486	 
27.5	 0.02826685749410452	 1.4610880461530016	 
27.5	 -0.14429459072108036	 1.542490831819973	 
27.5	 -0.32601140313427335	 1.6033570004255768	 
27.5	 -0.5077282155474659	 1.6642231690311804	 
27.5	 -0.689752443966711	 1.6936485844268832	 
27.5	 -0.8726246545079848	 1.6363472318592047	 
27.5	 -1.0554968650492584	 1.5790458792915263	 
27.5	 -1.238369075590532	 1.521744526723848	 
27.5	 -1.389716374044403	 1.4052228463397163	 
27.5	 -1.5393659723458657	 1.2855119941894284	 
27.5	 -1.5803755879992127	 1.1135836620162114	 
27.5	 -1.5803755879992127	 0.9219441817561738	 
27.5	 -1.5803755879992127	 0.7303047014961364	 
27.5	 -1.580375587999213	 0.5386652212360987	 
27.5	 -1.534875636501393	 0.3571449994352055	 
27.5	 -1.4536513628841927	 0.18356992124223698	 
27.5	 -1.365635455562971	 0.014427762940787188	 
27.5	 -1.239434705145107	 -0.12979103260370942	 
27.5	 -1.1132339547272427	 -0.274009828148206	 
27.5	 -0.9842889281068342	 -0.4157346396913001	 
27.5	 -0.8527598215500234	 -0.555111052770072	 
27.5	 -0.7198637375795277	 -0.6931828726089995	 
27.5	 -0.5867785955382357	 -0.8310742623408693	 
27.5	 -0.42419360192252253	 -0.9257349895036782	 
27.5	 -0.24672946347203387	 -0.9824805564935055	 
27.5	 -0.06544746824208728	 -0.9203313119302214	 
27.5	 0.11861739726174453	 -0.8810497472328478	 
27.5	 0.30951403552487206	 -0.8979069087428355	 
27.5	 0.4993810209373924	 -0.9177567440630662	 
28.0	 0.5565944464605723	 -0.978409283452081	 
28.0	 0.7417187367144604	 -1.0047713041400965	 
28.0	 0.9268430269683485	 -1.031133324828112	 
28.0	 1.095617606415734	 -1.0141761195203758	 
28.0	 1.2171584987183033	 -0.872071332567028	 
28.0	 1.3386993910208729	 -0.7299665456136801	 
28.0	 1.4332978868762394	 -0.5787575518424627	 
28.0	 1.4228648604170424	 -0.3920569601571042	 
28.0	 1.4124318339578452	 -0.20535636847174601	 
28.0	 1.4019988074986482	 -0.018655776786387857	 
28.0	 1.3915657810394513	 0.16804481489897058	 
28.0	 1.3811327545802543	 0.35474540658432874	 
28.0	 1.3481480395913479	 0.537811010897991	 
28.0	 1.2993902028051543	 0.718334229151744	 
28.0	 1.1853424126813277	 0.8495852131802439	 
28.0	 1.0251147740199977	 0.9459857463000111	 
28.0	 0.8648871353586673	 1.0423862794197785	 
28.0	 0.704659496697337	 1.138786812539546	 
28.0	 0.5444318580360071	 1.235187345659313	 
28.0	 0.36861408784741245	 1.2930611576095579	 
28.0	 0.18643618036439963	 1.3352176399328264	 
28.0	 0.004258272881387276	 1.377374122256095	 
28.0	 -0.17791963460162558	 1.4195306045793634	 
28.0	 -0.3588298399339702	 1.4664760289412713	 
28.0	 -0.5380052305671479	 1.5199749856433344	 
28.0	 -0.717180621200326	 1.573473942345398	 
28.0	 -0.8958973000784465	 1.6211533221952892	 
28.0	 -1.0644782931642502	 1.5402434479711542	 
28.0	 -1.2330592862500538	 1.459333573747019	 
28.0	 -1.4016402793358567	 1.3784236995228845	 
28.0	 -1.4475074590268844	 1.2033475810264724	 
28.0	 -1.4820371405393953	 1.0195714670415321	 
28.0	 -1.5165668220519066	 0.8357953530565916	 
28.0	 -1.5510965035644173	 0.652019239071651	 
28.0	 -1.5580532742932858	 0.46835667482930043	 
28.0	 -1.5220111496197783	 0.28487118704952924	 
28.0	 -1.4859690249462711	 0.10138569926975904	 
28.0	 -1.449926900272764	 -0.08209978851001212	 
28.0	 -1.4087223722563518	 -0.26292628694059594	 
28.0	 -1.2802663964875303	 -0.3988123468070929	 
28.0	 -1.151810420718709	 -0.5346984066735898	 
28.0	 -1.0233544449498875	 -0.6705844665400869	 
28.0	 -0.8948984691810669	 -0.806470526406583	 
28.0	 -0.7256770373624436	 -0.8757076041140065	 
28.0	 -0.5461953469321879	 -0.9281697979020948	 
28.0	 -0.3629584796696532	 -0.9205162698094586	 
28.0	 -0.17834330056782038	 -0.8907976792984753	 
28.0	 0.00512642230648587	 -0.8842159764676483	 
28.0	 0.18590341373918765	 -0.9320243266305837	 
28.0	 0.3707015089935011	 -0.9581663889795756	 
28.5	 0.7135046734598719	 -0.9877569118027771	 
28.5	 0.8949911956995861	 -0.9391885525901399	 
28.5	 1.0764777179393006	 -0.8906201933775028	 
28.5	 1.244940117592384	 -0.8293586564661692	 
28.5	 1.2888222228405515	 -0.6466824289206486	 
28.5	 1.332704328088719	 -0.46400620137512794	 
28.5	 1.376586433336886	 -0.2813299738296074	 
28.5	 1.4058534636418365	 -0.09766998729001279	 
28.5	 1.386848618096149	 0.08923923965466908	 
28.5	 1.3678437725504615	 0.276148466599351	 
28.5	 1.348838927004774	 0.46305769354403314	 
28.5	 1.306905108489869	 0.6417300761132005	 
28.5	 1.2026264637549742	 0.7980061380149762	 
28.5	 1.0750383294193924	 0.9313351759628604	 
28.5	 0.9204156107081427	 1.0380500208983987	 
28.5	 0.7657928919968937	 1.1447648658339367	 
28.5	 0.6111701732856444	 1.2514797107694748	 
28.5	 0.45654745457439505	 1.3581945557050132	 
28.5	 0.27712504673187144	 1.4061531137108734	 
28.5	 0.09280151324827762	 1.4424997542075764	 
28.5	 -0.0915220202353162	 1.4788463947042794	 
28.5	 -0.2758455537189095	 1.5151930352009824	 
28.5	 -0.45450537853323497	 1.5730916879712313	 
28.5	 -0.6328839804468807	 1.6320604733632278	 
28.5	 -0.8112625823605258	 1.691029258755224	 
28.5	 -0.9852802259434669	 1.6968701500920793	 
28.5	 -1.1516551387218896	 1.6096025635020612	 
28.5	 -1.3180300515003127	 1.5223349769120431	 
28.5	 -1.4234710922852187	 1.3853273451964476	 
28.5	 -1.4756569796992147	 1.20484777176475	 
28.5	 -1.5278428671132107	 1.0243681983330517	 
28.5	 -1.5800287545272071	 0.8438886249013531	 
28.5	 -1.6322146419412031	 0.6634090514696547	 
28.5	 -1.6012778606517681	 0.4816197792181233	 
28.5	 -1.5548038170997973	 0.29958569848815786	 
28.5	 -1.508329773547827	 0.11755161775819235	 
28.5	 -1.4618557299958566	 -0.06448246297177214	 
28.5	 -1.3942442027766206	 -0.23733343074281046	 
28.5	 -1.2929053845682188	 -0.3955316835631203	 
28.5	 -1.1915665663598172	 -0.5537299363834302	 
28.5	 -1.0871171288450199	 -0.7079216216577194	 
28.5	 -0.9087385269313746	 -0.7668904070497156	 
28.5	 -0.7282753052583983	 -0.8161495617022368	 
28.5	 -0.5414115972220559	 -0.8355968723179188	 
28.5	 -0.35537296169455374	 -0.832403865591647	 
28.5	 -0.17042047155210682	 -0.7994065981080769	 
28.5	 0.012883295153893082	 -0.7925293829008956	 
28.5	 0.1922187278649235	 -0.8485208630172625	 
28.5	 0.3715541605759529	 -0.9045123431336293	 
28.5	 0.5415842535292462	 -0.9833048947033933	 
29.0	 0.4565708296068418	 -1.2722060192148736	 
29.0	 0.6095517841580662	 -1.1489042450469409	 
29.0	 0.7625327387092907	 -1.0256024708790084	 
29.0	 0.9155136932605152	 -0.9023006967110756	 
29.0	 1.068252550265226	 -0.7787366301756647	 
29.0	 1.203390170859242	 -0.6361031016189067	 
29.0	 1.3385277914532578	 -0.4934695730621488	 
29.0	 1.412551637056315	 -0.32194934794089947	 
29.0	 1.4369847640234323	 -0.12698903845465462	 
29.0	 1.46141789099055	 0.06797127103159017	 
29.0	 1.4858510179576672	 0.2629315805178353	 
29.0	 1.4256982281956907	 0.44402992099598604	 
29.0	 1.3403141126837022	 0.6209933431673463	 
29.0	 1.2279133256509214	 0.776187619520097	 
29.0	 1.0731560732449055	 0.8972524484181067	 
29.0	 0.9183988208388899	 1.0183172773161162	 
29.0	 0.763641568432874	 1.139382106214126	 
29.0	 0.5974004986570174	 1.2375244307262485	 
29.0	 0.4077750783135908	 1.2889899524659758	 
29.0	 0.21814965797016372	 1.3404554742057033	 
29.0	 0.028524237626736698	 1.3919209959454308	 
29.0	 -0.16110118271668986	 1.4433865176851581	 
29.0	 -0.34888110940701367	 1.5009417039072181	 
29.0	 -0.5351751720496454	 1.563399867444637	 
29.0	 -0.7214692346922766	 1.6258580309820556	 
29.0	 -0.9089186763545077	 1.6700170861189283	 
29.0	 -1.1015890413400378	 1.6314861839142503	 
29.0	 -1.294259406325568	 1.5929552817095727	 
29.0	 -1.486929771311098	 1.554424379504895	 
29.0	 -1.5893617709831447	 1.4319885453938777	 
29.0	 -1.613794897950262	 1.2370282359076326	 
29.0	 -1.6382280249173797	 1.0420679264213875	 
29.0	 -1.6626611518844974	 0.8471076169351422	 
29.0	 -1.6231372017119245	 0.6581574458156079	 
29.0	 -1.5628111513391956	 0.4711620779189923	 
29.0	 -1.5024851009664664	 0.28416671002237653	 
29.0	 -1.4421590505937374	 0.09717134212576178	 
29.0	 -1.3818330002210082	 -0.08982402577085391	 
29.0	 -1.321506949848279	 -0.27681939366746966	 
29.0	 -1.1646955752104127	 -0.3907662329081415	 
29.0	 -1.0010799926341742	 -0.49956164230854727	 
29.0	 -0.8301443756897869	 -0.5959331181927924	 
29.0	 -0.6556865635604696	 -0.6863265458046223	 
29.0	 -0.4756244230049149	 -0.7618525772073087	 
29.0	 -0.28490755497096615	 -0.8091133031400011	 
29.0	 -0.09791151988617493	 -0.8374420935633213	 
29.0	 0.06073356645118493	 -0.7215186854466873	 
29.0	 0.20963894208804196	 -0.7567633754287805	 
29.0	 0.3481279226314633	 -0.8944943093087805	 
29.0	 0.40234937611915256	 -1.083350164261827	 
29.5	 0.7260863046135476	 -0.9068355041305202	 
29.5	 0.8919121428982926	 -0.7996318792294301	 
29.5	 1.0577379811830376	 -0.6924282543283402	 
29.5	 1.2235638194677827	 -0.5852246294272502	 
29.5	 1.2992566215386394	 -0.4247313821440898	 
29.5	 1.3132643964334862	 -0.2277679132538732	 
29.5	 1.3272721713283329	 -0.030804444363656716	 
29.5	 1.3063756258382133	 0.16483036804941195	 
29.5	 1.2774349886501581	 0.3601589766911604	 
29.5	 1.2484943514621032	 0.555487585332909	 
29.5	 1.1880574658885859	 0.7397795417922932	 
29.5	 1.0887477644608148	 0.9104500109341425	 
29.5	 0.9815317620058118	 1.071953261719191	 
29.5	 0.7981240047576491	 1.145113499662838	 
29.5	 0.6147162475094861	 1.2182737376064852	 
29.5	 0.43130849026132373	 1.291433975550132	 
29.5	 0.2479007330131608	 1.3645942134937794	 
29.5	 0.06418119636795516	 1.436920016640495	 
29.5	 -0.12226360861028603	 1.5019520128531094	 
29.5	 -0.3087084135885277	 1.5669840090657239	 
29.5	 -0.49515321856676936	 1.6320160052783383	 
29.5	 -0.6815980235450105	 1.6970480014909526	 
29.5	 -0.8724870306884057	 1.7457183908574418	 
29.5	 -1.0662116073396986	 1.7839494546151964	 
29.5	 -1.2599361839909908	 1.8221805183729507	 
29.5	 -1.4536607606422838	 1.8604115821307052	 
29.5	 -1.56486967474826	 1.7293255293198546	 
29.5	 -1.6541225939243296	 1.5531871114397056	 
29.5	 -1.7433755131003994	 1.3770486935595565	 
29.5	 -1.8326284322764688	 1.2009102756794086	 
29.5	 -1.8349038977979055	 1.0145351320510374	 
29.5	 -1.788984248231189	 0.8224877118172783	 
29.5	 -1.7430645986644724	 0.6304402915835191	 
29.5	 -1.6971449490977562	 0.43839287134975996	 
29.5	 -1.6512252995310395	 0.24634545111600079	 
29.5	 -1.5937481546476882	 0.06053601883981918	 
29.5	 -1.4584077899177248	 -0.08324788675998057	 
29.5	 -1.323067425187761	 -0.2270317923597811	 
29.5	 -1.1877270604577967	 -0.3708156979595816	 
29.5	 -1.0523866957278327	 -0.5145996035593822	 
29.5	 -0.9212702869005476	 -0.6622199352682709	 
29.5	 -0.7911334368515262	 -0.8107299554490339	 
29.5	 -0.6609965868025056	 -0.9592399756297959	 
29.5	 -0.5119914400706511	 -1.0239460123936321	 
29.5	 -0.3307646544858404	 -0.9455388824795161	 
29.5	 -0.1772950926182448	 -0.8216179684292929	 
29.5	 -0.02462179186918386	 -0.6963914174380639	 
29.5	 0.16786077171168257	 -0.7139711469861462	 
29.5	 0.3565988611661267	 -0.7682923895738456	 
29.5	 0.5399675263306424	 -0.841466516256342	 
30.0	 0.6259106689404201	 -1.1158643693032757	 
30.0	 0.8082790180329193	 -1.0569086194394286	 
30.0	 0.9906473671254187	 -0.9979528695755816	 
30.0	 1.1216615244940285	 -0.8778868449642938	 
30.0	 1.2111404968562902	 -0.7083949315945822	 
30.0	 1.3006194692185518	 -0.5389030182248707	 
30.0	 1.3578133406425867	 -0.36141217594339536	 
30.0	 1.3578133406425867	 -0.1697510291432881	 
30.0	 1.3578133406425867	 0.021910117656818717	 
30.0	 1.3578133406425872	 0.21357126445692565	 
30.0	 1.3249514600680672	 0.3980091139863156	 
30.0	 1.2445775380148598	 0.5720034467863154	 
30.0	 1.1642036159616524	 0.7459977795863152	 
30.0	 1.0602967096987133	 0.8999520394860674	 
30.0	 0.9013278877610067	 1.0070170143586652	 
30.0	 0.7423590658233006	 1.1140819892312628	 
30.0	 0.583390243885594	 1.2211469641038606	 
30.0	 0.41735948534968764	 1.3120982171959423	 
30.0	 0.23089393554102453	 1.3564219571925282	 
30.0	 0.04442838573236085	 1.4007456971891143	 
30.0	 -0.14203716407630285	 1.4450694371857002	 
30.0	 -0.328502713884966	 1.4893931771822861	 
30.0	 -0.5116872101135508	 1.5440056104016517	 
30.0	 -0.6893878999449373	 1.6158141059031004	 
30.0	 -0.8670885897763233	 1.687622601404549	 
30.0	 -1.0447892796077098	 1.7594310969059976	 
30.0	 -1.2224899694390965	 1.8312395924074465	 
30.0	 -1.3402352062839265	 1.7062535858099332	 
30.0	 -1.447711960285857	 1.5475628723389152	 
30.0	 -1.5551887142877872	 1.3888721588678978	 
30.0	 -1.6626654682897177	 1.2301814453968798	 
30.0	 -1.694108482023244	 1.0555224600816562	 
30.0	 -1.6595514028110843	 0.867002425419404	 
30.0	 -1.6249943235989248	 0.6784823907571517	 
30.0	 -1.5904372443867654	 0.4899623560948995	 
30.0	 -1.5558801651746061	 0.3014423214326473	 
30.0	 -1.485259300752365	 0.1312867588384415	 
30.0	 -1.3531224181604673	 -0.007543495254919708	 
30.0	 -1.2209855355685697	 -0.14637374934828096	 
30.0	 -1.0888486529766719	 -0.2852040034416422	 
30.0	 -0.9795098611563035	 -0.44259585198265844	 
30.0	 -0.870351225731175	 -0.6001343790319367	 
30.0	 -0.7611925903060468	 -0.757672906081214	 
30.0	 -0.6063517247527159	 -0.8187035502750059	 
30.0	 -0.4153134750437706	 -0.8032639148882823	 
30.0	 -0.2241370470147874	 -0.7912492800514137	 
30.0	 -0.03247590021467973	 -0.7912492800514137	 
30.0	 0.15621348568551102	 -0.8180533730685229	 
30.0	 0.3432200178207688	 -0.8600361330001501	 
30.0	 0.486462709126577	 -0.9843795348299069	 
30.5	 0.7375336689775216	 -0.9739166654516408	 
30.5	 0.908685114998887	 -0.8898157519891916	 
30.5	 1.0798365610202527	 -0.8057148385267427	 
30.5	 1.2468774606057074	 -0.7183546644665161	 
30.5	 1.2897449128191116	 -0.5325371123861105	 
30.5	 1.332612365032516	 -0.34671956030570483	 
30.5	 1.37547981724592	 -0.16090200822529946	 
30.5	 1.391298882930349	 0.02604589548381972	 
30.5	 1.3640844468157474	 0.21479216852619515	 
30.5	 1.3368700107011455	 0.4035384415685706	 
30.5	 1.3096555745865437	 0.5922847146109462	 
30.5	 1.195519367961276	 0.736886152429381	 
30.5	 1.0591671624439432	 0.8702047826765513	 
30.5	 0.9228149569266102	 1.003523412923722	 
30.5	 0.7864627514092773	 1.1368420431708925	 
30.5	 0.6258603616242101	 1.2374231047620676	 
30.5	 0.45859423928320575	 1.3290081768940858	 
30.5	 0.29132811694220145	 1.420593249026104	 
30.5	 0.12406199460119767	 1.512178321158122	 
30.5	 -0.04543028288979081	 1.5976244708451222	 
30.5	 -0.2325212781321216	 1.6345397877157246	 
30.5	 -0.4196122733744518	 1.6714551045863266	 
30.5	 -0.6067032686167825	 1.708370421456929	 
30.5	 -0.7935035281549832	 1.7255718769466406	 
30.5	 -0.9794245563937577	 1.6831554605602996	 
30.5	 -1.165345584632533	 1.6407390441739587	 
30.5	 -1.351266612871308	 1.598322627787618	 
30.5	 -1.5371876411100829	 1.5559062114012772	 
30.5	 -1.6799812044304234	 1.4835072896860653	 
30.5	 -1.6549785675908315	 1.2944553146329338	 
30.5	 -1.6299759307512394	 1.1054033395798013	 
30.5	 -1.6049732939116472	 0.9163513645266689	 
30.5	 -1.5799706570720553	 0.7272993894735363	 
30.5	 -1.5549680202324634	 0.5382474144204038	 
30.5	 -1.5151879542334663	 0.35196358912396136	 
30.5	 -1.4700689708849692	 0.16667986490075604	 
30.5	 -1.4249499875364728	 -0.01860385932244822	 
30.5	 -1.3606432184377932	 -0.19469918034651243	 
30.5	 -1.2445784269114204	 -0.34600927679867394	 
30.5	 -1.1285136353850476	 -0.49731937325083553	 
30.5	 -1.0124488438586747	 -0.648629469702997	 
30.5	 -0.8514890400287362	 -0.7406570218069564	 
30.5	 -0.6743844155694966	 -0.8113658127425538	 
30.5	 -0.497279791110256	 -0.8820746036781516	 
30.5	 -0.3178281663293401	 -0.9441486911112758	 
30.5	 -0.12929817215091666	 -0.9728231120384102	 
30.5	 0.050196753734998135	 -0.9110206307443172	 
30.5	 0.23171639262536203	 -0.8538942812968005	 
30.5	 0.41816481403589084	 -0.8138597053162263	 
30.5	 0.5857416653948861	 -0.8584828369229462	 
31.0	 -0.9322183895895754	 -0.6643740208852754	 
31.0	 -0.7509774589994214	 -0.6899437963044954	 
31.0	 -0.5697365284092671	 -0.7155135717237154	 
31.0	 -0.3884955978191132	 -0.7410833471429354	 
31.0	 -0.20725466722895908	 -0.7666531225621555	 
31.0	 -0.026013736638804935	 -0.7922228979813755	 
31.0	 0.15522719395134899	 -0.8177926734005954	 
31.0	 0.33617582871920393	 -0.8448243467724768	 
31.0	 0.5133147577778767	 -0.8909100077541839	 
31.0	 0.6904536868365496	 -0.9369956687358909	 
31.0	 0.8675926158952227	 -0.9830813297175982	 
31.0	 1.0447315449538956	 -1.0291669906993053	 
31.0	 1.2218704740125683	 -1.0752526516810124	 
31.0	 1.3990094030712414	 -1.1213383126627194	 
31.0	 1.5145684404739772	 -1.0886652892595972	 
31.0	 1.5125702933085177	 -0.905640439187047	 
31.0	 1.510572146143058	 -0.7226155891144965	 
31.0	 1.5085739989775986	 -0.5395907390419459	 
31.0	 1.506575851812139	 -0.35656588896939584	 
31.0	 1.5045777046466795	 -0.17354103889684525	 
31.0	 1.5025795574812197	 0.009483811175705403	 
31.0	 1.50058141031576	 0.19250866124825539	 
31.0	 1.4985832631503007	 0.37553351132080615	 
31.0	 1.4965851159848411	 0.5585583613933567	 
31.0	 1.4945869688193818	 0.7415832114659068	 
31.0	 1.492588821653922	 0.9246080615384573	 
31.0	 1.4905906744884625	 1.107632911611008	 
31.0	 1.3954209412393075	 1.206377252932162	 
31.0	 1.2135124581018395	 1.2266600559633023	 
31.0	 1.0316039749643728	 1.246942858994443	 
31.0	 0.8496954918269047	 1.2672256620255837	 
31.0	 0.6677870086894369	 1.2875084650567243	 
31.0	 0.4858785255519689	 1.307791268087865	 
31.0	 0.30397004241450104	 1.3280740711190058	 
31.0	 0.12110210133692603	 1.3219570398671245	 
31.0	 -0.06179881704804324	 1.3149326260047967	 
31.0	 -0.2446997354330115	 1.3079082121424688	 
31.0	 -0.42760065381798074	 1.300883798280141	 
31.0	 -0.61050157220295	 1.293859384417813	 
31.0	 -0.7934024905879192	 1.2868349705554851	 
31.0	 -0.8588352671284516	 1.163448880271816	 
31.0	 -0.8641284579220899	 0.980489675891723	 
31.0	 -0.8694216487157284	 0.7975304715116308	 
31.0	 -0.8747148395093667	 0.6145712671315378	 
31.0	 -0.8800080303030051	 0.43161206275144465	 
31.0	 -0.8853012210966436	 0.2486528583713517	 
31.0	 -0.890594411890282	 0.06569365399125865	 
31.0	 -0.8958876026839204	 -0.11726555038883435	 
31.0	 -0.9011807934775588	 -0.3002247547689264	 
31.0	 -0.9064739842711972	 -0.4831839591490194	 
31.5	 -1.1308656723708346	 -0.7675619528696462	 
31.5	 -0.9534638818684986	 -0.7737543915701206	 
31.5	 -0.7760620913661627	 -0.779946830270595	 
31.5	 -0.5986603008638267	 -0.7861392689710691	 
31.5	 -0.42125851036149065	 -0.7923317076715436	 
31.5	 -0.24385671985915458	 -0.7985241463720177	 
31.5	 -0.06959494249759693	 -0.8290108702922737	 
31.5	 0.10355156174629943	 -0.8681264635846202	 
31.5	 0.27669806599019553	 -0.9072420568769668	 
31.5	 0.4498445702340917	 -0.9463576501693134	 
31.5	 0.6229910744779882	 -0.9854732434616599	 
31.5	 0.7961375787218842	 -1.0245888367540064	 
31.5	 0.9694467986423416	 -1.0588033522789133	 
31.5	 1.1448064396834492	 -1.031258155521078	 
31.5	 1.3201660807245568	 -1.003712958763243	 
31.5	 1.3733666690685709	 -0.8700704816123602	 
31.5	 1.376082870724697	 -0.6925814289385201	 
31.5	 1.378799072380823	 -0.5150923762646801	 
31.5	 1.381515274036949	 -0.3376033235908406	 
31.5	 1.3842314756930751	 -0.16011427091700065	 
31.5	 1.3869476773492009	 0.01737478175683943	 
31.5	 1.389663879005327	 0.194863834430679	 
31.5	 1.392380080661453	 0.372352887104519	 
31.5	 1.395096282317579	 0.5498419397783589	 
31.5	 1.3707793911754715	 0.709188042642507	 
31.5	 1.2054954812874819	 0.7739257496040053	 
31.5	 1.0402115713994924	 0.8386634565655033	 
31.5	 0.8749276615115027	 0.9034011635270015	 
31.5	 0.709643751623513	 0.9681388704884997	 
31.5	 0.5443598417355243	 1.0328765774499975	 
31.5	 0.37799866483123834	 1.0939146869462335	 
31.5	 0.2037979158595628	 1.1280297954496694	 
31.5	 0.029597166887887272	 1.1621449039531055	 
31.5	 -0.14460358208378826	 1.1962600124565417	 
31.5	 -0.31880433105546385	 1.2303751209599778	 
31.5	 -0.4930050800271394	 1.2644902294634137	 
31.5	 -0.6683279652644493	 1.290124157308027	 
31.5	 -0.8454068017725951	 1.302486488456129	 
31.5	 -1.0224856382807406	 1.3148488196042305	 
31.5	 -1.0701977396578444	 1.1841035235811934	 
31.5	 -1.0757130062681162	 1.0066793893583894	 
31.5	 -1.0812282728783882	 0.8292552551355856	 
31.5	 -1.08674353948866	 0.651831120912783	 
31.5	 -1.092258806098932	 0.47440698668997916	 
31.5	 -1.0977740727092038	 0.29698285246717526	 
31.5	 -1.1032893393194756	 0.11955871824437148	 
31.5	 -1.1088046059297474	 -0.057865415978432144	 
31.5	 -1.1143198725400192	 -0.23528955020123593	 
31.5	 -1.1198351391502912	 -0.4127136844240388	 
31.5	 -1.1253504057605628	 -0.5901378186468426	 
32.0	 -0.43288727266501714	 -0.9408750722807703	 
32.0	 -0.2514771886317318	 -0.886584682168469	 
32.0	 -0.0700671045984465	 -0.8322942920561678	 
32.0	 0.11134297943483876	 -0.7780039019438665	 
32.0	 0.29619632927933753	 -0.7738242714455204	 
32.0	 0.4833272727074618	 -0.8027910637983107	 
32.0	 0.6704582161355859	 -0.8317578561511009	 
32.0	 0.8399483793276565	 -0.8995357874337452	 
32.0	 0.9848210459552662	 -1.0214741961149927	 
32.0	 1.1238226817683814	 -1.102052621171956	 
32.0	 1.229037955162326	 -0.9446143434497098	 
32.0	 1.3047976166322708	 -0.7756338370968948	 
32.0	 1.334553793791996	 -0.5886267918596939	 
32.0	 1.3643099709517212	 -0.40161974662249267	 
32.0	 1.394066148111447	 -0.2146127013852915	 
32.0	 1.374780766618659	 -0.026663573902109106	 
32.0	 1.3522286564168757	 0.161348307033528	 
32.0	 1.3296765462150928	 0.34936018796916524	 
32.0	 1.3071244360133099	 0.5373720689048018	 
32.0	 1.284572325811527	 0.725383949840439	 
32.0	 1.262020215609744	 0.9133958307760762	 
32.0	 1.1694243467182603	 1.0624827937902037	 
32.0	 1.0216756538413918	 1.18092007170846	 
32.0	 0.873926960964523	 1.2993573496267161	 
32.0	 0.7261782680876546	 1.4177946275449722	 
32.0	 0.5517688590634784	 1.4734610630969778	 
32.0	 0.36394778045051585	 1.4975506350353271	 
32.0	 0.17612670183755333	 1.5216402069736765	 
32.0	 -0.011694376775409191	 1.545729778912026	 
32.0	 -0.19994609981711542	 1.5661168179981728	 
32.0	 -0.38828220414264975	 1.5857783757948223	 
32.0	 -0.5766183084681842	 1.6054399335914717	 
32.0	 -0.7649544127937185	 1.625101491388121	 
32.0	 -0.9446250131726226	 1.6217920957133234	 
32.0	 -1.0730493856184289	 1.4826366229161303	 
32.0	 -1.2014737580642352	 1.343481150118937	 
32.0	 -1.3298981305100408	 1.2043256773217446	 
32.0	 -1.458322502955847	 1.0651702045245512	 
32.0	 -1.5130333426098368	 0.9011035078262317	 
32.0	 -1.4953498141567696	 0.7125713941984491	 
32.0	 -1.4776662857037026	 0.5240392805706663	 
32.0	 -1.4599827572506356	 0.3355071669428836	 
32.0	 -1.4422992287975687	 0.14697505331510186	 
32.0	 -1.3496471957767169	 -0.014926054833597935	 
32.0	 -1.2444319223827724	 -0.17236433255584388	 
32.0	 -1.139216648988828	 -0.3298026102780897	 
32.0	 -1.014757312348875	 -0.47235192977089846	 
32.0	 -0.8887822164957944	 -0.6137285200265581	 
32.0	 -0.7628071206427146	 -0.7551051102822169	 
32.0	 -0.5980251277518726	 -0.8482114123874647	 
32.5	 -0.26392458930998847	 -0.8585553889138	 
32.5	 -0.06587633697753065	 -0.8658764967911716	 
32.5	 0.13217191535492714	 -0.8731976046685435	 
32.5	 0.33022016768738494	 -0.8805187125459152	 
32.5	 0.5282684200198428	 -0.8878398204232869	 
32.5	 0.7263166723523006	 -0.8951609283006586	 
32.5	 0.9242602077413056	 -0.9046613566505871	 
32.5	 1.1220979894889223	 -0.9163626807498302	 
32.5	 1.3199357712365385	 -0.9280640048490734	 
32.5	 1.5112471341855909	 -0.9291520979667236	 
32.5	 1.590075025489495	 -0.7473201084129795	 
32.5	 1.668902916793399	 -0.5654881188592356	 
32.5	 1.7315959348160108	 -0.38087933337141117	 
32.5	 1.7180890377363542	 -0.1831566169127992	 
32.5	 1.7045821406566977	 0.014566099545812672	 
32.5	 1.6910752435770413	 0.2122888160044241	 
32.5	 1.6775683464973845	 0.41001153246303595	 
32.5	 1.664061449417728	 0.6077342489216478	 
32.5	 1.6505545523380714	 0.8054569653802593	 
32.5	 1.5649221789852557	 0.9573192828744996	 
32.5	 1.3916005767811785	 1.0534251155898178	 
32.5	 1.2182789745771019	 1.149530948305136	 
32.5	 1.044957372373025	 1.245636781020454	 
32.5	 0.8683044052077118	 1.334445440774871	 
32.5	 0.682153328155934	 1.4024490096882447	 
32.5	 0.49600225110415574	 1.4704525786016185	 
32.5	 0.3098511740523775	 1.5384561475149925	 
32.5	 0.12236773094742817	 1.599878504026053	 
32.5	 -0.07557550198711241	 1.6096348049600755	 
32.5	 -0.2735187349216519	 1.619391105894098	 
32.5	 -0.47146196785619243	 1.6291474068281202	 
32.5	 -0.6694052007907331	 1.6389037077621427	 
32.5	 -0.8457667312302828	 1.5494323545563882	 
32.5	 -1.02177624450168	 1.4583425081932568	 
32.5	 -1.1977857577730773	 1.3672526618301255	 
32.5	 -1.2393338511234093	 1.1824036410086256	 
32.5	 -1.2639618151333365	 0.9857563113516526	 
32.5	 -1.2885897791432637	 0.7891089816946785	 
32.5	 -1.305474202676351	 0.592251519502114	 
32.5	 -1.291547268034949	 0.3945579450896227	 
32.5	 -1.2776203333935472	 0.1968643706771315	 
32.5	 -1.2636933987521453	 -0.0008292037353597737	 
32.5	 -1.2497664641107433	 -0.19852277814784985	 
32.5	 -1.1953324459678991	 -0.37697349182364703	 
32.5	 -1.0508856544543506	 -0.5126637025756925	 
32.5	 -0.906438862940802	 -0.6483539133277378	 
32.5	 -0.7478954822066899	 -0.7660145896537369	 
32.5	 -0.5770832534242429	 -0.8561254448810185	 
32.5	 -0.37967511458925535	 -0.8386115762564448	 
32.5	 -0.1822669757542666	 -0.8210977076318711	 
33.0	 0.1409261090198172	 -0.9546108209899661	 
33.0	 0.33127214336663763	 -0.9691976722007293	 
33.0	 0.521618177713458	 -0.9837845234114926	 
33.0	 0.7119642120602785	 -0.9983713746222558	 
33.0	 0.9023102464070988	 -1.012958225833019	 
33.0	 1.0893016457636187	 -1.0415921259014396	 
33.0	 1.265698604047754	 -1.1145887157389849	 
33.0	 1.4420955623318894	 -1.1875853055765304	 
33.0	 1.5516652648464957	 -1.1584077013901195	 
33.0	 1.5554823361328385	 -0.9675417301259865	 
33.0	 1.5592994074191817	 -0.7766757588618534	 
33.0	 1.5631164787055245	 -0.5858097875977204	 
33.0	 1.5669335499918677	 -0.39494381633358755	 
33.0	 1.566993075461814	 -0.20433167080237968	 
33.0	 1.537541463851889	 -0.015713030171650877	 
33.0	 1.508089852241964	 0.1729056104590774	 
33.0	 1.4786382406320384	 0.3615242510898062	 
33.0	 1.4491866290221134	 0.550142891720535	 
33.0	 1.379043798172892	 0.7141124064285894	 
33.0	 1.2255110549229566	 0.8275676212490435	 
33.0	 1.071978311673021	 0.9410228360694974	 
33.0	 0.9184455684230861	 1.0544780508899514	 
33.0	 0.7649128251731508	 1.1679332657104053	 
33.0	 0.5882728371459489	 1.232904101369126	 
33.0	 0.4034503410278442	 1.2807061300758549	 
33.0	 0.21862784490973908	 1.3285081587825838	 
33.0	 0.03380534879163388	 1.3763101874893129	 
33.0	 -0.1520360991001598	 1.4195809201161524	 
33.0	 -0.33953033175125624	 1.4555016904639935	 
33.0	 -0.5270245644023517	 1.4914224608118345	 
33.0	 -0.7145187970534482	 1.5273432311596757	 
33.0	 -0.8988551548630813	 1.5140050773674445	 
33.0	 -1.080227827006258	 1.454437109301967	 
33.0	 -1.2436183150043976	 1.3741985832637775	 
33.0	 -1.3277209285842435	 1.202818481125738	 
33.0	 -1.4118235421640901	 1.0314383789876984	 
33.0	 -1.44191017054501	 0.8495623065393926	 
33.0	 -1.428106745269446	 0.659157856826504	 
33.0	 -1.4143033199938824	 0.4687534071136155	 
33.0	 -1.4004998947183187	 0.278348957400727	 
33.0	 -1.3646242591034137	 0.09844941221177589	 
33.0	 -1.2255609285254323	 -0.03233965120090056	 
33.0	 -1.0864975979474518	 -0.16312871461357628	 
33.0	 -0.9474342673694705	 -0.29391777802625274	 
33.0	 -0.8238587466912398	 -0.43941504610962134	 
33.0	 -0.7004198615617168	 -0.5850420719591745	 
33.0	 -0.5769809764321935	 -0.7306690978087274	 
33.0	 -0.40609768926779877	 -0.8110352952855666	 
33.0	 -0.22949649986182033	 -0.8835363912786574	 
33.0	 -0.04852751943220629	 -0.9426574529866298	 
33.5	 0.04398907745254472	 -0.9103176242821059	 
33.5	 0.2244259065751858	 -0.9697225252027668	 
33.5	 0.4048627356978269	 -1.029127426123428	 
33.5	 0.585299564820468	 -1.088532327044089	 
33.5	 0.7657363939431091	 -1.14793722796475	 
33.5	 0.9483045337981733	 -1.1985363121286983	 
33.5	 1.135935755040923	 -1.2282165475081728	 
33.5	 1.3235669762836728	 -1.2578967828876475	 
33.5	 1.5111981975264224	 -1.2875770182671222	 
33.5	 1.5551432675870225	 -1.1490557082199389	 
33.5	 1.5551432675870223	 -0.9590915232870237	 
33.5	 1.5551432675870225	 -0.769127338354109	 
33.5	 1.5402498928617179	 -0.5798733715384535	 
33.5	 1.5221734124733919	 -0.39077119700310536	 
33.5	 1.5040969320850661	 -0.20166902246775714	 
33.5	 1.4860204516967404	 -0.012566847932409503	 
33.5	 1.4679439713084146	 0.1765353266029387	 
33.5	 1.4396893550327403	 0.3613820130634448	 
33.5	 1.3177877484128504	 0.5070748058183241	 
33.5	 1.1958861417929598	 0.6527675985732037	 
33.5	 1.0739845351730697	 0.7984603913280833	 
33.5	 0.9507999416256011	 0.9423084696995419	 
33.5	 0.7717939410677247	 1.0058949723671708	 
33.5	 0.5927879405098483	 1.0694814750347996	 
33.5	 0.4137819399519724	 1.1330679777024284	 
33.5	 0.2347759393940959	 1.1966544803700574	 
33.5	 0.06174796332191983	 1.2741873949885498	 
33.5	 -0.10773955246177008	 1.3599800144304357	 
33.5	 -0.28086772246677955	 1.433160606134042	 
33.5	 -0.47000276711035105	 1.450889860063652	 
33.5	 -0.6591378117539235	 1.4686191139932616	 
33.5	 -0.8482728563974961	 1.4863483679228715	 
33.5	 -1.032236198698485	 1.478014236475057	 
33.5	 -1.2002721694443537	 1.3894122946638294	 
33.5	 -1.3273771083440482	 1.2732853751361415	 
33.5	 -1.3460504088508718	 1.084241201977039	 
33.5	 -1.3647237093576956	 0.8951970288179376	 
33.5	 -1.3833970098645192	 0.706152855658835	 
33.5	 -1.3654026554911662	 0.5172366975678043	 
33.5	 -1.345409834428211	 0.3283275165755313	 
33.5	 -1.3254170133652559	 0.13941833558325817	 
33.5	 -1.3054241923023002	 -0.04949084540901491	 
33.5	 -1.2854313712393453	 -0.2384000264012869	 
33.5	 -1.1515544853299302	 -0.35050606139644563	 
33.5	 -0.9839039973803163	 -0.43983525845699933	 
33.5	 -0.817136939607082	 -0.5307779132171501	 
33.5	 -0.6515639632403987	 -0.623901385308264	 
33.5	 -0.4859909868737151	 -0.717024857399378	 
33.5	 -0.3174470564727945	 -0.8043257096540222	 
33.5	 -0.14332740397471583	 -0.8787118124283053	 
34.0	 0.7321635570100445	 -0.9594119455666703	 
34.0	 0.8817807895185317	 -0.849340887591662	 
34.0	 1.0313980220270187	 -0.739269829616654	 
34.0	 1.181015254535506	 -0.6291987716416458	 
34.0	 1.2442391064695222	 -0.45965659133592346	 
34.0	 1.2936475033413908	 -0.28060418452219676	 
34.0	 1.3430559002132598	 -0.10155177770847025	 
34.0	 1.3924642970851289	 0.07750062910525649	 
34.0	 1.3580834685095853	 0.2548425101846353	 
34.0	 1.3014087065493418	 0.4317292689428477	 
34.0	 1.2447339445890981	 0.6086160277010603	 
34.0	 1.1880591826288547	 0.7855027864592727	 
34.0	 1.1009120757384785	 0.9448805135018162	 
34.0	 0.9766326883440781	 1.082922492392692	 
34.0	 0.852353300949678	 1.2209644712835674	 
34.0	 0.7095360521556404	 1.3328233390583786	 
34.0	 0.5380479898576995	 1.4041871853429924	 
34.0	 0.3665599275597586	 1.4755510316276061	 
34.0	 0.1950718652618181	 1.5469148779122197	 
34.0	 0.02236798775427328	 1.6102141786029867	 
34.0	 -0.1625374040713461	 1.592580400191921	 
34.0	 -0.3474427958969649	 1.5749466217808552	 
34.0	 -0.5323481877225843	 1.5573128433697894	 
34.0	 -0.7172535795482038	 1.5396790649587235	 
34.0	 -0.8937757688572333	 1.486201713904667	 
34.0	 -1.0673218931258348	 1.4199997742156847	 
34.0	 -1.2408680173944364	 1.353797834526703	 
34.0	 -1.3936112591969771	 1.2630908281869146	 
34.0	 -1.4871083795983289	 1.1025939667101505	 
34.0	 -1.5806054999996801	 0.9420971052333875	 
34.0	 -1.6741026204010316	 0.7816002437566235	 
34.0	 -1.7106890570550009	 0.611812607818756	 
34.0	 -1.6730886579372557	 0.42991383362436336	 
34.0	 -1.6354882588195103	 0.24801505942997057	 
34.0	 -1.5978878597017654	 0.066116285235578	 
34.0	 -1.56028746058402	 -0.11578248895881477	 
34.0	 -1.522687061466275	 -0.2976812631532064	 
34.0	 -1.48508666234853	 -0.4795800373475991	 
34.0	 -1.364270709412347	 -0.6168582507466641	 
34.0	 -1.2335691971037108	 -0.7488357819687317	 
34.0	 -1.1028676847950747	 -0.8808133131907993	 
34.0	 -0.9192545233484288	 -0.8603695526090847	 
34.0	 -0.7348909092169285	 -0.8377639813575699	 
34.0	 -0.5505272950854272	 -0.8151584101060549	 
34.0	 -0.3670965903141841	 -0.8254158560276021	 
34.0	 -0.1843122947164795	 -0.8584439554292813	 
34.0	 -0.001059556353789133	 -0.8882942061887871	 
34.0	 0.1834802890287641	 -0.9094129072241178	 
34.0	 0.36856173507607926	 -0.9210354677440036	 
34.0	 0.5543060595310578	 -0.9210354677440036	 
34.5	 0.7200222244964695	 -0.7910042642828379	 
34.5	 0.9011328764526663	 -0.7264394286578355	 
34.5	 1.082243528408863	 -0.6618745930328331	 
34.5	 1.2633541803650599	 -0.5973097574078307	 
34.5	 1.3752528136444107	 -0.4884511601221624	 
34.5	 1.3580171288948926	 -0.2969502007968957	 
34.5	 1.3407814441453745	 -0.10544924147162911	 
34.5	 1.3235457593958566	 0.08605171785363773	 
34.5	 1.3071286459796136	 0.27762430421312084	 
34.5	 1.2908434297153346	 0.4692084319025196	 
34.5	 1.2745582134510554	 0.6607925595919186	 
34.5	 1.2582729971867765	 0.8523766872813173	 
34.5	 1.2419877809224975	 1.043960814970716	 
34.5	 1.0949750086457146	 1.1618926911003575	 
34.5	 0.9395487258882389	 1.2750843731245927	 
34.5	 0.7841224431307638	 1.3882760551488273	 
34.5	 0.6286961603732883	 1.5014677371730625	 
34.5	 0.45811025245952547	 1.5760854835701614	 
34.5	 0.26720582138848603	 1.5990023866926342	 
34.5	 0.07630139031744607	 1.6219192898151067	 
34.5	 -0.11460304075359398	 1.6448361929375797	 
34.5	 -0.3055074718246334	 1.6677530960600522	 
34.5	 -0.496732445862739	 1.681414759091405	 
34.5	 -0.6887649404958209	 1.6717603685732194	 
34.5	 -0.8807974351289023	 1.6621059780550342	 
34.5	 -1.072829929761984	 1.6524515875368488	 
34.5	 -1.2390912092546809	 1.6065945115357083	 
34.5	 -1.311078511726001	 1.4283039774791155	 
34.5	 -1.3830658141973213	 1.250013443422523	 
34.5	 -1.455053116668641	 1.0717229093659315	 
34.5	 -1.5270404191399614	 0.8934323753093389	 
34.5	 -1.5990277216112814	 0.7151418412527464	 
34.5	 -1.583541677061596	 0.5251220158631096	 
34.5	 -1.5610667306962132	 0.33416504940952496	 
34.5	 -1.5385917843308308	 0.14320808295594042	 
34.5	 -1.5161168379654486	 -0.04774888349764422	 
34.5	 -1.4936418916000662	 -0.23870584995122776	 
34.5	 -1.4362981752369097	 -0.41957636430008965	 
34.5	 -1.3533568956903066	 -0.593042298703518	 
34.5	 -1.270415616143703	 -0.7665082331069462	 
34.5	 -1.1874743365970997	 -0.9399741675103745	 
34.5	 -1.0018055637364394	 -0.9251656893974001	 
34.5	 -0.8110506801222155	 -0.9010356121367348	 
34.5	 -0.6202957965079905	 -0.8769055348760694	 
34.5	 -0.42896615522865	 -0.8582064785895113	 
34.5	 -0.23738600379763303	 -0.8418745519134956	 
34.5	 -0.04560375658181032	 -0.8302925555551643	 
34.5	 0.14667127105121947	 -0.8302925555551643	 
34.5	 0.33894629868424814	 -0.8302925555551642	 
34.5	 0.5307307648364437	 -0.8247448859584813	 
35.0	 0.5758966358299703	 -0.9441578382036764	 
35.0	 0.7485193775765608	 -0.8761570889642076	 
35.0	 0.9211421193231515	 -0.8081563397247392	 
35.0	 1.0937648610697421	 -0.7401555904852707	 
35.0	 1.2663876028163328	 -0.672154841245802	 
35.0	 1.2917709340786439	 -0.48969606667760524	 
35.0	 1.3150917545947336	 -0.30563397879502285	 
35.0	 1.3384125751108236	 -0.12157189091244022	 
35.0	 1.3454708929794572	 0.06268388754723546	 
35.0	 1.3265405193128752	 0.24724919798796463	 
35.0	 1.3076101456462932	 0.43181450842869407	 
35.0	 1.2886797719797112	 0.6163798188694233	 
35.0	 1.2697493983131292	 0.8009451293101525	 
35.0	 1.1468129657289639	 0.9373054467862336	 
35.0	 1.0182159060312737	 1.0710421623969737	 
35.0	 0.8896188463335838	 1.2047788780077133	 
35.0	 0.7610217866358936	 1.3385155936184534	 
35.0	 0.5845304174027577	 1.377876576353217	 
35.0	 0.40066621792951534	 1.402709397725402	 
35.0	 0.21680201845627264	 1.427542219097587	 
35.0	 0.03293781898302989	 1.4523750404697722	 
35.0	 -0.15092638049021237	 1.477207861841957	 
35.0	 -0.3347905799634551	 1.5020406832141422	 
35.0	 -0.5196328977997867	 1.512323616945711	 
35.0	 -0.7051664873873302	 1.512323616945711	 
35.0	 -0.8907000769748743	 1.5123236169457108	 
35.0	 -1.0579041869561279	 1.455125645496711	 
35.0	 -1.2088806906955423	 1.3472886936487387	 
35.0	 -1.3598571944349567	 1.2394517418007664	 
35.0	 -1.5108336981743704	 1.1316147899527946	 
35.0	 -1.5328507249737657	 0.9529616785561839	 
35.0	 -1.5428268580181062	 0.7676964912307696	 
35.0	 -1.5528029910624466	 0.5824313039053552	 
35.0	 -1.5627791241067868	 0.3971661165799409	 
35.0	 -1.572755257151127	 0.2119009292545266	 
35.0	 -1.5827313901954674	 0.026635741929112285	 
35.0	 -1.5379051106999588	 -0.14753313361461398	 
35.0	 -1.456644996079763	 -0.3143249398796458	 
35.0	 -1.375384881459567	 -0.48111674614467764	 
35.0	 -1.2941247668393712	 -0.6479085524097096	 
35.0	 -1.2128646522191753	 -0.8147003586747413	 
35.0	 -1.0624672209798356	 -0.8935541855077397	 
35.0	 -0.8812092619688896	 -0.9331555132686253	 
35.0	 -0.6999513029579424	 -0.9727568410295111	 
35.0	 -0.5186933439469953	 -1.0123581687903969	 
35.0	 -0.3381424395172333	 -0.9892534250423287	 
35.0	 -0.15782351690867746	 -0.9455750663903735	 
35.0	 0.02288572784399927	 -0.9051660690743211	 
35.0	 0.20841931743154243	 -0.9051660690743211	 
35.0	 0.3934819081933036	 -0.9102818879368602	 
35.5	 0.31976619070162116	 -0.8906889668545206	 
35.5	 0.5084408377891367	 -0.9248577112109013	 
35.5	 0.6971154848766523	 -0.9590264555672818	 
35.5	 0.8857901319641678	 -0.9931951999236623	 
35.5	 1.067323803825527	 -0.9651336336725218	 
35.5	 1.2433543308758728	 -0.8891146946450152	 
35.5	 1.4193848579262185	 -0.8130957556175089	 
35.5	 1.505775753038281	 -0.6820965486819751	 
35.5	 1.493745088934148	 -0.490730698369795	 
35.5	 1.4817144248300147	 -0.2993648480576149	 
35.5	 1.4696475484007185	 -0.1080051855731583	 
35.5	 1.4174512252600757	 0.07649730599562185	 
35.5	 1.3652549021194331	 0.26099979756440195	 
35.5	 1.3130585789787903	 0.4455022891331824	 
35.5	 1.2389780720559174	 0.6198257363795748	 
35.5	 1.1314986069573312	 0.7786142439190434	 
35.5	 1.0240191418587448	 0.9374027514585124	 
35.5	 0.9165396767601582	 1.0961912589979814	 
35.5	 0.7572423314315434	 1.187079261993346	 
35.5	 0.5757182962629446	 1.2488421165306764	 
35.5	 0.3937405373189585	 1.3091594276573342	 
35.5	 0.20948121909156994	 1.3622077941813657	 
35.5	 0.025221900864180843	 1.4152561607053977	 
35.5	 -0.16042990198599333	 1.4611396539236	 
35.5	 -0.35114563863740805	 1.480967244246135	 
