15.0	 0.6383569034230286	 1.3754596098899166	 
15.0	 0.4461728383290507	 1.3568451814556746	 
15.0	 0.2539887732350727	 1.3382307530214326	 
15.0	 0.061804708141095246	 1.3196163245871906	 
15.0	 -0.12522852129296866	 1.3600551920011108	 
15.0	 -0.3112877027703645	 1.4116613235160904	 
15.0	 -0.49872326704903963	 1.457618007529898	 
15.0	 -0.6876692906021264	 1.4973749189473637	 
15.0	 -0.8766153141552124	 1.5371318303648294	 
15.0	 -1.0316632471350233	 1.4947918191401977	 
15.0	 -1.1375175047130897	 1.3333108977452033	 
15.0	 -1.243371762291156	 1.1718299763502091	 
15.0	 -1.3492260198692223	 1.0103490549552148	 
15.0	 -1.4550802774472889	 0.8488681335602205	 
15.0	 -1.455609925536425	 0.6602265941736766	 
15.0	 -1.4410472465920883	 0.46769311603560393	 
15.0	 -1.4264845676477513	 0.2751596378975303	 
15.0	 -1.4119218887034146	 0.08262615975945661	 
15.0	 -1.3973592097590777	 -0.10990731837861706	 
15.0	 -1.3628067264950983	 -0.2980885369089301	 
15.0	 -1.2960073139306978	 -0.47924882588814055	 
15.0	 -1.2292079013662973	 -0.6604091148673499	 
15.0	 -1.1624084888018968	 -0.8415694038465603	 
15.0	 -1.0956090762374964	 -1.0227296928257705	 
15.0	 -0.9168598867466617	 -1.0587607936530905	 
15.0	 -0.7246758216526838	 -1.0773752220873325	 
15.0	 -0.5439897709876957	 -1.0265009447697007	 
15.0	 -0.3680448108595368	 -0.9469736989511757	 
15.0	 -0.1807454197732889	 -0.9201341497839628	 
15.5	 -0.2592909113920541	 -0.9985390272853227	 
15.5	 -0.10213148572114097	 -0.8945274990654141	 
15.5	 0.05502793994977215	 -0.7905159708455054	 
15.5	 0.21218736562068524	 -0.6865044426255966	 
15.5	 0.3693467912915984	 -0.582492914405688	 
15.5	 0.5465494107220622	 -0.5307822262584105	 
15.5	 0.7329696633221517	 -0.5031240900165928	 
15.5	 0.9193899159222413	 -0.4754659537747752	 
15.5	 1.1058101685223307	 -0.44780781753295756	 
15.5	 1.2925989306037025	 -0.42276790276879417	 
15.5	 1.4794111029206551	 -0.3978943152898344	 
15.5	 1.63245791854881	 -0.34629342796638324	 
15.5	 1.6137781017161645	 -0.1587606374390973	 
15.5	 1.5950982848835193	 0.028772153088188895	 
15.5	 1.576418468050874	 0.21630494361547506	 
15.5	 1.5577386512182287	 0.4038377341427607	 
15.5	 1.5390588343855833	 0.5913705246700469	 
15.5	 1.4467430569608792	 0.7516595790359559	 
15.5	 1.3388662615871325	 0.9061913883819372	 
15.5	 1.2309894662133853	 1.060723197727919	 
15.5	 1.1231126708396384	 1.2152550070739008	 
15.5	 1.0152358754658914	 1.369786816419882	 
15.5	 0.8727965850327016	 1.4746233529926964	 
15.5	 0.6903838742687834	 1.5219845821956133	 
15.5	 0.5079711635048657	 1.56934581139853	 
15.5	 0.3255584527409475	 1.616707040601447	 
15.5	 0.14314574197702923	 1.6640682698043638	 
15.5	 -0.03926696878688904	 1.711429499007281	 
15.5	 -0.22167967955080725	 1.758790728210198	 
15.5	 -0.4022453338634783	 1.7140333104237397	 
15.5	 -0.5826129287229541	 1.659398030572162	 
15.5	 -0.7629805235824298	 1.6047627507205842	 
15.5	 -0.9433481184419056	 1.5501274708690065	 
15.5	 -1.065925597560692	 1.4359696076451738	 
15.5	 -1.125863207836393	 1.2572940190655066	 
15.5	 -1.1858008181120943	 1.0786184304858397	 
15.5	 -1.245738428387795	 0.8999428419061739	 
15.5	 -1.305676038663496	 0.721267253326507	 
15.5	 -1.365613648939197	 0.5425916647468401	 
15.5	 -1.3834989840624474	 0.35999639205313033	 
15.5	 -1.3576156234914765	 0.17332144803169675	 
15.5	 -1.331732262920506	 -0.013353495989736813	 
15.5	 -1.3058489023495352	 -0.20002844001116937	 
15.5	 -1.2799655417785645	 -0.38670338403260296	 
15.5	 -1.1707809414978039	 -0.5360764208283737	 
15.5	 -1.0487579449726654	 -0.6797004835716276	 
15.5	 -0.9267349484475267	 -0.8233245463148814	 
15.5	 -0.8047119519223882	 -0.9669486090581352	 
15.5	 -0.6315392947748449	 -1.0126107634669794	 
15.5	 -0.44394383474321897	 -1.0306503437108498	 
16.0	 -0.2975586592507179	 -1.1108817176234045	 
16.0	 -0.13218280164060386	 -1.036377943790552	 
16.0	 0.03319305596951022	 -0.9618741699576995	 
16.0	 0.1985689135796242	 -0.8873703961248469	 
16.0	 0.36394477118973834	 -0.8128666222919945	 
16.0	 0.5293206287998523	 -0.7383628484591418	 
16.0	 0.6871407551087605	 -0.652750923153211	 
16.0	 0.8171882023310711	 -0.5263086514772485	 
16.0	 0.9476242308850428	 -0.4003317009711942	 
16.0	 1.0952277739462681	 -0.2949126293029684	 
16.0	 1.2428313170074938	 -0.1894935576347424	 
16.0	 1.3904348600687193	 -0.08407448596651663	 
16.0	 1.5380384031299446	 0.021344585701709176	 
16.0	 1.6746220519404496	 0.1307081970054723	 
16.0	 1.6274440321769983	 0.3058487721067805	 
16.0	 1.5802660124135472	 0.48098934720808817	 
16.0	 1.533087992650096	 0.6561299223093964	 
16.0	 1.485909972886645	 0.8312704974107046	 
16.0	 1.4129870029818508	 0.9912434491580258	 
16.0	 1.2826583989451037	 1.1173959028220368	 
16.0	 1.1523297949083569	 1.243548356486048	 
16.0	 1.0220011908716105	 1.3697008101500585	 
16.0	 0.871458065058233	 1.4527321785705682	 
16.0	 0.691123789202536	 1.4722138506553515	 
16.0	 0.5107895133468395	 1.491695522740135	 
16.0	 0.3304552374911426	 1.5111771948249184	 
16.0	 0.15012096163544564	 1.5306588669097017	 
16.0	 -0.026844006514767593	 1.5062427409694004	 
16.0	 -0.20209293731361994	 1.4594688289085456	 
16.0	 -0.37734186811247145	 1.4126949168476908	 
16.0	 -0.5525907989113239	 1.365921004786836	 
16.0	 -0.7278397297101763	 1.3191470927259812	 
16.0	 -0.9030886605090287	 1.2723731806651262	 
16.0	 -1.0099344852216334	 1.140948322488761	 
16.0	 -1.092459262917652	 0.9794254211346793	 
16.0	 -1.1749840406136707	 0.8179025197805977	 
16.0	 -1.257508818309689	 0.6563796184265169	 
16.0	 -1.2930602288237434	 0.4840805162576678	 
16.0	 -1.2891924518603215	 0.30273822417725194	 
16.0	 -1.2853246748968994	 0.12139593209683608	 
16.0	 -1.2814568979334775	 -0.05994635998357978	 
16.0	 -1.2775891209700556	 -0.24128865206399563	 
16.0	 -1.2594967156682648	 -0.42027991954798316	 
16.0	 -1.2048087970354655	 -0.5932227371242849	 
16.0	 -1.1501208784026664	 -0.7661655547005867	 
16.0	 -1.095432959769867	 -0.9391083722768884	 
16.0	 -1.0176428989150246	 -1.0846557202970137	 
16.0	 -0.8379499204404253	 -1.1093624012263685	 
16.0	 -0.658256941965827	 -1.1340690821557233	 
16.0	 -0.4780271513672379	 -1.1290781444376754	 
16.5	 0.007679728655217063	 -0.6552102944861705	 
16.5	 0.19128810802094312	 -0.7447970805001142	 
16.5	 0.37489648738666914	 -0.8343838665140579	 
16.5	 0.5585048667523952	 -0.9239706525280017	 
16.5	 0.7471069146512993	 -1.0021718553566228	 
16.5	 0.937378231148829	 -1.0765671194526218	 
16.5	 1.1276495476463586	 -1.1509623835486213	 
16.5	 1.3090624695810646	 -1.1018496338841284	 
16.5	 1.4158565095284306	 -0.9575823000336343	 
16.5	 1.4250833378425682	 -0.7534923815151591	 
16.5	 1.4343101661567057	 -0.5494024629966833	 
16.5	 1.4435369944708434	 -0.345312544478208	 
16.5	 1.4527638227849808	 -0.14122262595973262	 
16.5	 1.4619906510991183	 0.06286729255874303	 
16.5	 1.4264716193649047	 0.2620219007197886	 
16.5	 1.3729869018444916	 0.45919495717877323	 
16.5	 1.3195021843240782	 0.6563680136377583	 
16.5	 1.2660174668036648	 0.8535410700967435	 
16.5	 1.142961390376301	 1.0107939621806379	 
16.5	 0.9997214117063344	 1.1564652967397895	 
16.5	 0.8564814330363679	 1.3021366312989406	 
16.5	 0.7059432631040571	 1.4384454237255684	 
16.5	 0.5297175046571355	 1.5418006909422117	 
16.5	 0.35349174621021384	 1.6451559581588553	 
16.5	 0.17726598776329267	 1.7485112253754986	 
16.5	 0.0010402293163710094	 1.851866492592142	 
16.5	 -0.17337565219526624	 1.7788890290980888	 
16.5	 -0.347442833146252	 1.6719383595471538	 
16.5	 -0.5215100140972379	 1.5649876899962183	 
16.5	 -0.6979654711861707	 1.4624996897974636	 
16.5	 -0.8835110520116745	 1.3769972533541488	 
16.5	 -1.069056632837178	 1.291494816910834	 
16.5	 -1.2546022136626818	 1.2059923804675194	 
16.5	 -1.343922568361186	 1.0338645607817594	 
16.5	 -1.4095258403139086	 0.8403857766458402	 
16.5	 -1.4751291122666315	 0.6469069925099211	 
16.5	 -1.5407323842193534	 0.4534282083740028	 
16.5	 -1.6063356561720763	 0.2599494242380836	 
16.5	 -1.6221918533824817	 0.06382961753850142	 
16.5	 -1.5774427943105072	 -0.1355076617491159	 
16.5	 -1.5326937352385324	 -0.33484494103673323	 
16.5	 -1.487944676166558	 -0.5341822203243505	 
16.5	 -1.4431956170945834	 -0.7335194996119667	 
16.5	 -1.2800774925755296	 -0.7936512900763175	 
16.5	 -1.0761393047001095	 -0.8057774901285331	 
16.5	 -0.8757170283720277	 -0.807169544076104	 
16.5	 -0.7184722631654974	 -0.6767398196389207	 
16.5	 -0.5612274979589669	 -0.5463100952017375	 
16.5	 -0.364333340766097	 -0.5257860387851986	 
16.5	 -0.1663874522957693	 -0.5482596249352348	 
17.0	 -0.5309439490629283	 -0.8698528385079695	 
17.0	 -0.39036637891486375	 -0.7295157675966782	 
17.0	 -0.2497888087667992	 -0.5891786966853869	 
17.0	 -0.0683200546018452	 -0.5371227322927078	 
17.0	 0.12963286014692216	 -0.5206548774487387	 
17.0	 0.3247267729476013	 -0.5394988457063632	 
17.0	 0.517452076801601	 -0.587597743355668	 
17.0	 0.7101773806556008	 -0.6356966410049728	 
17.0	 0.900864559035418	 -0.6909672026617133	 
17.0	 1.0900810136370023	 -0.751412880825676	 
17.0	 1.2799009738324139	 -0.787245603266495	 
17.0	 1.4718524977717138	 -0.7361461007437196	 
17.0	 1.5287053351129614	 -0.5650226850405422	 
17.0	 1.5568439853454206	 -0.3683891094137175	 
17.0	 1.5626224560601083	 -0.1730254336297926	 
17.0	 1.512401759756625	 0.019157886050891415	 
17.0	 1.4621810634531418	 0.21134120573157594	 
17.0	 1.4119603671496588	 0.4035245254122604	 
17.0	 1.3604951645339118	 0.5950853713542092	 
17.0	 1.2368368399107046	 0.7505368604177638	 
17.0	 1.1131785152874973	 0.9059883494813183	 
17.0	 0.9895201906642903	 1.0614398385448724	 
17.0	 0.8646864413290998	 1.2158905378531308	 
17.0	 0.7309436981310051	 1.3627558684881835	 
17.0	 0.5972009549329107	 1.5096211991232358	 
17.0	 0.4416945924583607	 1.6258850910300682	 
17.0	 0.25907019221129096	 1.7040187914102043	 
17.0	 0.0764457919642213	 1.7821524917903404	 
17.0	 -0.10617860828284842	 1.8602861921704767	 
17.0	 -0.2888030085299171	 1.9384198925506126	 
17.0	 -0.47142740877698674	 2.016553592930749	 
17.0	 -0.616352320386277	 1.8863608526508342	 
17.0	 -0.7600129043115315	 1.7491814688974814	 
17.0	 -0.9004207365979765	 1.6092168054662725	 
17.0	 -1.0138531750443665	 1.4461535398029084	 
17.0	 -1.1272856134907565	 1.2830902741395442	 
17.0	 -1.240718051937146	 1.120027008476181	 
17.0	 -1.3392558833147474	 0.9511900903371161	 
17.0	 -1.3653626466841196	 0.7542764452866259	 
17.0	 -1.3914694100534917	 0.5573628002361356	 
17.0	 -1.4175761734228636	 0.3604491551856454	 
17.0	 -1.4436829367922357	 0.1635355101351552	 
17.0	 -1.4697897001616078	 -0.03337813491533395	 
17.0	 -1.4945794884666028	 -0.23010145303047227	 
17.0	 -1.4137900760031301	 -0.41156664951316363	 
17.0	 -1.3330006635396572	 -0.5930318459958549	 
17.0	 -1.2522112510761845	 -0.7744970424785462	 
17.0	 -1.1155005863275265	 -0.8698528385079696	 
17.0	 -0.9168638659037982	 -0.8698528385079696	 
17.0	 -0.7195633074409096	 -0.8536810196720237	 
17.5	 0.16773210131169414	 -0.6597011614423334	 
17.5	 0.3660107359597271	 -0.7421830813758006	 
17.5	 0.5642893706077601	 -0.824665001309268	 
17.5	 0.7625680052557929	 -0.9071469212427352	 
17.5	 0.9674769028483248	 -0.9651675064524224	 
17.5	 1.1802684006785684	 -0.9941064512320866	 
17.5	 1.3930598985088118	 -1.0230453960117507	 
17.5	 1.6058513963390557	 -1.051984340791415	 
17.5	 1.6481700557601549	 -0.9204278648154895	 
17.5	 1.6064656236174235	 -0.7097659925807367	 
17.5	 1.5647611914746922	 -0.4991041203459837	 
17.5	 1.5246926655148647	 -0.2881508865635522	 
17.5	 1.4911003010211852	 -0.07604422207249295	 
17.5	 1.4575079365275054	 0.13606244241856658	 
17.5	 1.4239155720338261	 0.34816910690962605	 
17.5	 1.3903232075401464	 0.560275771400685	 
17.5	 1.256337772371506	 0.7237400463691883	 
17.5	 1.1106953232066494	 0.8815562720085734	 
17.5	 0.9650528740417936	 1.0393724976479581	 
17.5	 0.819410424876937	 1.1971887232873433	 
17.5	 0.6790818981944562	 1.3595952147184411	 
17.5	 0.5441116843621285	 1.5266303171725502	 
17.5	 0.4091414705298005	 1.6936654196266594	 
17.5	 0.24169513852380797	 1.808557430603247	 
17.5	 0.03225743809959486	 1.8560288295168703	 
17.5	 -0.17718026232461878	 1.9035002284304938	 
17.5	 -0.3866179627488324	 1.950971627344117	 
17.5	 -0.5894890046393729	 1.9219707581214653	 
17.5	 -0.7877676392874062	 1.839488838187998	 
17.5	 -0.9860462739354383	 1.7570069182545311	 
17.5	 -1.1843249085834717	 1.674524998321064	 
17.5	 -1.382603543231505	 1.5920430783875965	 
17.5	 -1.532619086790774	 1.4736623242389189	 
17.5	 -1.55458831211521	 1.2600387365608647	 
17.5	 -1.5765575374396459	 1.0464151488828104	 
17.5	 -1.5985267627640818	 0.8327915612047563	 
17.5	 -1.6204959880885177	 0.6191679735267033	 
17.5	 -1.6424652134129538	 0.4055443858486491	 
17.5	 -1.6163758564772024	 0.19560151400804437	 
17.5	 -1.562131626965106	 -0.012185029440847234	 
17.5	 -1.5078873974530094	 -0.21997157288973884	 
17.5	 -1.4536431679409128	 -0.4277581163386304	 
17.5	 -1.3904337583608928	 -0.6270206954265646	 
17.5	 -1.1856467418475893	 -0.691673320596616	 
17.5	 -0.9808597253342862	 -0.7563259457666676	 
17.5	 -0.7757898440406277	 -0.7915961805720401	 
17.5	 -0.5714173944954026	 -0.728140390101131	 
17.5	 -0.4182084619515185	 -0.5776588063024393	 
17.5	 -0.2165985254586983	 -0.5245384193991702	 
17.5	 -0.008341731885744247	 -0.5530233001519766	 
18.0	 -0.35772882887117596	 -0.6921756209055797	 
18.0	 -0.1703802428052065	 -0.7241233102981086	 
18.0	 0.01696834326076288	 -0.7560709996906376	 
18.0	 0.20431692932673226	 -0.7880186890831664	 
18.0	 0.3916655153927017	 -0.8199663784756954	 
18.0	 0.5636609436681486	 -0.8939836572395574	 
18.0	 0.7275482067038548	 -0.9902183317238861	 
18.0	 0.8914354697395611	 -1.0864530062082147	 
18.0	 1.0602687049016075	 -1.1666151165682344	 
18.0	 1.2499065835971988	 -1.1791698974215805	 
18.0	 1.4395444622927904	 -1.1917246782749273	 
18.0	 1.4217988792008067	 -1.0068704094018852	 
18.0	 1.3999193470195046	 -0.8180810197901626	 
18.0	 1.3780398148382023	 -0.6292916301784397	 
18.0	 1.3612890643268407	 -0.4400254082479564	 
18.0	 1.3479902294519341	 -0.25043825533561037	 
18.0	 1.3346913945770278	 -0.0608511024232638	 
18.0	 1.3213925597021217	 0.1287360504890827	 
18.0	 1.3080937248272153	 0.3183232034014287	 
18.0	 1.2917921945514261	 0.5068776810455663	 
18.0	 1.1856663078088039	 0.6645401170331269	 
18.0	 1.079540421066182	 0.8222025530206871	 
18.0	 0.9734145343235598	 0.9798649890082477	 
18.0	 0.8672886475809376	 1.1375274249958083	 
18.0	 0.7611627608383156	 1.2951898609833683	 
18.0	 0.640335948005921	 1.435544295731005	 
18.0	 0.4675779056663088	 1.5147579710997456	 
18.0	 0.2948198633266965	 1.593971646468486	 
18.0	 0.12206182098708426	 1.6731853218372268	 
18.0	 -0.05655358118242276	 1.715585993774928	 
18.0	 -0.24536554632953547	 1.6939021432007104	 
18.0	 -0.43417751147664824	 1.6722182926264926	 
18.0	 -0.622989476623761	 1.650534442052275	 
18.0	 -0.8118014417708738	 1.628850591478057	 
18.0	 -1.0006134069179866	 1.6071667409038393	 
18.0	 -1.1894253720650994	 1.5854828903296216	 
18.0	 -1.2312265865754914	 1.4050944913577534	 
18.0	 -1.2672703223997135	 1.2184906418093766	 
18.0	 -1.303314058223935	 1.031886792261	 
18.0	 -1.3113775047324712	 0.8437747490042234	 
18.0	 -1.295600972319956	 0.6543776830726831	 
18.0	 -1.2798244399074403	 0.4649806171411428	 
18.0	 -1.264047907494925	 0.2755835512096035	 
18.0	 -1.2482713750824095	 0.08618648527806319	 
18.0	 -1.1893702463722242	 -0.09354217301885775	 
18.0	 -1.1227765394533535	 -0.27154617790988056	 
18.0	 -1.0561828325344829	 -0.4495501828009033	 
18.0	 -0.9019563018570151	 -0.5525185903365628	 
18.0	 -0.7341282867922454	 -0.639222449985576	 
18.0	 -0.5459285578317107	 -0.6656990354455778	 
18.5	 -0.4667560959403659	 -0.9062358593676766	 
18.5	 -0.2904552866390635	 -0.9590120943715592	 
18.5	 -0.11415447733776114	 -1.0117883293754422	 
18.5	 0.062146331963541204	 -1.064564564379325	 
18.5	 0.2384471412648436	 -1.1173407993832076	 
18.5	 0.4161008245096206	 -1.0724220989323747	 
18.5	 0.5937954343265819	 -1.0245479724810531	 
18.5	 0.7714900441435434	 -0.9766738460297317	 
18.5	 0.9491846539605046	 -0.9287997195784101	 
18.5	 1.126879263777466	 -0.8809255931270885	 
18.5	 1.2790704879529091	 -0.7856498889076632	 
18.5	 1.4169342925325106	 -0.6637446891485198	 
18.5	 1.5547980971121118	 -0.5418394893893764	 
18.5	 1.575586431174308	 -0.36717660841896743	 
18.5	 1.575586431174308	 -0.18314588722959832	 
18.5	 1.575586431174308	 0.000884833959770237	 
18.5	 1.5755864311743077	 0.18491555514913935	 
18.5	 1.5755864311743077	 0.36894627633850846	 
18.5	 1.575586431174308	 0.5529769975278771	 
18.5	 1.5205477286974522	 0.7225705350289172	 
18.5	 1.4302169843316848	 0.8829066287938758	 
18.5	 1.3398862399659177	 1.043242722558834	 
18.5	 1.2495554956001502	 1.2035788163237928	 
18.5	 1.1592247512343825	 1.3639149100887513	 
18.5	 1.0653565696972904	 1.5192176224782752	 
18.5	 0.8839003008237883	 1.5498921856860328	 
18.5	 0.7024440319502867	 1.5805667488937907	 
18.5	 0.5209877630767848	 1.6112413121015485	 
18.5	 0.3395314942032831	 1.6419158753093066	 
18.5	 0.15807522532978235	 1.672590438517064	 
18.5	 -0.02112218655036857	 1.6631051411476714	 
18.5	 -0.19799413633530621	 1.612275821648451	 
18.5	 -0.37486608612024386	 1.5614465021492303	 
18.5	 -0.5517380359051816	 1.51061718265001	 
18.5	 -0.7286099856901193	 1.45978786315079	 
18.5	 -0.8658933906556141	 1.3579771287769589	 
18.5	 -0.9589437909638872	 1.1992039278142366	 
18.5	 -1.0519941912721609	 1.0404307268515134	 
18.5	 -1.1450445915804346	 0.8816575258887903	 
18.5	 -1.238094991888708	 0.7228843249260671	 
18.5	 -1.2897852481144054	 0.5546793642677952	 
18.5	 -1.2747678309915838	 0.37126239797394733	 
18.5	 -1.2597504138687623	 0.18784543168010037	 
18.5	 -1.2447329967459406	 0.004428465386252439	 
18.5	 -1.1947814958879917	 -0.16780675630377076	 
18.5	 -1.1005027380297632	 -0.32585365490728274	 
18.5	 -1.006223980171535	 -0.4839005535107948	 
18.5	 -0.9119452223133065	 -0.6419474521143068	 
18.5	 -0.7612601286196015	 -0.7249014680932102	 
18.5	 -0.5832055466277062	 -0.7714189075452121	 
19.0	 -0.6982909762049645	 -0.8382508655077097	 
19.0	 -0.5155870320323093	 -0.744683467950886	 
19.0	 -0.333913899727646	 -0.6493267669419397	 
19.0	 -0.16132082944255938	 -0.5382087162419362	 
19.0	 0.013949943444359413	 -0.46306251392138925	 
19.0	 0.20109266431700806	 -0.5474022502630651	 
19.0	 0.3866771734885197	 -0.6344575664760977	 
19.0	 0.5539252260193579	 -0.7534688181561112	 
19.0	 0.7274539885057253	 -0.8612280791357942	 
19.0	 0.9165393921498108	 -0.9411173727273304	 
19.0	 1.1056247957938965	 -1.0210066663188666	 
19.0	 1.3038585086922083	 -1.036377236158664	 
19.0	 1.485461038985	 -0.9860908548875443	 
19.0	 1.5417753217271541	 -0.7886971096445955	 
19.0	 1.5980896044693085	 -0.5913033644016465	 
19.0	 1.6122072900829405	 -0.3891050731578047	 
19.0	 1.6017100648172153	 -0.18410410398077337	 
19.0	 1.5912128395514897	 0.02089686519625797	 
19.0	 1.5807156142857643	 0.2258978343732887	 
19.0	 1.548882807246113	 0.41768639455181755	 
19.0	 1.370038989354467	 0.5184359747183938	 
19.0	 1.1911951714628217	 0.6191855548849696	 
19.0	 1.012351353571176	 0.7199351350515459	 
19.0	 0.8673155181361624	 0.8646800060612909	 
19.0	 0.7239172552195643	 1.0115558968477076	 
19.0	 0.595469374147809	 1.1706571231305034	 
19.0	 0.4799900229257137	 1.3403630704132237	 
19.0	 0.3645106717036184	 1.5100690176959441	 
19.0	 0.21718294130451343	 1.6368475290506441	 
19.0	 0.021283256852746096	 1.698157420043037	 
19.0	 -0.1746164275990223	 1.75946731103543	 
19.0	 -0.3750052836281462	 1.7839320838564012	 
19.0	 -0.5798952206760917	 1.7714539911219134	 
19.0	 -0.7847851577240372	 1.7589758983874255	 
19.0	 -0.9592235985756296	 1.6692902286336757	 
19.0	 -1.1174674905363433	 1.5385444456847508	 
19.0	 -1.275711382497056	 1.4077986627358265	 
19.0	 -1.3374322373492789	 1.22780503759353	 
19.0	 -1.350419755597337	 1.022946761042257	 
19.0	 -1.3634072738453948	 0.8180884844909837	 
19.0	 -1.376394792093453	 0.6132302079397104	 
19.0	 -1.389382310341511	 0.4083719313884372	 
19.0	 -1.3844838969367304	 0.2033440585771609	 
19.0	 -1.3753833395079318	 -0.0017236593998201377	 
19.0	 -1.3662827820791335	 -0.2067913773768012	 
19.0	 -1.3571822246503347	 -0.41185909535378223	 
19.0	 -1.3480816672215363	 -0.6169268133307633	 
19.0	 -1.2319507129112797	 -0.7525654063854972	 
19.0	 -1.048163106980337	 -0.8325400942915899	 
19.0	 -0.8610203861076888	 -0.7482003579499145	 
19.5	 0.11707353960895253	 -0.37097691436440317	 
19.5	 0.23785820719396406	 -0.5528602457268365	 
19.5	 0.35864287477897555	 -0.7347435770892699	 
19.5	 0.47942754236398716	 -0.9166269084517031	 
19.5	 0.6190124223174117	 -1.0833745509182682	 
19.5	 0.7709180700759701	 -1.2402029805162564	 
19.5	 0.9228237178345285	 -1.397031410114245	 
19.5	 1.1135755836858963	 -1.4723722441465585	 
19.5	 1.3310597387104248	 -1.4916368350943363	 
19.5	 1.4338004929351527	 -1.348048428955408	 
19.5	 1.4888446060588516	 -1.136765141018231	 
19.5	 1.535244686862862	 -0.9246362096450521	 
19.5	 1.522191884363327	 -0.7066910181449263	 
19.5	 1.509139081863792	 -0.48874582664480015	 
19.5	 1.4960862793642569	 -0.27080063514467406	 
19.5	 1.483033476864722	 -0.05285544364454854	 
19.5	 1.4393816068771998	 0.15513517981755012	 
19.5	 1.3217025198061616	 0.33904307692163205	 
19.5	 1.2040234327351238	 0.5229509740257134	 
19.5	 1.0863443456640856	 0.7068588711297953	 
19.5	 0.925219331111081	 0.8408908778621937	 
19.5	 0.726909547922825	 0.9322347996246474	 
19.5	 0.5493513763321346	 1.0547042112584553	 
19.5	 0.3887693725048177	 1.2026362976965301	 
19.5	 0.22530487614804107	 1.3465639823797575	 
19.5	 0.03405480518199075	 1.4518915310391625	 
19.5	 -0.1571952657840595	 1.5572190796985672	 
19.5	 -0.3484453367501098	 1.6625466283579717	 
19.5	 -0.5478084917566048	 1.7363249393962776	 
19.5	 -0.7661442015045019	 1.7363249393962779	 
19.5	 -0.9724455450320473	 1.7001637557432219	 
19.5	 -1.1472403069330295	 1.569330757753046	 
19.5	 -1.322035068834012	 1.4384977597628699	 
19.5	 -1.496829830734994	 1.3076647617726938	 
19.5	 -1.5638647376941837	 1.118793655606801	 
19.5	 -1.5769175401937188	 0.900848464106675	 
19.5	 -1.5899703426932539	 0.6829032726065501	 
19.5	 -1.6030231451927888	 0.4649580811064241	 
19.5	 -1.6160759476923239	 0.24701288960629808	 
19.5	 -1.5699046429766486	 0.03530220049523297	 
19.5	 -1.5117548485810715	 -0.17514751692646052	 
19.5	 -1.4536050541854943	 -0.385597234348154	 
19.5	 -1.3912794630536283	 -0.5930074588149765	 
19.5	 -1.208888366942521	 -0.7130240002186815	 
19.5	 -1.0289765221831968	 -0.7774753589898902	 
19.5	 -0.8579989117455618	 -0.6416919326074525	 
19.5	 -0.6870213013079266	 -0.5059085062250148	 
19.5	 -0.506169940091262	 -0.3846574055593607	 
19.5	 -0.31219041273879006	 -0.30898106733356695	 
19.5	 -0.10000098922996076	 -0.3604216223666278	 
20.0	 0.39456009736776415	 -1.1871184196986848	 
20.0	 0.5943390389013046	 -1.2802389344732463	 
20.0	 0.794117980434845	 -1.373359449247808	 
20.0	 0.9938969219683853	 -1.4664799640223696	 
20.0	 1.178521107683058	 -1.391885523153024	 
20.0	 1.3583716128069045	 -1.2644616181789636	 
20.0	 1.4738081878864224	 -1.100717015741488	 
20.0	 1.4897657474905521	 -0.8808797758488307	 
20.0	 1.4967923308507292	 -0.661096227474062	 
20.0	 1.4781927716425312	 -0.44146673913198664	 
20.0	 1.4595932124343332	 -0.22183725078991104	 
20.0	 1.424129023354387	 -0.004935239774012057	 
20.0	 1.3725508346648325	 0.20936069160044443	 
20.0	 1.3209726459752782	 0.4236566229749013	 
20.0	 1.1952015584873699	 0.5834400120410926	 
20.0	 1.0061110491564262	 0.6967000448554321	 
20.0	 0.85081436584475	 0.8444092120327346	 
20.0	 0.7339440405414743	 1.0312898766710212	 
20.0	 0.6193934698675602	 1.2194818375410699	 
20.0	 0.519546732902834	 1.4159854885749321	 
20.0	 0.34726994488072804	 1.5420074353282924	 
20.0	 0.15356128468010088	 1.6471740208743624	 
20.0	 -0.04515333946039031	 1.7195580034305946	 
20.0	 -0.2614205066306291	 1.6769954828719946	 
20.0	 -0.4776876738008672	 1.634432962313395	 
20.0	 -0.6689813904087494	 1.5284625146643136	 
20.0	 -0.857951689560979	 1.4154120721436736	 
20.0	 -1.0586393771642475	 1.3242665412790493	 
20.0	 -1.2593270647675165	 1.2331210104144248	 
20.0	 -1.4091709654208255	 1.073332255794172	 
20.0	 -1.5548522078870295	 0.907923576016948	 
20.0	 -1.7005334503532334	 0.7425148962397238	 
20.0	 -1.7139137540207248	 0.528471263396912	 
20.0	 -1.7100523875999463	 0.3080894456316852	 
20.0	 -1.7061910211791682	 0.08770762786645842	 
20.0	 -1.7023296547583895	 -0.13267418989876834	 
20.0	 -1.6561868684719279	 -0.3433028725233148	 
20.0	 -1.5631228817033547	 -0.5431081530313138	 
20.0	 -1.4125968671739377	 -0.6666207830034596	 
20.0	 -1.194863367502107	 -0.7009016650340942	 
20.0	 -0.9764342712381597	 -0.729964834003478	 
20.0	 -0.761761635987269	 -0.737469715613085	 
20.0	 -0.5844145308888933	 -0.6065840400585529	 
20.0	 -0.42601780529847844	 -0.455236564857847	 
20.0	 -0.2819343227243908	 -0.28843426930570615	 
20.0	 -0.1092308917463456	 -0.2724602421717849	 
20.0	 0.07637583923641522	 -0.38799646126718834	 
20.0	 0.22033856597394608	 -0.5511827864042458	 
20.0	 0.2988297779006223	 -0.7571492530982741	 
20.0	 0.34890671113513144	 -0.9714825597921396	 
20.5	 0.20546432829340913	 -0.785782482763533	 
20.5	 0.3421513076655278	 -0.951016980032375	 
20.5	 0.4788382870376464	 -1.116251477301217	 
20.5	 0.6155252664097651	 -1.281485974570059	 
20.5	 0.7522122457818837	 -1.4467204718389013	 
20.5	 0.9624813369349099	 -1.4146978288524878	 
20.5	 1.173990880567997	 -1.3793498109493014	 
20.5	 1.3586506774820104	 -1.301606177723936	 
20.5	 1.481018986861538	 -1.1255045982955927	 
20.5	 1.5545440986468932	 -0.9307785176302108	 
20.5	 1.5804942084629527	 -0.7179115140385421	 
20.5	 1.6064443182790125	 -0.5050445104468739	 
20.5	 1.5905984935271271	 -0.29306897754267386	 
20.5	 1.5555955795674843	 -0.08150204857716915	 
20.5	 1.5205926656078417	 0.13006488038833555	 
20.5	 1.438122481405281	 0.322498081410324	 
20.5	 1.316618163718641	 0.4991968935202672	 
20.5	 1.1951138460320008	 0.6758957056302104	 
20.5	 1.0438020491305313	 0.8253905120114966	 
20.5	 0.8789127491406343	 0.9624937146232619	 
20.5	 0.7140234491507371	 1.099596917235027	 
20.5	 0.5817433442108433	 1.2658216117881058	 
20.5	 0.46408542490204824	 1.445104582093392	 
20.5	 0.3422049772052725	 1.618322427822788	 
20.5	 0.1332302821743493	 1.6664404728193745	 
20.5	 -0.07574441285657452	 1.7145585178159608	 
20.5	 -0.2856998617219789	 1.7272194884863117	 
20.5	 -0.4970149165386884	 1.6907267902389642	 
20.5	 -0.6858751340243422	 1.5977936337768366	 
20.5	 -0.864505120800461	 1.479146690108135	 
20.5	 -1.0420589066337147	 1.3593340832575915	 
20.5	 -1.174562473141596	 1.190726330528802	 
20.5	 -1.3070660396494778	 1.0221185778000126	 
20.5	 -1.4006488715790402	 0.8363621942434941	 
20.5	 -1.435651785538683	 0.6247952652779895	 
20.5	 -1.4706546994983254	 0.41322833631248496	 
20.5	 -1.4888876287683535	 0.2014220417179784	 
20.5	 -1.4599373263567745	 -0.011057720630907292	 
20.5	 -1.4309870239451954	 -0.22353748297979292	 
20.5	 -1.3795212522198042	 -0.431250713849163	 
20.5	 -1.3198828473336603	 -0.6372337958733851	 
20.5	 -1.2602444424475168	 -0.8432168778976071	 
20.5	 -1.0506776376113542	 -0.86394907325601	 
20.5	 -0.8367877129734752	 -0.8793396403658804	 
20.5	 -0.7206571692473867	 -0.7101372372685906	 
20.5	 -0.6131976639476366	 -0.5245618505970437	 
20.5	 -0.4643697564182621	 -0.3714585918325507	 
20.5	 -0.2651513184660224	 -0.38000681081226206	 
20.5	 -0.0751048219195412	 -0.46451118586955165	 
20.5	 0.07740403619821384	 -0.6137757067166157	 
21.0	 0.2256162279356502	 -0.8592987373688454	 
21.0	 0.4029007156298012	 -0.9746486291372467	 
21.0	 0.5801852033239522	 -1.089998520905648	 
21.0	 0.7574696910181031	 -1.2053484126740495	 
21.0	 0.944123510421407	 -1.286522058597047	 
21.0	 1.155447199551264	 -1.2777081196077567	 
21.0	 1.3667708886811214	 -1.268894180618466	 
21.0	 1.5780945778109785	 -1.2600802416291754	 
21.0	 1.6661022222982529	 -1.1454264408137589	 
21.0	 1.6427681331821713	 -0.9352101060700426	 
21.0	 1.6039854754733538	 -0.7276227934456219	 
21.0	 1.556471033520775	 -0.5215214472251409	 
21.0	 1.5089565915681964	 -0.31542010100466017	 
21.0	 1.461442149615618	 -0.10931875478417907	 
21.0	 1.4176735645450753	 0.09757046194974106	 
21.0	 1.3781360338807729	 0.3053496013668842	 
21.0	 1.3385985032164707	 0.5131287407840279	 
21.0	 1.2784671682319857	 0.7033651350853253	 
21.0	 1.0796169726408784	 0.7754344546418311	 
21.0	 0.8807667770497705	 0.8475037741983371	 
21.0	 0.6819165814586625	 0.919573093754843	 
21.0	 0.5733198391423852	 1.0963810820418536	 
21.0	 0.47266007963146905	 1.2823998980878764	 
21.0	 0.3645575710244888	 1.4598802892185063	 
21.0	 0.16654137445740505	 1.5342104513672954	 
21.0	 -0.03147482210967929	 1.608540613516085	 
21.0	 -0.2344331016342782	 1.6425811613991668	 
21.0	 -0.4391411466234334	 1.610604415509143	 
21.0	 -0.5336546910370479	 1.421388726333178	 
21.0	 -0.6819189437735963	 1.2801408236065985	 
21.0	 -0.8592034314677477	 1.1647909318381973	 
21.0	 -1.036487919161899	 1.0494410400697958	 
21.0	 -1.21377240685605	 0.9340911483013943	 
21.0	 -1.3145233831424288	 0.7504418192609608	 
21.0	 -1.409036927556043	 0.5612261300849961	 
21.0	 -1.4895283419739567	 0.3691687085091586	 
21.0	 -1.4761395908886983	 0.15808548214492124	 
21.0	 -1.46275083980344	 -0.052997744219317355	 
21.0	 -1.4493620887181817	 -0.26408097058355595	 
21.0	 -1.378202082400662	 -0.46159142955286014	 
21.0	 -1.2961946550127812	 -0.6565533975393909	 
21.0	 -1.2141872276249	 -0.8515153655259214	 
21.0	 -1.0573055073561004	 -0.9631774904142638	 
21.0	 -0.884346043913737	 -0.9103097533335626	 
21.0	 -0.7371817295742071	 -0.7583951335863652	 
21.0	 -0.5904308996935814	 -0.6060875373834533	 
21.0	 -0.4417032663742251	 -0.4663106055009007	 
21.0	 -0.2360473211972174	 -0.5157172783428472	 
21.0	 -0.0303913760202109	 -0.5651239511847935	 
21.0	 0.13110268352203608	 -0.6700830481928811	 
21.5	 -0.20014885524914672	 -0.967531193130993	 
21.5	 -0.0607515640948561	 -1.112263896212198	 
21.5	 0.07864572705943448	 -1.2569965992934031	 
21.5	 0.21804301821372502	 -1.401729302374608	 
21.5	 0.36133551732331887	 -1.5339703363272903	 
21.5	 0.5582901893821923	 -1.4941204018665173	 
21.5	 0.7552448614410656	 -1.4542704674057443	 
21.5	 0.9521995334999391	 -1.4144205329449713	 
21.5	 1.1491542055588126	 -1.3745705984841985	 
21.5	 1.3461088776176857	 -1.3347206640234255	 
21.5	 1.505410801514713	 -1.245406108086295	 
21.5	 1.5962664027775486	 -1.0661732432385924	 
21.5	 1.6871220040403838	 -0.8869403783908895	 
21.5	 1.6760968292843905	 -0.6924117511930841	 
21.5	 1.641878296504803	 -0.494401013765139	 
21.5	 1.6076597637252157	 -0.2963902763371944	 
21.5	 1.5734412309456283	 -0.09837953890924929	 
21.5	 1.4948154355920407	 0.08239049897838108	 
21.5	 1.3864574677821107	 0.2516173022172543	 
21.5	 1.2780994999721802	 0.42084410545612794	 
21.5	 1.16974153216225	 0.5900709086950017	 
21.5	 1.038775285791864	 0.7353797608620626	 
21.5	 0.8637209183815135	 0.8340465160175271	 
21.5	 0.6886665509711631	 0.9327132711729915	 
21.5	 0.5136121835608132	 1.0313800263284556	 
21.5	 0.3306699393983388	 1.1142534039216052	 
21.5	 0.14663180058113331	 1.1949325436235465	 
21.5	 -0.03705741490487489	 1.276336387444983	 
21.5	 -0.21489669401066636	 1.3698903875170205	 
21.5	 -0.3927359731164569	 1.4634443875890573	 
21.5	 -0.5705752522222483	 1.5569983876610947	 
21.5	 -0.7484145313280398	 1.650552387733132	 
21.5	 -0.9289303921070796	 1.715123163835526	 
21.5	 -1.1208951349737186	 1.6557203219970125	 
21.5	 -1.3128598778403575	 1.5963174801584992	 
21.5	 -1.3862414262996205	 1.4471374876573049	 
21.5	 -1.3913328970580416	 1.2462563361077827	 
21.5	 -1.396424367816463	 1.0453751845582593	 
21.5	 -1.401515838574884	 0.844494033008736	 
21.5	 -1.4066073093333054	 0.6436128814592128	 
21.5	 -1.4116987800917264	 0.4427317299096894	 
21.5	 -1.3177123339822892	 0.2660861430540533	 
21.5	 -1.2204685117080787	 0.09023734677768512	 
21.5	 -1.0738761170277324	 -0.03388909739154249	 
21.5	 -0.8936559396090564	 -0.1227701852197605	 
21.5	 -0.713400312710673	 -0.2115782846020805	 
21.5	 -0.5321185755878932	 -0.29827368187375675	 
21.5	 -0.36770654894718086	 -0.40568640347657137	 
21.5	 -0.25518653655771506	 -0.5694263148318669	 
21.5	 -0.2276676959034309	 -0.76847875398143	 
22.0	 -1.165585212761714	 0.6658698191253807	 
22.0	 -1.0892877656098368	 0.8797269815726799	 
22.0	 -1.0129903184579598	 1.0935841440199794	 
22.0	 -0.9366928713060829	 1.3074413064672787	 
22.0	 -0.7906935978319717	 1.4511989411589195	 
22.0	 -0.5764058042211999	 1.5262784182570672	 
22.0	 -0.3619931789902893	 1.6009160473000834	 
22.0	 -0.14009771130714896	 1.6490677637137745	 
22.0	 0.08179775637599107	 1.6972194801274656	 
22.0	 0.30369322405913113	 1.7453711965411567	 
22.0	 0.5226139331473856	 1.6937159089282114	 
22.0	 0.741247724811493	 1.632434170094529	 
22.0	 0.9092019173247499	 1.5065932220559601	 
22.0	 1.0206435260658098	 1.3087626020470529	 
22.0	 1.1320851348068701	 1.1109319820381458	 
22.0	 1.2435267435479298	 0.9131013620292393	 
22.0	 1.3341440907159892	 0.7050774942769024	 
22.0	 1.4220205256066363	 0.4957119800134163	 
22.0	 1.5098969604972836	 0.286346465749931	 
22.0	 1.5574801723725826	 0.06503526950006441	 
22.0	 1.597914289688128	 -0.15839540997081056	 
22.0	 1.6383484070036731	 -0.38182608944168484	 
22.0	 1.6786134596708826	 -0.6052607981854997	 
22.0	 1.6488691319515187	 -0.8303640219305789	 
22.0	 1.619124804232155	 -1.0554672456756575	 
22.0	 1.5870586831783848	 -1.2790603921619625	 
22.0	 1.393350500988428	 -1.3975227343833048	 
22.0	 1.199642318798471	 -1.515985076604647	 
22.0	 0.9895760433961591	 -1.576344877929473	 
22.0	 0.7625161694159606	 -1.5763448779294733	 
22.0	 0.5354562954357607	 -1.576344877929473	 
22.0	 0.45653770898465706	 -1.4282035904003774	 
22.0	 0.45653770898465706	 -1.201143716420178	 
22.0	 0.45653770898465706	 -0.9740838424399787	 
22.0	 0.4483043479581754	 -0.7471987350287889	 
22.0	 0.43866925402215207	 -0.5203433816937872	 
22.0	 0.32726358329402133	 -0.3543243474063587	 
22.0	 0.1320091113152529	 -0.2384283701500436	 
22.0	 -0.07332233839670418	 -0.24405392089291936	 
22.0	 -0.2560337221374886	 -0.3570557318713801	 
22.0	 -0.3513445079631173	 -0.5631431901923696	 
22.0	 -0.5190713579848192	 -0.6911276136060944	 
22.0	 -0.7317631431048544	 -0.7706159203836079	 
22.0	 -0.9550354630707074	 -0.7915697339602744	 
22.0	 -1.0930575696243703	 -0.6699256442524834	 
22.0	 -1.1616956756430508	 -0.4534885938796965	 
22.0	 -1.2303337816617315	 -0.2370515435069095	 
22.0	 -1.2322477985869074	 -0.010287893670368156	 
22.0	 -1.2234139978876384	 0.2165095770736396	 
22.0	 -1.209730744523182	 0.44314272513499725	 
22.5	 -0.5501536357300294	 1.3263790260172186	 
22.5	 -0.3777185341245471	 1.2420412045445106	 
22.5	 -0.2052834325190649	 1.1577033830718024	 
22.5	 -0.03284833091358261	 1.0733655615990945	 
22.5	 0.1396233312105658	 0.9891042369758567	 
22.5	 0.31355637524305285	 0.9079006127337806	 
22.5	 0.4957928408414268	 0.858262875618053	 
22.5	 0.6871693896899566	 0.8433716383530792	 
22.5	 0.8785459385384862	 0.8284804010881056	 
22.5	 1.0270098717870675	 0.7279374515452016	 
22.5	 1.1535150697334946	 0.583565822445192	 
22.5	 1.2800202676799215	 0.43919419334518256	 
22.5	 1.4065254656263482	 0.2948225642451731	 
22.5	 1.4722338962563883	 0.12298556757280113	 
22.5	 1.4969450718409867	 -0.06737222763843417	 
22.5	 1.521656247425585	 -0.2577300228496689	 
22.5	 1.5463674230101836	 -0.44808781806090414	 
22.5	 1.5516673973350015	 -0.6394009936841973	 
22.5	 1.5457684302324928	 -0.8312653587538443	 
22.5	 1.539869463129984	 -1.0231297238234918	 
22.5	 1.5339704960274754	 -1.2149940888931392	 
22.5	 1.4407324771266405	 -1.3361085934855734	 
22.5	 1.254272072088627	 -1.3817073845826553	 
22.5	 1.0678116670506128	 -1.4273061756797367	 
22.5	 0.8813512620125997	 -1.4729049667768184	 
22.5	 0.7087756949012247	 -1.408614729089873	 
22.5	 0.5395175026156398	 -1.3180697306599685	 
22.5	 0.38411367551767	 -1.2080345616895336	 
22.5	 0.24297209181673957	 -1.0779354235415481	 
22.5	 0.0922125575386181	 -0.9639806832781613	 
22.5	 -0.08939368843778214	 -0.9018042905007202	 
22.5	 -0.27099993441418235	 -0.839627897723279	 
22.5	 -0.4575386465454178	 -0.8228961725313857	 
22.5	 -0.6482557342068065	 -0.8446613941110905	 
22.5	 -0.8389728218681952	 -0.8664266156907954	 
22.5	 -1.0296899095295837	 -0.8881918372705001	 
22.5	 -1.203847059008171	 -0.8292802672522905	 
22.5	 -1.3705690641582362	 -0.7341461230389896	 
22.5	 -1.446579032494948	 -0.5923029683457535	 
22.5	 -1.4271774505178425	 -0.4013309520364493	 
22.5	 -1.407775868540737	 -0.2103589357271451	 
22.5	 -1.3883742865636315	 -0.01938691941784093	 
22.5	 -1.3689727045865263	 0.17158509689146217	 
22.5	 -1.329155849607708	 0.35787046269784717	 
22.5	 -1.263323054553776	 0.5381834558287985	 
22.5	 -1.197490259499844	 0.7184964489597498	 
22.5	 -1.131657464445912	 0.8988094420907011	 
22.5	 -1.0434904085537207	 1.0686248099634161	 
22.5	 -0.9089775448466563	 1.1898787262663224	 
22.5	 -0.7295655902883429	 1.2581288761417706	 
23.0	 -1.3944568200286125	 -0.7486131197568913	 
23.0	 -1.1877587240911327	 -0.7951598804483799	 
23.0	 -0.9810606281536529	 -0.8417066411398685	 
23.0	 -0.7743625322161732	 -0.8882534018313569	 
23.0	 -0.5954763995107991	 -0.7994529029583063	 
23.0	 -0.42388096573377615	 -0.6751721284920774	 
23.0	 -0.2522855319567533	 -0.5508913540258487	 
23.0	 -0.08069009817973018	 -0.4266105795596196	 
23.0	 0.09090533559729269	 -0.3023298050933908	 
23.0	 0.2865972578831657	 -0.2953148869632723	 
23.0	 0.4807369278551128	 -0.3549264062393393	 
23.0	 0.5354131694697706	 -0.5596242625982807	 
23.0	 0.5900894110844284	 -0.7643221189572222	 
23.0	 0.6447656526990863	 -0.9690199753161639	 
23.0	 0.7052398233738654	 -1.1720249544269834	 
23.0	 0.7692988895668009	 -1.3739832170297777	 
23.0	 0.9471281121317667	 -1.420498579040085	 
23.0	 1.1590023762486017	 -1.420498579040085	 
23.0	 1.3288127301814312	 -1.3590771403664983	 
23.0	 1.4053976304642535	 -1.161528521429993	 
23.0	 1.4819825307470753	 -0.9639799024934874	 
23.0	 1.5585674310298967	 -0.7664312835569825	 
23.0	 1.5190337607719657	 -0.5615271691269808	 
23.0	 1.4679882979880705	 -0.3558938437046933	 
23.0	 1.4169428352041753	 -0.15026051828240655	 
23.0	 1.36589737242028	 0.05537280713988078	 
23.0	 1.274097692895299	 0.24449083592317689	 
23.0	 1.167589068463625	 0.4276481909945007	 
23.0	 1.051603905255715	 0.6040115150127898	 
23.0	 0.9123306363165025	 0.7636788578040932	 
23.0	 0.773057367377289	 0.9233462005953972	 
23.0	 0.6337840984380756	 1.0830135433867014	 
23.0	 0.5022644748860069	 1.2488816811896213	 
23.0	 0.37712068110870484	 1.4198487384669645	 
23.0	 0.2519768873314027	 1.5908157957443079	 
23.0	 0.06521220984940748	 1.6403129576944642	 
23.0	 -0.14666205426742662	 1.640312957694464	 
23.0	 -0.35853631838426175	 1.6403129576944642	 
23.0	 -0.5583666312799891	 1.6170883864911458	 
23.0	 -0.680433437723174	 1.4439110249226885	 
23.0	 -0.7948206698792744	 1.2664677643615625	 
23.0	 -0.8766478382781194	 1.071061801227557	 
23.0	 -0.9441027262276329	 0.8702122508502446	 
23.0	 -1.0115576141771467	 0.6693627004729311	 
23.0	 -1.0790125021266606	 0.46851315009561767	 
23.0	 -1.1534894530377182	 0.27017805018839364	 
23.0	 -1.2288595288337505	 0.07216275918906054	 
23.0	 -1.304229604629783	 -0.12585253181027256	 
23.0	 -1.3720866175653499	 -0.3254554786561379	 
23.0	 -1.3832717187969812	 -0.5370342992065146	 
23.5	 -0.9926651927902944	 -0.8204194327035905	 
23.5	 -0.8219713541765336	 -0.7041947933390564	 
23.5	 -0.651277515562773	 -0.5879701539745223	 
23.5	 -0.4830644319939569	 -0.4684056924446097	 
23.5	 -0.322483622607581	 -0.3385659566433805	 
23.5	 -0.14768761632655425	 -0.2852932529949669	 
23.5	 0.0487969739941678	 -0.3488413379591464	 
23.5	 0.24528156431489015	 -0.41238942292332603	 
23.5	 0.3728857759146611	 -0.5688593658925812	 
23.5	 0.4908167784674185	 -0.7383787806302983	 
23.5	 0.6566353482707555	 -0.8612421006854424	 
23.5	 0.8274038594619677	 -0.9768483510204118	 
23.5	 1.0062278426701186	 -1.0801272761004472	 
23.5	 1.1919609690540929	 -1.112987828949193	 
23.5	 1.3874481338164835	 -1.04643467914185	 
23.5	 1.581239827111945	 -0.9785823513004916	 
23.5	 1.5946534496431009	 -0.7725128774167834	 
23.5	 1.6080670721742563	 -0.5664434035330752	 
23.5	 1.621480694705412	 -0.36037392964936743	 
23.5	 1.6090308591928655	 -0.15779589521832094	 
23.5	 1.5414564085256597	 0.037340587667740205	 
23.5	 1.4738819578584537	 0.2324770705538008	 
23.5	 1.4063075071912476	 0.4276135534398619	 
23.5	 1.3387330565240416	 0.622750036325923	 
23.5	 1.2624088483918567	 0.8135891022084141	 
23.5	 1.1492886885267142	 0.9863559473153423	 
23.5	 1.0361685286615714	 1.1591227924222702	 
23.5	 0.9230483687964287	 1.3318896375291982	 
23.5	 0.7914573492114461	 1.4836554926561538	 
23.5	 0.6056618341236634	 1.573791944269149	 
23.5	 0.41986631903587956	 1.663928395882144	 
23.5	 0.23407080394809582	 1.7540648474951395	 
23.5	 0.043768928562756125	 1.8303592950430811	 
23.5	 -0.15948172141206182	 1.8668795171252455	 
23.5	 -0.36273237138687975	 1.9033997392074096	 
23.5	 -0.5659830213616976	 1.9399199612895737	 
23.5	 -0.6923076513461685	 1.7807073849967077	 
23.5	 -0.8163051452455858	 1.6155735760938041	 
23.5	 -0.9403026391450032	 1.4504397671909006	 
23.5	 -1.0213112343020962	 1.2648951971764704	 
23.5	 -1.0708964973734578	 1.0644310980907221	 
23.5	 -1.1204817604448194	 0.8639669990049741	 
23.5	 -1.1700670235161805	 0.6635028999192271	 
23.5	 -1.2196522865875419	 0.4630388008334789	 
23.5	 -1.2501003662047845	 0.25943970196302235	 
23.5	 -1.2670693308601693	 0.05363249223838518	 
23.5	 -1.2840382955155545	 -0.152174717486252	 
23.5	 -1.275457430016887	 -0.3577208478477716	 
23.5	 -1.2542863912560995	 -0.563138326300569	 
23.5	 -1.1784607078780778	 -0.7302829810905955	 
24.0	 -0.2756361061509268	 -0.8868166952665563	 
24.0	 -0.09431088881533956	 -0.8301573317374253	 
24.0	 0.0870143285202477	 -0.7734979682082948	 
24.0	 0.2683395458558349	 -0.7168386046791638	 
24.0	 0.4423415595597876	 -0.7681506846697683	 
24.0	 0.6143554324816262	 -0.8487754044506999	 
24.0	 0.7950791981506797	 -0.8992609213269946	 
24.0	 0.9835838206230562	 -0.9228220168845241	 
24.0	 1.1718182483902986	 -0.8980128182612372	 
24.0	 1.3600478927803679	 -0.8723472987825259	 
24.0	 1.521962716229107	 -0.8228856522855917	 
24.0	 1.5286248383515404	 -0.6330311447116341	 
24.0	 1.5352869604739734	 -0.4431766371376764	 
24.0	 1.5419490825964062	 -0.25332212956371847	 
24.0	 1.5284731644673821	 -0.06490523963912481	 
24.0	 1.494909316615405	 0.12207760993455494	 
24.0	 1.4613454687634277	 0.30906045950823524	 
24.0	 1.4277816209114507	 0.4960433090819156	 
24.0	 1.3942177730594736	 0.6830261586555954	 
24.0	 1.332601050430587	 0.8594807627690291	 
24.0	 1.2348555454933383	 1.022376232877582	 
24.0	 1.13711004055609	 1.1852717029861348	 
24.0	 1.0393645356188417	 1.3481671730946878	 
24.0	 0.9416190306815932	 1.511062643203241	 
24.0	 0.7630201102812826	 1.5709793468619913	 
24.0	 0.5815839357029987	 1.6272823882693848	 
24.0	 0.40014776112471495	 1.6835854296767785	 
24.0	 0.21798206792739075	 1.7350761429128283	 
24.0	 0.02801070714549747	 1.7350761429128283	 
24.0	 -0.16196065363639472	 1.7350761429128283	 
24.0	 -0.351932014418288	 1.7350761429128283	 
24.0	 -0.511266677579247	 1.645979222347937	 
24.0	 -0.6610643003070507	 1.5291469060034304	 
24.0	 -0.8108619230348543	 1.4123145896589238	 
24.0	 -0.9606595457626579	 1.295482273314417	 
24.0	 -1.0576842855532558	 1.1378046175555419	 
24.0	 -1.1332236616395126	 0.9634976452973362	 
24.0	 -1.2087630377257697	 0.7891906730391296	 
24.0	 -1.2843024138120267	 0.6148837007809229	 
24.0	 -1.3196257102769766	 0.43223723290167326	 
24.0	 -1.3196257102769766	 0.24226587211978015	 
24.0	 -1.3196257102769768	 0.052294511337887054	 
24.0	 -1.3002803579596238	 -0.13616866200479924	 
24.0	 -1.270838502712151	 -0.32384469957196216	 
24.0	 -1.241396647464678	 -0.5115207371391252	 
24.0	 -1.170185614776696	 -0.6755107651512893	 
24.0	 -1.0242405412003124	 -0.7971214284013023	 
24.0	 -0.8403747254625906	 -0.8139863386504622	 
24.0	 -0.6517608437894522	 -0.8330891101203125	 
24.0	 -0.4636984749701895	 -0.8599529026934345	 
24.5	 0.5998037352830142	 -0.6402564800075607	 
24.5	 0.800836615559714	 -0.627348738556614	 
24.5	 1.0018694958364136	 -0.6144409971056671	 
24.5	 1.1862435483923088	 -0.569071136008016	 
24.5	 1.3139503877450784	 -0.413277067044412	 
24.5	 1.4416572270978485	 -0.25748299808080816	 
24.5	 1.4799505207526547	 -0.06972528475889546	 
24.5	 1.4799505207526549	 0.1317215537412666	 
24.5	 1.4799505207526547	 0.33316839224142836	 
24.5	 1.461696285359015	 0.5320143489408622	 
24.5	 1.4054337656591078	 0.7254448471016434	 
24.5	 1.349171245959201	 0.9188753452624243	 
24.5	 1.2929087262592942	 1.1123058434232052	 
24.5	 1.236646206559387	 1.3057363415839864	 
24.5	 1.1803836868594801	 1.4991668397447675	 
24.5	 1.048868239757166	 1.626839762753513	 
24.5	 0.8647270013117243	 1.7085271733226415	 
24.5	 0.6805857628662828	 1.7902145838917702	 
24.5	 0.49500244473507704	 1.865094963500286	 
24.5	 0.2935556062349149	 1.865094963500286	 
24.5	 0.09210876773475268	 1.8650949635002858	 
24.5	 -0.10933807076540891	 1.865094963500286	 
24.5	 -0.3107849092655711	 1.865094963500286	 
24.5	 -0.49545952249143643	 1.7976793319598239	 
24.5	 -0.6734225396675773	 1.7032865713302359	 
24.5	 -0.8513855568437186	 1.6088938107006476	 
24.5	 -1.0293485740198598	 1.5145010500710592	 
24.5	 -1.1322548165585873	 1.3441105456073044	 
24.5	 -1.2288573481878347	 1.1673373020874473	 
24.5	 -1.3254598798170811	 0.990564058567591	 
24.5	 -1.4220624114463283	 0.8137908150477337	 
24.5	 -1.516219863476313	 0.6359951637252682	 
24.5	 -1.5742047211945447	 0.443073975109018	 
24.5	 -1.6321895789127767	 0.25015278649276795	 
24.5	 -1.6901744366310085	 0.057231597876517826	 
24.5	 -1.7481592943492406	 -0.13568959073973227	 
24.5	 -1.8061441520674724	 -0.3286107793559814	 
24.5	 -1.7548857598644834	 -0.4854390869989328	 
24.5	 -1.593381343047164	 -0.6058432069043915	 
24.5	 -1.4318769262298447	 -0.7262473268098502	 
24.5	 -1.2617939132812739	 -0.812288996536927	 
24.5	 -1.0626492020217893	 -0.7819210410725431	 
24.5	 -0.8635044907623057	 -0.7515530856081595	 
24.5	 -0.6880154589706484	 -0.6562836644514952	 
24.5	 -0.5103648184903755	 -0.6468731568820008	 
24.5	 -0.3271771228806243	 -0.7306770763541792	 
24.5	 -0.14398942727087316	 -0.8144809958263577	 
24.5	 0.045750574822154395	 -0.8427277271008308	 
24.5	 0.24616443547529546	 -0.8223534001226647	 
24.5	 0.43490237018141703	 -0.7550337866424708	 
25.0	 -0.12400595880658838	 -0.4673522468596261	 
25.0	 0.06409900448074847	 -0.5553415233308789	 
25.0	 0.25220396776808535	 -0.6433307998021317	 
25.0	 0.44020345804639543	 -0.7314683847568154	 
25.0	 0.5850590856281265	 -0.8802717353412957	 
25.0	 0.7299147132098573	 -1.0290750859257758	 
25.0	 0.9139994252041957	 -1.098329210475602	 
25.0	 1.1202357035757202	 -1.1226641127915769	 
25.0	 1.3264719819472444	 -1.1469990151075518	 
25.0	 1.5288814977304606	 -1.1654734830775786	 
25.0	 1.5895378307333425	 -0.9668623070226837	 
25.0	 1.6272015693428172	 -0.7632260767208336	 
25.0	 1.6549312982212965	 -0.5574187587664156	 
25.0	 1.6826610270997762	 -0.3516114408119973	 
25.0	 1.7040945891139152	 -0.1464012420499744	 
25.0	 1.6381702911378202	 0.05052406593156397	 
25.0	 1.572245993161725	 0.2474493739131029	 
25.0	 1.5063216951856297	 0.44437468189464185	 
25.0	 1.4403973972095345	 0.6412999898761802	 
25.0	 1.3744730992334395	 0.8382252978577193	 
25.0	 1.2904722832895155	 1.0249444603976556	 
