ply
format ascii 1.0
element vertex 863
property double x
property double y
property double z
end_header
-0.255552725630469 0.000000000000000 -0.132218004517137
-0.244562193002097 0.000000000000000 -0.127458814492427
-0.233996237185125 0.000000000000000 -0.122186392807550
-0.223897403554438 0.000000000000000 -0.116421969643763
-0.214306356548748 0.000000000000000 -0.110188756298630
-0.205261715929245 0.000000000000000 -0.103511851722317
-0.196799901271456 0.000000000000000 -0.096418141452981
-0.188954985316461 0.000000000000000 -0.088936189358196
-0.181758556771999 0.000000000000000 -0.081096122618340
-0.175239593115882 0.000000000000000 -0.072929510415070
-0.169424343913927 0.000000000000000 -0.064469236813376
-0.164336225122214 0.000000000000000 -0.055749368349049
-0.159995724799296 0.000000000000000 -0.046805016854773
-0.156420320608022 0.000000000000000 -0.037672198077162
-0.153624409439154 0.000000000000000 -0.028387686654061
-0.151619249440169 0.000000000000000 -0.018988868036062
-0.150412914682675 0.000000000000000 -0.009513587948485
-0.144996126263827 0.025603478068260 0.003016570134316
-0.145697640974024 0.025603478068260 0.012857682774138
-0.147018307870522 0.025603478068260 0.022637929867777
-0.149152392574919 0.025603478068260 0.032313672054152
-0.152081284046690 0.025603478068260 0.041851147473823
-0.155817257216999 0.025603478068260 0.051255529645611
-0.160373468718547 0.025603478068260 0.060525176093893
-0.165703841712234 0.025603478068260 0.069581276481001
-0.171774909758855 0.025603478068260 0.078367837075093
-0.178578433947657 0.025603478068260 0.086867047657974
-0.186072512973665 0.025603478068260 0.095031249189962
-0.194211692843990 0.025603478068260 0.102815124950084
-0.202963550770041 0.025603478068260 0.110189312255753
-0.212348849760744 0.025603478068260 0.117151999011580
-0.222384632431006 0.025603478068260 0.123695575426598
-0.232980022569467 0.025603478068260 0.129758912325166
-0.244043225312250 0.025603478068260 0.135291079312944
-0.255530688105024 0.025603478068260 0.140272909029671
-0.267415413915179 0.025603478068260 0.144691099334167
-0.279669220716735 0.025603478068260 0.148532796846306
-0.292227114651019 0.025603478068260 0.151778407232613
-0.305066538427759 0.025603478068260 0.154416099363862
-0.318180047707318 0.025603478068260 0.156437778286472
-0.331474003198845 0.025603478068260 0.157827395175231
-0.344855693919676 0.025603478068260 0.158574926970214
-0.358273767219225 0.025603478068260 0.158678976093676
-0.371676737298424 0.025603478068260 0.158140283142429
-0.385013156997025 0.025603478068260 0.156961771083246
-0.398231795146887 0.025603478068260 0.155148564912086
-0.411281819052607 0.025603478068260 0.152707985919321
-0.424072618157248 0.025603478068260 0.149659537587940
-0.436513444443803 0.025603478068260 0.146028271520065
-0.448597897990250 0.025603478068260 0.141822812295222
-0.460305078249110 0.025603478068260 0.137056676910334
-0.471573015255166 0.025603478068260 0.131755341102758
-0.482375424788250 0.025603478068260 0.125934659499996
-0.492687401571322 0.025603478068260 0.119610987913305
-0.502468568660471 0.025603478068260 0.112807623916036
-0.511638271404989 0.025603478068260 0.105576095660986
-0.520118146004391 0.025603478068260 0.097974779884047
-0.527921183010918 0.025603478068260 0.090010989284797
-0.535062785826548 0.025603478068260 0.081687273401551
-0.541513553186866 0.025603478068260 0.073031054022272
-0.547244330207319 0.025603478068260 0.064066508044993
-0.552187795103127 0.025603478068260 0.054874398647672
-0.556278262269400 0.025603478068260 0.045554259358601
-0.559540007793217 0.025603478068260 0.036097517058704
-0.561997683545412 0.025603478068260 0.026484463120746
-0.563629993118297 0.025603478068260 0.016754888247158
-0.564429382558182 0.025603478068260 0.006985998913819
-0.564404492677294 0.025603478068260 -0.002739483009401
-0.563570804969904 0.025603478068260 -0.012408537985549
-0.561939265471794 0.025603478068260 -0.022013665038650
-0.559499884501096 0.025603478068260 -0.031542495261315
-0.556242162595468 0.025603478068260 -0.040976705258798
-0.552188675829426 0.025603478068260 -0.050236666628983
-0.547372875293794 0.025603478068260 -0.059253905908156
-0.541822780851259 0.025603478068260 -0.067999672723583
-0.535509561679576 0.025603478068260 -0.076491973997357
-0.528405902119738 0.025603478068260 -0.084731649519034
-0.520591104824421 0.025603478068260 -0.092628582526781
-0.512145739532381 0.025603478068260 -0.100114595912238
-0.503104788057838 0.025603478068260 -0.107172301249440
-0.493442405720642 0.025603478068260 -0.113802764589408
-0.483136713358394 0.025603478068260 -0.119999442077616
-0.472285466285253 0.025603478068260 -0.125711168054763
-0.460986149633311 0.025603478068260 -0.130894743691027
-0.449229864361703 0.025603478068260 -0.135542940739035
-0.437010871361160 0.025603478068260 -0.139645920771591
-0.424426843754540 0.025603478068260 -0.143173063896864
-0.411575440246017 0.025603478068260 -0.146099782046314
-0.398506170335918 0.025603478068260 -0.148415486409231
-0.385269437967965 0.025603478068260 -0.150111612303861
-0.371916328284328 0.025603478068260 -0.151181781999942
-0.358498397022336 0.025603478068260 -0.151621902799487
-0.345067461851078 0.025603478068260 -0.151430222806958
-0.331675393801874 0.025603478068260 -0.150607355847388
-0.318373908430756 0.025603478068260 -0.149156279748632
-0.305214357488803 0.025603478068260 -0.147082308580488
-0.292247521434583 0.025603478068260 -0.144393036166787
-0.279523401228579 0.025603478068260 -0.141098242149475
-0.267091008078543 0.025603478068260 -0.137209743861446
-0.255053424513539 0.025603478068260 -0.132757139197625
-0.243514317018691 0.025603478068260 -0.127776990435882
-0.232460948102525 0.025603478068260 -0.122277731685682
-0.221876670114558 0.025603478068260 -0.116264774659804
-0.211802298395587 0.025603478068260 -0.109759188794431
-0.202320738162362 0.025603478068260 -0.102806662432293
-0.193513152966494 0.025603478068260 -0.095459431475590
-0.185366474242921 0.025603478068260 -0.087725664925569
-0.177865141351736 0.025603478068260 -0.079607954401267
-0.171040226128899 0.025603478068260 -0.071127053958372
-0.164925522392030 0.025603478068260 -0.062296738206606
-0.159621340304332 0.025603478068260 -0.053234893439256
-0.155235214064138 0.025603478068260 -0.044122513859891
-0.151695458654652 0.025603478068260 -0.034932012956093
-0.148911294425029 0.025603478068260 -0.025586069843870
-0.146894296706509 0.025603478068260 -0.016121100888260
-0.145653078626033 0.025603478068260 -0.006573913551679
-0.141232867329773 0.051111844172356 0.006728350948766
-0.142042662405078 0.051111844172356 0.016858781088788
-0.143487784625020 0.051111844172356 0.026903795059702
-0.145759682844507 0.051111844172356 0.036813948004592
-0.148829026438783 0.051111844172356 0.046560044504062
-0.152733360270346 0.051111844172356 0.056193715273044
-0.157515386771588 0.051111844172356 0.065751812281150
-0.163098499553229 0.051111844172356 0.075108902007230
-0.169435223560018 0.051111844172356 0.084186280965555
-0.176533538188937 0.051111844172356 0.092984147028563
-0.184334668254181 0.051111844172356 0.101438899061573
-0.192775464547598 0.051111844172356 0.109490474432186
-0.201822647826303 0.051111844172356 0.117110689905248
-0.211555494398905 0.051111844172356 0.124327185751878
-0.222048400382861 0.051111844172356 0.131153653833348
-0.233154638760858 0.051111844172356 0.137489741161825
-0.244727484401951 0.051111844172356 0.143254351641546
-0.256722407564879 0.051111844172356 0.148430895582053
-0.269131030897997 0.051111844172356 0.153012679935151
-0.281944163376924 0.051111844172356 0.156991556751530
-0.295077737105087 0.051111844172356 0.160342986625265
-0.308537042419887 0.051111844172356 0.163055869066255
-0.322359948483497 0.051111844172356 0.165124265975904
-0.336405976506942 0.051111844172356 0.166523526254313
-0.350537018001461 0.051111844172356 0.167239033696950
-0.364701476090001 0.051111844172356 0.167271365648712
-0.378847654930936 0.051111844172356 0.166622877208323
-0.392923893263858 0.051111844172356 0.165297791216022
-0.406878709393682 0.051111844172356 0.163302246866730
-0.420660957434032 0.051111844172356 0.160644305155803
-0.434136025290734 0.051111844172356 0.157355418502712
-0.447168276614661 0.051111844172356 0.153476029883292
-0.459796128124044 0.051111844172356 0.149008686078591
-0.472026393309452 0.051111844172356 0.143963886815629
-0.483779126577910 0.051111844172356 0.138375157772034
-0.495046551428753 0.051111844172356 0.132253211392437
-0.505821807423150 0.051111844172356 0.125607567845225
-0.516063863672106 0.051111844172356 0.118460279986515
-0.525645794501326 0.051111844172356 0.110891002736512
-0.534443155125840 0.051111844172356 0.102991786171083
-0.542518021218788 0.051111844172356 0.094745128774042
-0.549934504075209 0.051111844172356 0.086121994672411
-0.556661272714105 0.051111844172356 0.077144340334810
-0.562664541772310 0.051111844172356 0.067826105805484
-0.567828619074268 0.051111844172356 0.058299254187430
-0.572038943099155 0.051111844172356 0.048733657821593
-0.575362930253454 0.051111844172356 0.039071016518992
-0.577864923411318 0.051111844172356 0.029229253175554
-0.579511888087265 0.051111844172356 0.019250283652202
-0.580295477659547 0.051111844172356 0.009253287236821
-0.580236888138554 0.051111844172356 -0.000631600567597
-0.579367359637328 0.051111844172356 -0.010419196328074
-0.577705483378006 0.051111844172356 -0.020135415238610
-0.575224264244659 0.051111844172356 -0.029795754657971
-0.571892231789343 0.051111844172356 -0.039403057506715
-0.567742105561287 0.051111844172356 -0.048832273619905
-0.562825548509913 0.051111844172356 -0.057980612562632
-0.557179778814089 0.051111844172356 -0.066826808467346
-0.550722381544428 0.051111844172356 -0.075445590621794
-0.543370588864451 0.051111844172356 -0.083875023358737
-0.535258211451533 0.051111844172356 -0.091962597215441
-0.526519467763314 0.051111844172356 -0.099599817103820
-0.517191699941330 0.051111844172356 -0.106782497235678
-0.507183812766177 0.051111844172356 -0.113542798251761
-0.496410070027155 0.051111844172356 -0.119895170769458
-0.485030588698960 0.051111844172356 -0.125759750769830
-0.473203172892681 0.051111844172356 -0.131071240291833
-0.460862288191225 0.051111844172356 -0.135836467557885
-0.447946961691712 0.051111844172356 -0.140054504359711
-0.434610232006995 0.051111844172356 -0.143679463499812
-0.421003923605216 0.051111844172356 -0.146675587801793
-0.407178079111669 0.051111844172356 -0.149033473284467
-0.393183640999629 0.051111844172356 -0.150745335462067
-0.379072231450248 0.051111844172356 -0.151805311683162
-0.364895939088908 0.051111844172356 -0.152209637990094
-0.350707110819380 0.051111844172356 -0.151956747641000
-0.336558144450511 0.051111844172356 -0.151047315365649
-0.322501280835132 0.051111844172356 -0.149484256178286
-0.308588396593081 0.051111844172356 -0.147272679984400
-0.294870797581952 0.051111844172356 -0.144419796347556
-0.281399009398202 0.051111844172356 -0.140934751044953
-0.268222561779087 0.051111844172356 -0.136828359189821
-0.255505150774786 0.051111844172356 -0.132146463217358
-0.243412853426809 0.051111844172356 -0.126947008116660
-0.231870980160925 0.051111844172356 -0.121226176678397
-0.220798918884858 0.051111844172356 -0.114971581037522
-0.210237581309261 0.051111844172356 -0.108201608387867
-0.200317678710758 0.051111844172356 -0.100984438117687
-0.191168495583458 0.051111844172356 -0.093400069866248
-0.182726290527209 0.051111844172356 -0.085433936586736
-0.174925054948513 0.051111844172356 -0.077058114463567
-0.167798181996302 0.051111844172356 -0.068281448366642
-0.161387590464364 0.051111844172356 -0.059096923466610
-0.155875312422239 0.051111844172356 -0.049715172554914
-0.151458170060896 0.051111844172356 -0.040475365176136
-0.147970144593993 0.051111844172356 -0.031278957780693
-0.145212249307979 0.051111844172356 -0.021924688871100
-0.143196346048030 0.051111844172356 -0.012447723747474
-0.141931558756419 0.051111844172356 -0.002883544212485
-0.138314809508643 0.076530362971784 0.011031101768412
-0.139239988926121 0.076530362971784 0.021412760794868
-0.140815790401862 0.076530362971784 0.031682817482397
-0.143230467382085 0.076530362971784 0.041785804646731
-0.146443846811728 0.076530362971784 0.051697523603934
-0.150520590235228 0.076530362971784 0.061519547958120
-0.155535029010621 0.076530362971784 0.071330239412932
-0.161378005302375 0.076530362971784 0.080954035272081
-0.167986951578545 0.076530362971784 0.090287831439673
-0.175387146712812 0.076530362971784 0.099351428742877
-0.183501684395881 0.076530362971784 0.108064239241036
-0.192248479596079 0.076530362971784 0.116350582055888
-0.201593393595582 0.076530362971784 0.124183866443713
-0.211677949612118 0.076530362971784 0.131623550205573
-0.222637851260771 0.076530362971784 0.138706372271491
-0.234266868318693 0.076530362971784 0.145289899170869
-0.246359480027107 0.076530362971784 0.151260702704527
-0.258870226879464 0.076530362971784 0.156605280081782
-0.271810740556480 0.076530362971784 0.161324198749797
-0.285192230558563 0.076530362971784 0.165414462412681
-0.298910336788766 0.076530362971784 0.168846509104925
-0.313000336936747 0.076530362971784 0.171609873998235
-0.327548965299711 0.076530362971784 0.173700624021218
-0.342365654409203 0.076530362971784 0.175085292036169
-0.357263593150514 0.076530362971784 0.175744818059921
-0.372191121456824 0.076530362971784 0.175682080385798
-0.387096526341612 0.076530362971784 0.174901303326523
-0.401928132900386 0.076530362971784 0.173408197262609
-0.416634412717435 0.076530362971784 0.171210038293451
-0.431164109607518 0.076530362971784 0.168315684714505
-0.445335552347769 0.076530362971784 0.164770137917132
-0.458965292487271 0.076530362971784 0.160631045578935
-0.472140066293861 0.076530362971784 0.155893680003757
-0.484896540798164 0.076530362971784 0.150564796916841
-0.497135755649467 0.076530362971784 0.144686649132444
-0.508869803894492 0.076530362971784 0.138263947975487
-0.520111183005595 0.076530362971784 0.131298359834465
-0.530818263053604 0.076530362971784 0.123810293983327
-0.540814704929202 0.076530362971784 0.115910134538511
-0.549927027282600 0.076530362971784 0.107726591361026
-0.558269591896907 0.076530362971784 0.099214517294742
-0.565958154367617 0.076530362971784 0.090310017194189
-0.572959260453645 0.076530362971784 0.081028959820548
-0.579234111242445 0.076530362971784 0.071374200043382
-0.584615652729183 0.076530362971784 0.061533900866173
-0.588938400200155 0.076530362971784 0.051754472737079
-0.592315766636530 0.076530362971784 0.041923307442524
-0.594853874799673 0.076530362971784 0.031890689922549
-0.596507887517111 0.076530362971784 0.021700659001415
-0.597269040778622 0.076530362971784 0.011516812445801
-0.597171796849521 0.076530362971784 0.001519178261721
-0.596263303012408 0.076530362971784 -0.008337271955185
-0.594569618882185 0.076530362971784 -0.018114265582921
-0.592046189069976 0.076530362971784 -0.027857090350851
-0.588639770668013 0.076530362971784 -0.037591384054095
-0.584393641975761 0.076530362971784 -0.047144192043432
-0.579378369041888 0.076530362971784 -0.056376454568651
-0.573640485615012 0.076530362971784 -0.065274964983450
-0.567041174048005 0.076530362971784 -0.073974603180552
-0.559438884939917 0.076530362971784 -0.082553053491106
-0.551024793335539 0.076530362971784 -0.090791498095610
-0.541990200049961 0.076530362971784 -0.098538548776490
-0.532375029717742 0.076530362971784 -0.105804375355083
-0.522018762992291 0.076530362971784 -0.112654030353452
-0.510767321228464 0.076530362971784 -0.119124083393059
-0.498847502147936 0.076530362971784 -0.125104734138125
-0.486481945900716 0.076530362971784 -0.130507860854229
-0.473544104576379 0.076530362971784 -0.135355109983369
-0.459913249247250 0.076530362971784 -0.139654837442564
-0.445802005176688 0.076530362971784 -0.143345655498950
-0.431420656569378 0.076530362971784 -0.146380672526081
-0.416819575762767 0.076530362971784 -0.148752061826883
-0.402050017054653 0.076530362971784 -0.150453123342774
-0.387163896196953 0.076530362971784 -0.151478739069674
-0.372213579754525 0.076530362971784 -0.151825636574468
-0.357251681997072 0.076530362971784 -0.151492534641957
-0.342330862819893 0.076530362971784 -0.150480208821346
-0.327503624805915 0.076530362971784 -0.148791490665985
-0.312822111184972 0.076530362971784 -0.146431202614009
-0.298337905054026 0.076530362971784 -0.143406019711433
-0.284101824287157 0.076530362971784 -0.139724229309060
-0.270163707687276 0.076530362971784 -0.135395333424830
-0.256752550092641 0.076530362971784 -0.130482934901109
-0.244101363260145 0.076530362971784 -0.125068217997977
-0.232068525355434 0.076530362971784 -0.119133444406299
-0.220504700820883 0.076530362971784 -0.112646343900282
-0.209450852582841 0.076530362971784 -0.105622055596936
-0.199089025903482 0.076530362971784 -0.098153113260417
-0.189600002001972 0.076530362971784 -0.090349624013278
-0.180865880264534 0.076530362971784 -0.082171930624339
-0.172766977045061 0.076530362971784 -0.073558661653389
-0.165339300288035 0.076530362971784 -0.064505723361338
-0.158633582123246 0.076530362971784 -0.054983780456285
-0.152918251531498 0.076530362971784 -0.045304966704159
-0.148481086671942 0.076530362971784 -0.035977972609479
-0.145056770888202 0.076530362971784 -0.026826008583356
-0.142335650503880 0.076530362971784 -0.017514777813117
-0.140329858851565 0.076530362971784 -0.008077936203783
-0.139049016789306 0.076530362971784 0.001450621048852
-0.136039189519372 0.101864299126041 0.015836799372816
-0.137084373731901 0.101864299126041 0.026431806419384
-0.138794555428030 0.101864299126041 0.036887694463607
-0.141354446023647 0.101864299126041 0.047142834968571
-0.144712955012072 0.101864299126041 0.057178395624542
-0.148963773480569 0.101864299126041 0.067148963041862
-0.154214996921732 0.101864299126041 0.077177078741289
-0.160322828883227 0.101864299126041 0.087033872556151
-0.167208481729555 0.101864299126041 0.096590291999444
-0.174915633969170 0.101864299126041 0.105887184736471
-0.183347963468459 0.101864299126041 0.114826057207665
-0.192403194818618 0.101864299126041 0.123314865353377
-0.202046341336045 0.101864299126041 0.131329024315469
-0.212484930801863 0.101864299126041 0.138961857113187
-0.223919964778458 0.101864299126041 0.146274633091427
-0.236082029879335 0.101864299126041 0.153080310620638
-0.248702903328892 0.101864299126041 0.159231235266773
-0.261736256043213 0.101864299126041 0.164717497979791
-0.275215135686091 0.101864299126041 0.169547491270027
-0.289172576213538 0.101864299126041 0.173723734103883
-0.303482706710074 0.101864299126041 0.177211643997491
-0.318212950657493 0.101864299126041 0.180001189376615
-0.333502496215789 0.101864299126041 0.182090118622881
-0.349107418908790 0.101864299126041 0.183436114666117
-0.364788871930315 0.101864299126041 0.184015988222622
-0.380495324714401 0.101864299126041 0.183835239462060
-0.396175251040960 0.101864299126041 0.182900209595546
-0.411777173156674 0.101864299126041 0.181218275481315
-0.427249729364464 0.101864299126041 0.178797962536829
-0.442541764948604 0.101864299126041 0.175648972146845
-0.457421486944572 0.101864299126041 0.171831561301228
-0.471654722789947 0.101864299126041 0.167422475144971
-0.485380052500586 0.101864299126041 0.162408363508516
-0.498666144533098 0.101864299126041 0.156791413033434
-0.511393994542502 0.101864299126041 0.150623280268075
-0.523596922825556 0.101864299126041 0.143901761070777
-0.535308092255245 0.101864299126041 0.136619605286699
-0.546485327541624 0.101864299126041 0.128795161290399
-0.556899738555014 0.101864299126041 0.120572124619192
-0.566325865208371 0.101864299126041 0.112118779591011
-0.574933525415418 0.101864299126041 0.103359466375881
-0.582893007046962 0.101864299126041 0.094192186078729
-0.590168510407837 0.101864299126041 0.084626120141598
-0.596715788913741 0.101864299126041 0.074652260375427
-0.602313429493433 0.101864299126041 0.064519890546590
-0.606743069686367 0.101864299126041 0.054557930213979
-0.610166947984681 0.101864299126041 0.044595075646795
-0.612734989386213 0.101864299126041 0.034409034142001
-0.614390543931430 0.101864299126041 0.024045989015738
-0.615124864228937 0.101864299126041 0.013716055359126
-0.614986395669501 0.101864299126041 0.003651168024596
-0.614038237930687 0.101864299126041 -0.006226119458279
-0.612313656692685 0.101864299126041 -0.016015458510490
-0.609750002012219 0.101864299126041 -0.025793562837179
-0.606271479048397 0.101864299126041 -0.035610272671421
-0.601932321999973 0.101864299126041 -0.045242656607609
-0.596822653823203 0.101864299126041 -0.054513733892169
-0.590998400846745 0.101864299126041 -0.063418848661009
-0.584261553076702 0.101864299126041 -0.072155789624868
-0.576408454519702 0.101864299126041 -0.080843770593281
-0.567690477705351 0.101864299126041 -0.089194347141446
-0.558359464751606 0.101864299126041 -0.097011091876280
-0.548458157277535 0.101864299126041 -0.104319614081573
-0.537752446327639 0.101864299126041 -0.111219181866773
-0.526015411508121 0.101864299126041 -0.117769218919141
-0.513544870917614 0.101864299126041 -0.123829208764383
-0.500632848562122 0.101864299126041 -0.129287882179742
-0.487087365937946 0.101864299126041 -0.134182166008903
-0.472723365761230 0.101864299126041 -0.138529816742294
-0.457817305133867 0.101864299126041 -0.142254039174451
-0.442642254309694 0.101864299126041 -0.145297125719001
-0.427248690610642 0.101864299126041 -0.147653219666206
-0.411687933354609 0.101864299126041 -0.149317006628978
-0.396011929708017 0.101864299126041 -0.150284337194112
-0.380273051951381 0.101864299126041 -0.150552585412454
-0.364523903892756 0.101864299126041 -0.150120846253391
-0.348817128043092 0.101864299126041 -0.148990024590488
-0.333205211411584 0.101864299126041 -0.147162834856323
-0.317740292787404 0.101864299126041 -0.144643714099754
-0.302473972488686 0.101864299126041 -0.141438636269237
-0.287457117530635 0.101864299126041 -0.137554787499362
-0.272739657049968 0.101864299126041 -0.133000025388331
-0.258620588004908 0.101864299126041 -0.127857274590955
-0.245404375423465 0.101864299126041 -0.122232810513973
-0.232877465472429 0.101864299126041 -0.116093185826056
-0.220817048738589 0.101864299126041 -0.109384098349805
-0.209264098290465 0.101864299126041 -0.102116854679118
-0.198455530734854 0.101864299126041 -0.094410147467936
-0.188627004880424 0.101864299126041 -0.086406438634295
-0.179603008003455 0.101864299126041 -0.078038644896254
-0.171207007813719 0.101864299126041 -0.069209097469112
-0.163477975039258 0.101864299126041 -0.059899798125008
-0.156476234389404 0.101864299126041 -0.050057702765970
-0.150561180845819 0.101864299126041 -0.040104964972251
-0.146112747618572 0.101864299126041 -0.030730106807999
-0.142761520070675 0.101864299126041 -0.021670946353286
-0.140085193246835 0.101864299126041 -0.012451914191617
-0.138096165089460 0.101864299126041 -0.003104924100096
-0.136804546147674 0.101864299126041 0.006337948458654
-0.134203598364732 0.127118917294622 0.021065435206585
-0.135371639099403 0.127118917294622 0.031836214238517
-0.137218106891348 0.127118917294622 0.042439307329105
-0.139923857598043 0.127118917294622 0.052806849195130
-0.143426848620538 0.127118917294622 0.062925677003780
-0.147851752540420 0.127118917294622 0.073006036717578
-0.153342591632280 0.127118917294622 0.083216970310741
-0.159718794334492 0.127118917294622 0.093273460060171
-0.166884188057802 0.127118917294622 0.103019108048836
-0.174901957178710 0.127118917294622 0.112517103328962
-0.183655057498128 0.127118917294622 0.121650258839377
-0.193019760993925 0.127118917294622 0.130309552645887
-0.202960256780149 0.127118917294622 0.138472820030903
-0.213753837460656 0.127118917294622 0.146268983882308
-0.225670811214471 0.127118917294622 0.153785070477362
-0.238374895155942 0.127118917294622 0.160787231882491
-0.251531234783396 0.127118917294622 0.167091965642549
-0.265092701860893 0.127118917294622 0.172693461981015
-0.279115177736487 0.127118917294622 0.177608419636389
-0.293654953147202 0.127118917294622 0.181845157849968
-0.308563430795509 0.127118917294622 0.185364155035896
-0.323942351377431 0.127118917294622 0.188155508912574
-0.339986973839099 0.127118917294622 0.190218161633757
-0.356396738811191 0.127118917294622 0.191501088922553
-0.372877411046566 0.127118917294622 0.191977448730537
-0.389377792805474 0.127118917294622 0.191655680324208
-0.405846758813173 0.127118917294622 0.190544483987893
-0.422233249124702 0.127118917294622 0.188653074931158
-0.438486291624794 0.127118917294622 0.185991331843750
-0.454555053774260 0.127118917294622 0.182569835201574
-0.470154556238892 0.127118917294622 0.178465904589556
-0.484997003691665 0.127118917294622 0.173777347062363
-0.499276361556039 0.127118917294622 0.168480701291592
-0.513095454085391 0.127118917294622 0.162572669614084
-0.526314214388630 0.127118917294622 0.156114986887128
-0.538988544576435 0.127118917294622 0.149097571741183
-0.551173576832947 0.127118917294622 0.141503158449262
-0.562826645591612 0.127118917294622 0.133347602315557
-0.573663175230621 0.127118917294622 0.124810461282847
-0.583402793675006 0.127118917294622 0.116102422201884
-0.592273920156982 0.127118917294622 0.107114427559810
-0.600504224178176 0.127118917294622 0.097703179832467
-0.608055314605195 0.127118917294622 0.087870596131329
-0.614877017339482 0.127118917294622 0.077595094343669
-0.620690542998441 0.127118917294622 0.067191894172338
-0.625222764148624 0.127118917294622 0.057078136475364
-0.628687563984568 0.127118917294622 0.047019651896303
-0.631280653829916 0.127118917294622 0.036716989018514
-0.632933619724686 0.127118917294622 0.026218518461724
-0.633638209982273 0.127118917294622 0.015782618280702
-0.633457556513348 0.127118917294622 0.005694676490067
-0.632470667474726 0.127118917294622 -0.004157195504469
-0.630717685002998 0.127118917294622 -0.013912390220535
-0.628117367924959 0.127118917294622 -0.023680394451256
-0.624570625624670 0.127118917294622 -0.033536438101540
-0.620143007007008 0.127118917294622 -0.043205952743094
-0.614944793865901 0.127118917294622 -0.052472684000055
-0.609041350292253 0.127118917294622 -0.061340932253028
-0.602172750603259 0.127118917294622 -0.070073482956117
-0.594069940580772 0.127118917294622 -0.078832502923685
-0.585047269772714 0.127118917294622 -0.087257203711901
-0.575420583851527 0.127118917294622 -0.095104409974051
-0.565235697527758 0.127118917294622 -0.102416193389823
-0.554180783064949 0.127118917294622 -0.109326893616439
-0.541951588858377 0.127118917294622 -0.115919140005974
-0.528921289895997 0.127118917294622 -0.122021382793598
-0.515455850943439 0.127118917294622 -0.127499283449800
-0.501293426040928 0.127118917294622 -0.132405216193141
-0.486180024018555 0.127118917294622 -0.136766201728451
-0.470460185254763 0.127118917294622 -0.140490453995099
-0.454474108853074 0.127118917294622 -0.143510048149316
-0.438272132542312 0.127118917294622 -0.145821489535679
-0.421905375013129 0.127118917294622 -0.147421147158860
-0.405425535062990 0.127118917294622 -0.148306058433025
-0.388884702056002 0.127118917294622 -0.148474391455263
-0.372335176221822 0.127118917294622 -0.147925699284852
-0.355829288902730 0.127118917294622 -0.146661034720781
-0.339419220747320 0.127118917294622 -0.144682950451416
-0.323156822291210 0.127118917294622 -0.141995388180868
-0.307093438984085 0.127118917294622 -0.138603440964764
-0.291279732584177 0.127118917294622 -0.134512936307633
-0.275765493763363 0.127118917294622 -0.129729739669837
-0.260924436216807 0.127118917294622 -0.124357697032162
-0.247136986540134 0.127118917294622 -0.118530010890836
-0.234112645563218 0.127118917294622 -0.112195634848496
-0.221550391255439 0.127118917294622 -0.105276038524072
-0.209491166829650 0.127118917294622 -0.097778097525731
-0.198230304129132 0.127118917294622 -0.089848396414091
-0.188061725320436 0.127118917294622 -0.081663884327734
-0.178748883383005 0.127118917294622 -0.073127753098416
-0.170055270796402 0.127118917294622 -0.064103291304946
-0.162023217661812 0.127118917294622 -0.054557691126860
-0.154723503712293 0.127118917294622 -0.044412947228984
-0.148610976110509 0.127118917294622 -0.034209468968200
-0.144158513467293 0.127118917294622 -0.024824819698454
-0.140887946981227 0.127118917294622 -0.015904477094711
-0.138262756978110 0.127118917294622 -0.006824298481906
-0.136295603332758 0.127118917294622 0.002385750417415
-0.134997081715914 0.127118917294622 0.011695618288802
-0.132605915124680 0.152299482137025 0.026641446847222
-0.133898313504466 0.152299482137025 0.037550827551075
-0.135881607428069 0.152299482137025 0.048263171307754
-0.138732518312859 0.152299482137025 0.058704354604954
-0.142378051620434 0.152299482137025 0.068867116214498
-0.146975833249770 0.152299482137025 0.079019573876482
-0.152707984241673 0.152299482137025 0.089379234719882
-0.159354983017389 0.152299482137025 0.099602444801055
-0.166802074892877 0.152299482137025 0.109504222979088
-0.175133053294329 0.152299482137025 0.119171244882592
-0.184208829241949 0.152299482137025 0.128466978736063
-0.193882957569788 0.152299482137025 0.137264943761956
-0.204118838086100 0.152299482137025 0.145545810274462
-0.215267274711133 0.152299482137025 0.153475521014418
-0.227671894716259 0.152299482137025 0.161167828157011
-0.240925869630439 0.152299482137025 0.168340213188586
-0.254623774601635 0.152299482137025 0.174771979935468
-0.268717761405884 0.152299482137025 0.180461922308582
-0.283287968225411 0.152299482137025 0.185435443810054
-0.298415378504221 0.152299482137025 0.189706871642696
-0.313927459324485 0.152299482137025 0.193231906328053
-0.329962447812428 0.152299482137025 0.196000371681372
-0.346775310578636 0.152299482137025 0.198011754428425
-0.364005574510862 0.152299482137025 0.199206642144574
-0.381300251227746 0.152299482137025 0.199555178333433
-0.398608689049055 0.152299482137025 0.199069055153259
-0.415880387515565 0.152299482137025 0.197759569038153
-0.433064934586722 0.152299482137025 0.195637938924728
-0.450111979751225 0.152299482137025 0.192715493014910
-0.466971242191849 0.152299482137025 0.189003718037561
-0.483301493780232 0.152299482137025 0.184598900102639
-0.498758434362468 0.152299482137025 0.179621939547497
-0.513594968836629 0.152299482137025 0.174037640137125
-0.527950235304991 0.152299482137025 0.167836219247472
-0.541662097767902 0.152299482137025 0.161090161890396
-0.554810391209385 0.152299482137025 0.153780505587790
-0.567473517791191 0.152299482137025 0.145878839444125
-0.579608379820647 0.152299482137025 0.137398081417127
-0.590871586217697 0.152299482137025 0.128556164478526
-0.600924928054533 0.152299482137025 0.119608908947739
-0.610058547911485 0.152299482137025 0.110410968642167
-0.618560311839161 0.152299482137025 0.100774616424594
-0.626388970395377 0.152299482137025 0.090693949873558
-0.633487898960249 0.152299482137025 0.080134165189150
-0.639517886496851 0.152299482137025 0.069481105551416
-0.644149203842546 0.152299482137025 0.059245560904400
-0.647650196803875 0.152299482137025 0.049126562024429
-0.650264326406542 0.152299482137025 0.038743300326577
-0.651911525691010 0.152299482137025 0.028146396681828
-0.652584554537925 0.152299482137025 0.017643879053001
-0.652361908304193 0.152299482137025 0.007575663048240
-0.651338379321952 0.152299482137025 -0.002206413402160
-0.649560601023236 0.152299482137025 -0.011882996934442
-0.646928293099867 0.152299482137025 -0.021597404548414
-0.643318369860769 0.152299482137025 -0.031451221151610
-0.638808001000592 0.152299482137025 -0.041116994035438
-0.633528166851533 0.152299482137025 -0.050338140625421
-0.627553688723534 0.152299482137025 -0.059128235016058
-0.620560095788622 0.152299482137025 -0.067816472684620
-0.612209699973583 0.152299482137025 -0.076608906702221
-0.602882531486656 0.152299482137025 -0.085070295005914
-0.592961887351841 0.152299482137025 -0.092909454286603
-0.582496939015447 0.152299482137025 -0.100185888972812
-0.571094069699712 0.152299482137025 -0.107069399106801
-0.558367236707050 0.152299482137025 -0.113665788441530
-0.544769284777992 0.152299482137025 -0.119772626862069
-0.530744666235114 0.152299482137025 -0.125232990234386
-0.515957227628782 0.152299482137025 -0.130114571123263
-0.500079420303271 0.152299482137025 -0.134453264724511
-0.483528109732632 0.152299482137025 -0.138143034203385
-0.466714968675537 0.152299482137025 -0.141106615508192
-0.449689931954116 0.152299482137025 -0.143343265625763
-0.432503634156819 0.152299482137025 -0.144851329650836
-0.415207229211829 0.152299482137025 -0.145629243300714
-0.397852219324036 0.152299482137025 -0.145676108325209
-0.380490293415480 0.152299482137025 -0.144992008986326
-0.363173164110089 0.152299482137025 -0.143578155193554
-0.345952401837616 0.152299482137025 -0.141436883320101
-0.328879272570692 0.152299482137025 -0.138571519275205
-0.312004582836624 0.152299482137025 -0.134986084260881
-0.295378523407431 0.152299482137025 -0.130684777652157
-0.279050507350299 0.152299482137025 -0.125671111646744
-0.263473682222273 0.152299482137025 -0.120071488012942
-0.249108926922311 0.152299482137025 -0.114047850035081
-0.235583778478859 0.152299482137025 -0.107529569736835
-0.222514281486476 0.152299482137025 -0.100411658773710
-0.209941308530787 0.152299482137025 -0.092695952923355
-0.198222151653449 0.152299482137025 -0.084558581836255
-0.187712383506910 0.152299482137025 -0.076212985733950
-0.178111032902442 0.152299482137025 -0.067530382369085
-0.169118536716779 0.152299482137025 -0.058332392220733
-0.160781026615075 0.152299482137025 -0.048570549918574
-0.153180679607220 0.152299482137025 -0.038140765206245
-0.146872209281600 0.152299482137025 -0.027709617532087
-0.142421859739485 0.152299482137025 -0.018351766357663
-0.139238186949713 0.152299482137025 -0.009613644010129
-0.136669278381468 0.152299482137025 -0.000716235618883
-0.134728055000358 0.152299482137025 0.008312619379776
-0.133425593289595 0.152299482137025 0.017445068842924
-0.131044747522649 0.177411258312747 0.032492022539932
-0.132461920131723 0.177411258312747 0.043503343290124
-0.134581490520309 0.177411258312747 0.054287747985783
-0.137575803046825 0.177411258312747 0.064764879404876
-0.141360941330192 0.177411258312747 0.074933535785877
-0.146129460920693 0.177411258312747 0.085121474328031
-0.152103748046122 0.177411258312747 0.095596268827937
-0.159023126049634 0.177411258312747 0.105953506845129
-0.166753032859149 0.177411258312747 0.115978554564721
-0.175398963905460 0.177411258312747 0.125782569330725
-0.184798450935507 0.177411258312747 0.135209166300181
-0.194781069796698 0.177411258312747 0.144114062472365
-0.205309476497325 0.177411258312747 0.152481178177657
-0.216811705032038 0.177411258312747 0.160514576404948
-0.229708705333352 0.177411258312747 0.168355442632782
-0.243519451913782 0.177411258312747 0.175671063893703
-0.257764014947783 0.177411258312747 0.182202486615861
-0.272393913215455 0.177411258312747 0.187953611500230
-0.287514965768670 0.177411258312747 0.192958862111076
-0.303234284045675 0.177411258312747 0.197238703808233
-0.319354199890692 0.177411258312747 0.200744301080729
-0.336051628783296 0.177411258312747 0.203464701838899
-0.353644893613778 0.177411258312747 0.205399126503480
-0.371710336148477 0.177411258312747 0.206480271411973
-0.389832846099478 0.177411258312747 0.206676067138433
-0.407962540475935 0.177411258312747 0.206001768853190
-0.426049776768854 0.177411258312747 0.204471500998372
-0.444045030042173 0.177411258312747 0.202098645151573
-0.461898812334795 0.177411258312747 0.198896067771135
-0.479561632809017 0.177411258312747 0.194876180586649
-0.496632959670862 0.177411258312747 0.190156235271301
-0.512709127072397 0.177411258312747 0.184882320735790
-0.528105539807825 0.177411258312747 0.179005749920876
-0.542999808094718 0.177411258312747 0.172509171950535
-0.557206734072973 0.177411258312747 0.165476490861021
-0.570831431954989 0.177411258312747 0.157878820897948
-0.583976870624274 0.177411258312747 0.149675450072851
-0.596599582674116 0.177411258312747 0.140875904921764
-0.608294239750519 0.177411258312747 0.131738962952399
-0.618661881823417 0.177411258312747 0.122568203868613
-0.628057472520745 0.177411258312747 0.113179104653813
-0.636831855566001 0.177411258312747 0.103336452295936
-0.644940637351723 0.177411258312747 0.093025990266066
-0.652320177692272 0.177411258312747 0.082199104081220
-0.658567766511788 0.177411258312747 0.071316801036624
-0.663295275006425 0.177411258312747 0.060988640541671
-0.666828330844514 0.177411258312747 0.050843170081760
-0.669460098375166 0.177411258312747 0.040414429178519
-0.671099033578661 0.177411258312747 0.029755371564372
-0.671739455351862 0.177411258312747 0.019224698640714
-0.671475863574211 0.177411258312747 0.009217452501278
-0.670418635661528 0.177411258312747 -0.000452431732048
-0.668620463589171 0.177411258312747 -0.010008055518852
-0.665961636401064 0.177411258312747 -0.019627331087106
-0.662294424584488 0.177411258312747 -0.029438939053242
-0.657707860936122 0.177411258312747 -0.039061708173750
-0.652354093894669 0.177411258312747 -0.048197969838651
-0.646317400681437 0.177411258312747 -0.056870800171026
-0.639206251746265 0.177411258312747 -0.065476537684792
-0.630611164316394 0.177411258312747 -0.074265558841072
-0.620980459502620 0.177411258312747 -0.082726674303543
-0.610768303840844 0.177411258312747 -0.090519894212172
-0.600027540664431 0.177411258312747 -0.097723082247729
-0.588278771845459 0.177411258312747 -0.104541419126026
-0.575049750309812 0.177411258312747 -0.111103467000349
-0.560877261426251 0.177411258312747 -0.117176546539870
-0.546288764484022 0.177411258312747 -0.122582041622718
-0.530869370125876 0.177411258312747 -0.127402534810677
-0.514213344366142 0.177411258312747 -0.131682149444511
-0.496814095696271 0.177411258312747 -0.135301662495593
-0.479159104121174 0.177411258312747 -0.138175628594236
-0.461297620519389 0.177411258312747 -0.140306441198928
-0.443279495045707 0.177411258312747 -0.141694707236329
-0.425155024453995 0.177411258312747 -0.142340463944661
-0.406974804776430 0.177411258312747 -0.142243877364205
-0.388789592043310 0.177411258312747 -0.141405626773550
-0.370650159511938 0.177411258312747 -0.139827078969723
-0.352607151032219 0.177411258312747 -0.137510290014895
-0.334710939670709 0.177411258312747 -0.134457840110526
-0.317011497362184 0.177411258312747 -0.130672478008364
-0.299558267053021 0.177411258312747 -0.126156495375618
-0.282400034800134 0.177411258312747 -0.120910679063098
-0.266074092242160 0.177411258312747 -0.115085655671407
-0.251126235477218 0.177411258312747 -0.108873897766395
-0.237097023600502 0.177411258312747 -0.102183126749263
-0.223514872902522 0.177411258312747 -0.094879641955722
-0.210420542638632 0.177411258312747 -0.086959623264683
-0.198236824503587 0.177411258312747 -0.078630313687239
-0.187384324924061 0.177411258312747 -0.070143509870748
-0.177494294680163 0.177411258312747 -0.061336264614741
-0.168201082986192 0.177411258312747 -0.051986035639296
-0.159555109449871 0.177411258312747 -0.042027905028881
-0.151650969375761 0.177411258312747 -0.031330695147732
-0.145147589551574 0.177411258312747 -0.020694715749704
-0.140704656578865 0.177411258312747 -0.011398577078035
-0.137613062144412 0.177411258312747 -0.002883242136246
-0.135104681926972 0.177411258312747 0.005790417879351
-0.133192697414229 0.177411258312747 0.014596839621352
-0.131888660277128 0.177411258312747 0.023510515169799
-0.129318473898938 0.202459510481283 0.038545581556262
-0.130859918801859 0.202459510481283 0.049622791889681
-0.133114302430283 0.202459510481283 0.060442929621785
-0.136249387789594 0.202459510481283 0.070919468038772
-0.140170392410703 0.202459510481283 0.081057345535462
-0.145106768938681 0.202459510481283 0.091245271448781
-0.151323316506350 0.202459510481283 0.101802118019204
-0.158515975676042 0.202459510481283 0.112260973284677
-0.166529127747595 0.202459510481283 0.122376658355446
-0.175491046932014 0.202459510481283 0.132285656679126
-0.185214544131534 0.202459510481283 0.141811370413662
-0.195503961896518 0.202459510481283 0.150791511719468
-0.206321268369685 0.202459510481283 0.159213664994666
-0.218175406433257 0.202459510481283 0.167320788831385
-0.231568632098533 0.202459510481283 0.175281943181497
-0.245942109040409 0.202459510481283 0.182713042954763
-0.260737483556323 0.202459510481283 0.189316100873443
-0.275905735553160 0.202459510481283 0.195100625555144
-0.291579785825357 0.202459510481283 0.200110291521226
-0.307894304649064 0.202459510481283 0.204371754229812
-0.324625301627181 0.202459510481283 0.207831965066388
-0.341990550487762 0.202459510481283 0.210478594953860
-0.360375383065439 0.202459510481283 0.212309624494396
-0.379289699736524 0.202459510481283 0.213250534824842
-0.398252902636275 0.202459510481283 0.213268009526593
-0.417216108905686 0.202459510481283 0.212381172533208
-0.436130775850341 0.202459510481283 0.210607202379504
-0.454948513466042 0.202459510481283 0.207961795347380
-0.473620945803268 0.202459510481283 0.204459437204007
-0.492099618642393 0.202459510481283 0.200113475034839
-0.509921654176644 0.202459510481283 0.195064218493103
-0.526621185487895 0.202459510481283 0.189485101486982
-0.542579678020447 0.202459510481283 0.183312060131915
-0.558015369041755 0.202459510481283 0.176519011548971
-0.572719021446681 0.202459510481283 0.169201944443152
-0.586822368843832 0.202459510481283 0.161320972585419
-0.600454238613057 0.202459510481283 0.152821904276078
-0.613570861080783 0.202459510481283 0.143710412779018
-0.625701860662889 0.202459510481283 0.134288542831706
-0.636384625170558 0.202459510481283 0.124910148006791
-0.646042010820566 0.202459510481283 0.115348650663411
-0.655090585981343 0.202459510481283 0.105318379576284
-0.663482509325920 0.202459510481283 0.094796208743529
-0.671146518372019 0.202459510481283 0.083719178076133
-0.677613291829940 0.202459510481283 0.072627835220354
-0.682434532000314 0.202459510481283 0.062235300741285
-0.685995969334719 0.202459510481283 0.052096219017792
-0.688642423915402 0.202459510481283 0.041656106153903
-0.690271118016739 0.202459510481283 0.030970351146067
-0.690878504949148 0.202459510481283 0.020448985415105
-0.690575686768339 0.202459510481283 0.010542298179255
-0.689488356697066 0.202459510481283 0.001024902939984
-0.687674791497989 0.202459510481283 -0.008369637552291
-0.684995520649978 0.202459510481283 -0.017854301713079
-0.681277577558598 0.202459510481283 -0.027585378986665
-0.676622027096955 0.202459510481283 -0.037127557006363
-0.671202578405616 0.202459510481283 -0.046141617961088
-0.665112947112275 0.202459510481283 -0.054660278784863
-0.657892167643863 0.202459510481283 -0.063147069545610
-0.649055894399710 0.202459510481283 -0.071896626422251
-0.639123239975389 0.202459510481283 -0.080320942517878
-0.628622613816848 0.202459510481283 -0.088030896161806
-0.617610880525439 0.202459510481283 -0.095123602204416
-0.605518964426523 0.202459510481283 -0.101839073301462
-0.591784063886370 0.202459510481283 -0.108327827821210
-0.577031115319291 0.202459510481283 -0.114328053002799
-0.561875059577203 0.202459510481283 -0.119640747234610
-0.545817869242342 0.202459510481283 -0.124362652162638
-0.528371006835228 0.202459510481283 -0.128545212914234
-0.510108603411646 0.202459510481283 -0.132057409464724
-0.491598255021271 0.202459510481283 -0.134807052662393
-0.472888230673093 0.202459510481283 -0.136800049932551
-0.454027279718094 0.202459510481283 -0.138039546578639
-0.435064514405746 0.202459510481283 -0.138527374499737
-0.416049291538164 0.202459510481283 -0.138264884340437
-0.397031099478547 0.202459510481283 -0.137253404040969
-0.378059438963592 0.202459510481283 -0.135494447277975
-0.359183698915637 0.202459510481283 -0.132989716497855
-0.340453039551752 0.202459510481283 -0.129740907422443
-0.321916291271692 0.202459510481283 -0.125749287201621
-0.303621861492010 0.202459510481283 -0.121014951676912
-0.285617649721200 0.202459510481283 -0.115535581274340
-0.268529784304926 0.202459510481283 -0.109487730582288
-0.252993407906843 0.202459510481283 -0.103096162025021
-0.238457102662348 0.202459510481283 -0.096244795997149
-0.224356996816521 0.202459510481283 -0.088768948370171
-0.210733690788148 0.202459510481283 -0.080658522523556
-0.198079002058735 0.202459510481283 -0.072153353833346
-0.186881943541907 0.202459510481283 -0.063545313353628
-0.176702675503337 0.202459510481283 -0.054635163653284
-0.167106479949302 0.202459510481283 -0.045153844951384
-0.158148594242263 0.202459510481283 -0.035019239891593
-0.149937131596205 0.202459510481283 -0.024072193950850
-0.143239511868991 0.202459510481283 -0.013253922044836
-0.138808620078285 0.202459510481283 -0.004052596966262
-0.135813427516666 0.202459510481283 0.004202394703089
-0.133369117390533 0.202459510481283 0.012614427754037
-0.131489130507707 0.202459510481283 0.021160335900267
-0.130185485913792 0.202459510481283 0.029817070220224
-0.127226105782070 0.227449503302130 0.044731521835334
-0.128890527901618 0.227449503302130 0.055839285389480
-0.131277483112541 0.227449503302130 0.066659785871926
-0.134549988874294 0.227449503302130 0.077100424411018
-0.138602473604575 0.227449503302130 0.087172281160912
-0.143703233003588 0.227449503302130 0.097325865541096
-0.150161595664063 0.227449503302130 0.107932204305024
-0.157627875754778 0.227449503302130 0.118460541962046
-0.165924128793076 0.227449503302130 0.128634448205303
-0.175202462985031 0.227449503302130 0.138616425660003
-0.185249624399676 0.227449503302130 0.148209457729032
-0.195843480268792 0.227449503302130 0.157233193214053
-0.206945377213332 0.227449503302130 0.165679292690752
-0.219148794079023 0.227449503302130 0.173830054083465
-0.233041245104928 0.227449503302130 0.181882580856748
-0.247982519362978 0.227449503302130 0.189400591076637
-0.263331947645890 0.227449503302130 0.196046581223573
-0.279040071794817 0.227449503302130 0.201836166337610
-0.295268328148475 0.227449503302130 0.206822416827753
-0.312180368481675 0.227449503302130 0.211038150749364
-0.329524708974517 0.227449503302130 0.214426511148669
-0.347562154522300 0.227449503302130 0.216973090909459
-0.366748694503957 0.227449503302130 0.218673492727043
-0.386524554839486 0.227449503302130 0.219446839908135
-0.406340295292211 0.227449503302130 0.219259701492605
-0.426148272969775 0.227449503302130 0.218135370782402
-0.445901295193340 0.227449503302130 0.216094300075407
-0.465552362990722 0.227449503302130 0.213154645092762
-0.485054470095676 0.227449503302130 0.209332583982234
-0.504360453681863 0.227449503302130 0.204642401072216
-0.522942066133005 0.227449503302130 0.199249648794754
-0.540268435025986 0.227449503302130 0.193357321605140
-0.556790640728722 0.227449503302130 0.186883963782053
-0.572769695161194 0.227449503302130 0.179793517719285
-0.587971362034132 0.227449503302130 0.172194719229458
-0.602555326428834 0.227449503302130 0.164035572104825
-0.616677559483087 0.227449503302130 0.155247206701584
-0.630294062436841 0.227449503302130 0.145830975267390
-0.642866319680706 0.227449503302130 0.136134563143428
-0.653865183436067 0.227449503302130 0.126564495889783
-0.663784444464207 0.227449503302130 0.116849280001945
-0.673109106305343 0.227449503302130 0.106649905143067
-0.681787559674246 0.227449503302130 0.095933878041917
-0.689740271339077 0.227449503302130 0.084623407131925
-0.696428161783919 0.227449503302130 0.073342776105768
-0.701341016457650 0.227449503302130 0.062913109300595
-0.704927488097325 0.227449503302130 0.052812002269766
-0.707586008665829 0.227449503302130 0.042393517290152
-0.709202879711731 0.227449503302130 0.031715601220691
-0.709777290137524 0.227449503302130 0.021239902320347
-0.709437492447439 0.227449503302130 0.011471597224548
-0.708324159374175 0.227449503302130 0.002144777459858
-0.706500642592450 0.227449503302130 -0.007050884410481
-0.703807450100960 0.227449503302130 -0.016363607948153
