ply
format ascii 1.0
element vertex 876
property double x
property double y
property double z
end_header
0.300426045012632 0.065591600342941 -0.241454562460079
0.306945171741188 0.065591600342941 -0.234554233077173
0.313010212327828 0.065591600342941 -0.227158718761440
0.318655722324822 0.065591600342941 -0.219200687733356
0.323906613689054 0.065591600342941 -0.210610216041925
0.328693398999082 0.065591600342941 -0.201542979392016
0.332973741776742 0.065591600342941 -0.192146313735018
0.336764270193851 0.065591600342941 -0.182453469458417
0.340091619715890 0.065591600342941 -0.172364987375351
0.342972118962444 0.065591600342941 -0.161786524792023
0.345387782208642 0.065591600342941 -0.150879417675738
0.347327359754569 0.065591600342941 -0.139848114082122
0.348800230819466 0.065591600342941 -0.128780194411763
0.362558715817506 0.087429052171713 -0.121650460159318
0.363552868220869 0.087429052171713 -0.109332014896617
0.364258189410925 0.087429052171713 -0.096996145355144
0.364563638668535 0.087429052171713 -0.084632428995740
0.364415876384245 0.087429052171713 -0.072343798482796
0.363734417920553 0.087429052171713 -0.060386321006089
0.362457378454789 0.087429052171713 -0.048949366451455
0.360566464250883 0.087429052171713 -0.037861518103449
0.358024439679986 0.087429052171713 -0.026948787932514
0.354752668266936 0.087429052171713 -0.016237299632960
0.350769129102386 0.087429052171713 -0.005979591586114
0.346179709369000 0.087429052171713 0.003538201446010
0.341005423535101 0.087429052171713 0.012443920620970
0.335244846769417 0.087429052171713 0.020892145461499
0.329005006341281 0.087429052171713 0.028781874906157
0.322406754812079 0.087429052171713 0.036031087662132
0.315454434437539 0.087429052171713 0.042690702822028
0.308133868517766 0.087429052171713 0.048807703781415
0.300478263663092 0.087429052171713 0.054360277853144
0.292485956617896 0.087429052171713 0.059342838147222
0.284153931343273 0.087429052171713 0.063744399865192
0.275545163043440 0.087429052171713 0.067517232560708
0.266726212810999 0.087429052171713 0.070620144552843
0.257735090450740 0.087429052171713 0.073035845106720
0.248611812700621 0.087429052171713 0.074751954043405
0.239353763979686 0.087429052171713 0.075759638857654
0.229960349832004 0.087429052171713 0.076048431347817
0.220518978309307 0.087429052171713 0.075609745008030
0.211115285508083 0.087429052171713 0.074447610964947
0.201750170861448 0.087429052171713 0.072561705956115
0.192424729069262 0.087429052171713 0.069949797694825
0.183218183869133 0.087429052171713 0.066636075860195
0.174205033573239 0.087429052171713 0.062652911661835
0.165416623912989 0.087429052171713 0.058025520223866
0.156882567631752 0.087429052171713 0.052779912204653
0.148500808179265 0.087429052171713 0.046826824037025
0.140189479546119 0.087429052171713 0.040071019561372
0.132129433706127 0.087429052171713 0.032632758897441
0.124478239963075 0.087429052171713 0.024643613616085
0.117258172513739 0.087429052171713 0.016140432196125
0.110490738578295 0.087429052171713 0.007159820708839
0.104196660270936 0.087429052171713 -0.002261496030131
0.098395811209479 0.087429052171713 -0.012086439549589
0.093107143207953 0.087429052171713 -0.022277434222273
0.088348623432329 0.087429052171713 -0.032796325914907
0.084130486664670 0.087429052171713 -0.043625329429681
0.080464098593305 0.087429052171713 -0.054746535946422
0.077375244141932 0.087429052171713 -0.066100037753111
0.074886793132843 0.087429052171713 -0.077624460262986
0.073014002029288 0.087429052171713 -0.089255888945992
0.071767383832522 0.087429052171713 -0.100929051272835
0.071147013795331 0.087429052171713 -0.112621406260979
0.071151492782047 0.087429052171713 -0.124310469870868
0.071781270037223 0.087429052171713 -0.135951995879475
0.073034914247033 0.087429052171713 -0.147501771615252
0.074909282139904 0.087429052171713 -0.158915674665163
0.077399582969925 0.087429052171713 -0.170149682880050
0.080499432322067 0.087429052171713 -0.181159855000419
0.084200884236947 0.087429052171713 -0.191902277121155
0.088454636464997 0.087429052171713 -0.202254229716406
0.093198736519296 0.087429052171713 -0.212095860350524
0.098440025571468 0.087429052171713 -0.221474045851249
0.104194133315176 0.087429052171713 -0.230435267415697
0.110443622238147 0.087429052171713 -0.238940765568242
0.117114199994700 0.087429052171713 -0.246897248228201
0.124120172854077 0.087429052171713 -0.254218272563706
0.131477199302097 0.087429052171713 -0.260939266806627
0.139208050409577 0.087429052171713 -0.267093163970884
0.147284576340337 0.087429052171713 -0.272651074335879
0.155676313787233 0.087429052171713 -0.277586189014734
0.164335357445882 0.087429052171713 -0.281868346217432
0.173210667431778 0.087429052171713 -0.285472617496279
0.182278743503004 0.087429052171713 -0.288391579561583
0.191515728531874 0.087429052171713 -0.290619592972057
0.200882497588671 0.087429052171713 -0.292147033591342
0.210314418410805 0.087429052171713 -0.292967799966518
0.219746407413404 0.087429052171713 -0.293082246366323
0.229162778293732 0.087429052171713 -0.292493259146210
0.238548075783866 0.087429052171713 -0.291198430340207
0.247788705889486 0.087429052171713 -0.289224511579534
0.256770286023035 0.087429052171713 -0.286618266320014
0.265531492308649 0.087429052171713 -0.283381887512460
0.274112446710633 0.087429052171713 -0.279500844081071
0.282474339381748 0.087429052171713 -0.274981958748588
0.290661325835960 0.087429052171713 -0.269769945755173
0.298688813973302 0.087429052171713 -0.263791656384097
0.306379996076161 0.087429052171713 -0.257094266344983
0.313586858221879 0.087429052171713 -0.249770865322266
0.320283966400358 0.087429052171713 -0.241891468481603
0.326532999688293 0.087429052171713 -0.233348084134952
0.332380898726874 0.087429052171713 -0.224027425576931
0.337729481074370 0.087429052171713 -0.214141927201665
0.342519785252196 0.087429052171713 -0.203893215616415
0.346781647115079 0.087429052171713 -0.193317692564935
0.350563015410262 0.087429052171713 -0.182256789553309
0.353896351278571 0.087429052171713 -0.170558092214681
0.356755891120643 0.087429052171713 -0.158443270362610
0.359123444773615 0.087429052171713 -0.146197584766721
0.361013477521179 0.087429052171713 -0.133934174463782
0.374769308390368 0.109253489640562 -0.126234809036559
0.376312454318477 0.109253489640562 -0.112713300366102
0.377592776493810 0.109253489640562 -0.099158153156838
0.378503073992972 0.109253489640562 -0.085541388087553
0.378965456727021 0.109253489640562 -0.071987994957291
0.378855807774028 0.109253489640562 -0.058832952899392
0.378078425092238 0.109253489640562 -0.046321127275132
0.376615800456033 0.109253489640562 -0.034206582584918
0.374424677481148 0.109253489640562 -0.022240003752295
0.371394932176721 0.109253489640562 -0.010443570334627
0.367536242720360 0.109253489640562 0.000850080084835
0.362975629776271 0.109253489640562 0.011261610481918
0.357742677005740 0.109253489640562 0.020976076090754
0.351836297786428 0.109253489640562 0.030213629714776
0.345390472701675 0.109253489640562 0.038844132855611
0.338558059480288 0.109253489640562 0.046762027929267
0.331339615297383 0.109253489640562 0.054044059400784
0.323710223125191 0.109253489640562 0.060761526457209
0.315705701541322 0.109253489640562 0.066891009146238
0.307315190391587 0.109253489640562 0.072431522809644
0.298525405310254 0.109253489640562 0.077374249367406
0.289410167035433 0.109253489640562 0.081657883339150
0.280048131059165 0.109253489640562 0.085229023475750
0.270480161969065 0.109253489640562 0.088066715735550
0.260749804597436 0.109253489640562 0.090155792988690
0.250843099778795 0.109253489640562 0.091486614019540
0.240748578195623 0.109253489640562 0.092046464056713
0.230573448717103 0.109253489640562 0.091821264714204
0.220423023857534 0.109253489640562 0.090813251413716
0.210288107745863 0.109253489640562 0.089020960206194
0.200159729600956 0.109253489640562 0.086439556723246
0.190135488827785 0.109253489640562 0.083096418813689
0.180307048934183 0.109253489640562 0.079029398675861
0.170707679284214 0.109253489640562 0.074267425430525
0.161368531758423 0.109253489640562 0.068839824762366
0.152138674245728 0.109253489640562 0.062624021997147
0.142893968577767 0.109253489640562 0.055487539134929
0.133874492631958 0.109253489640562 0.047579757406633
0.125290152464293 0.109253489640562 0.039065980204016
0.117164102986891 0.109253489640562 0.029987147335267
0.109518882399336 0.109253489640562 0.020383289754844
0.102376434944805 0.109253489640562 0.010294059793843
0.095758065394739 0.109253489640562 -0.000240905914172
0.089684373977071 0.109253489640562 -0.011181745296383
0.084175200299832 0.109253489640562 -0.022488212933661
0.079239680681339 0.109253489640562 -0.034147782450494
0.074889077340009 0.109253489640562 -0.046148148355056
0.071156465866032 0.109253489640562 -0.058420882587035
0.068071663556513 0.109253489640562 -0.070895706910025
0.065654896243271 0.109253489640562 -0.083498831398022
0.063920654278687 0.109253489640562 -0.096154618499168
0.062868258042543 0.109253489640562 -0.108845084884466
0.062495697943577 0.109253489640562 -0.121552319060226
0.062804996876945 0.109253489640562 -0.134228989306700
0.063796301589493 0.109253489640562 -0.146827697389749
0.065468107905812 0.109253489640562 -0.159301010950209
0.067817343901400 0.109253489640562 -0.171601429276160
0.070839437249547 0.109253489640562 -0.183681309336636
0.074528352091656 0.109253489640562 -0.195492745407254
0.078825628059704 0.109253489640562 -0.206879175947509
0.083656227063490 0.109253489640562 -0.217687285989666
0.089032538547232 0.109253489640562 -0.227991739733995
0.094979398544814 0.109253489640562 -0.237866404146473
0.101480706687677 0.109253489640562 -0.247268117753180
0.108446066483855 0.109253489640562 -0.256077363187909
0.115769999251047 0.109253489640562 -0.264183024093945
0.123479846842605 0.109253489640562 -0.271641825468048
0.131613016187292 0.109253489640562 -0.278506682756045
0.140140918625657 0.109253489640562 -0.284744540465914
0.149032145203927 0.109253489640562 -0.290324403562971
0.158232205282605 0.109253489640562 -0.295209406121754
0.167682486317997 0.109253489640562 -0.299368919289752
0.177361178021332 0.109253489640562 -0.302796254501224
0.187246158605466 0.109253489640562 -0.305486373446461
0.197295037289848 0.109253489640562 -0.307427523968986
0.207431000050306 0.109253489640562 -0.308610961284354
0.217576508715126 0.109253489640562 -0.309035845774274
0.227720684341798 0.109253489640562 -0.308705859677731
0.237853157886978 0.109253489640562 -0.307616784640445
0.247830141618772 0.109253489640562 -0.305799115064112
0.257506219039515 0.109253489640562 -0.303309386051467
0.266943633811264 0.109253489640562 -0.300149315923127
0.276206831403618 0.109253489640562 -0.296297562126737
0.285253112053476 0.109253489640562 -0.291757714952914
0.294153483649238 0.109253489640562 -0.286452345197745
0.302940882276592 0.109253489640562 -0.280277801544332
0.311384789972312 0.109253489640562 -0.273284129009561
0.319291396486034 0.109253489640562 -0.265583843405018
0.326632460797995 0.109253489640562 -0.257262490590147
0.333502381457642 0.109253489640562 -0.248166735161132
0.339975051621112 0.109253489640562 -0.238134325669012
0.345917363020981 0.109253489640562 -0.227440488566396
0.351249230183806 0.109253489640562 -0.216347975929702
0.356015436750459 0.109253489640562 -0.204897376627594
0.360290857958749 0.109253489640562 -0.192863152056284
0.364129203438314 0.109253489640562 -0.180026546847450
0.367493831982930 0.109253489640562 -0.166677928341513
0.370355567820111 0.109253489640562 -0.153195000621513
0.372733823345467 0.109253489640562 -0.139719863499806
0.386507112446818 0.131065028619194 -0.131383378547064
0.388696938488225 0.131065028619194 -0.116653076856788
0.390659671925595 0.131065028619194 -0.101872443403593
0.392295487311835 0.131065028619194 -0.086993075089699
0.393497259079907 0.131065028619194 -0.072162908732894
0.394085555110733 0.131065028619194 -0.057803993877004
0.393922116304855 0.131065028619194 -0.044222362779639
0.392995684974562 0.131065028619194 -0.031088009703061
0.391261891622408 0.131065028619194 -0.018066584416420
0.388575813939773 0.131065028619194 -0.005174478550483
0.384932872081011 0.131065028619194 0.007166342878696
0.380478209458426 0.131065028619194 0.018472154167036
0.375254832094776 0.131065028619194 0.028992875046956
0.369265896404585 0.131065028619194 0.039022601894264
0.362673413386653 0.131065028619194 0.048398019323959
0.355664175805509 0.131065028619194 0.056986333133137
0.348235765875001 0.131065028619194 0.064893397532260
0.340352515735965 0.131065028619194 0.072218185839979
0.332052812322432 0.131065028619194 0.078935645304714
0.323315637385700 0.131065028619194 0.085050618228425
0.314116191798466 0.131065028619194 0.090557479595352
0.304539257355614 0.131065028619194 0.095379593982767
0.294675914916811 0.131065028619194 0.099449627706568
0.284569680619667 0.131065028619194 0.102742602109200
0.274267533524022 0.131065028619194 0.105240235053264
0.263742545659343 0.131065028619194 0.106932696173299
0.252970688537470 0.131065028619194 0.107805425664089
0.242080493693490 0.131065028619194 0.107837308338327
0.231198686250572 0.131065028619194 0.107027635880568
0.220304424114310 0.131065028619194 0.105374193523289
0.209377036738793 0.131065028619194 0.102869739870213
0.198534385945548 0.131065028619194 0.099544261062453
0.187887183235750 0.131065028619194 0.095440816827141
0.177470680553649 0.131065028619194 0.090592306269513
0.167317559410387 0.131065028619194 0.085031572892367
0.157220219223659 0.131065028619194 0.078601218109397
0.147004735658317 0.131065028619194 0.071129012995419
0.136978491289352 0.131065028619194 0.062793689699166
0.127411529141252 0.131065028619194 0.053795569870315
0.118327838496105 0.131065028619194 0.044179912981697
0.109750935263972 0.131065028619194 0.033990283653818
0.101703942052052 0.131065028619194 0.023269272299905
0.094209571740469 0.131065028619194 0.012059003731847
0.087290078665957 0.131065028619194 0.000401490385485
0.080967215595767 0.131065028619194 -0.011661121379293
0.075248312818012 0.131065028619194 -0.024122503606734
0.070143938827340 0.131065028619194 -0.036977002543585
0.065695574973767 0.131065028619194 -0.050147403361040
0.061941106067542 0.131065028619194 -0.063554202575460
0.058906679827136 0.131065028619194 -0.077113206322805
0.056611640977876 0.131065028619194 -0.090737787295642
0.055054044863111 0.131065028619194 -0.104415460631461
0.054230801836192 0.131065028619194 -0.118133840848834
0.054145754786952 0.131065028619194 -0.131842661501597
0.054800905113363 0.131065028619194 -0.145491482029372
0.056196703248889 0.131065028619194 -0.159029694049060
0.058332155632323 0.131065028619194 -0.172406436784942
0.061204910643124 0.131065028619194 -0.185570460840627
0.064811304890478 0.131065028619194 -0.198469931357310
0.069084510730348 0.131065028619194 -0.210910312572487
0.073936751239085 0.131065028619194 -0.222700605543537
0.079385185495682 0.131065028619194 -0.233947316026513
0.085463532764125 0.131065028619194 -0.244755809150780
0.092157556385337 0.131065028619194 -0.255078468968123
0.099360478848890 0.131065028619194 -0.264766022998358
0.106946311280801 0.131065028619194 -0.273679173104808
0.114954450739046 0.131065028619194 -0.281899365893836
0.123437700734056 0.131065028619194 -0.289502865772513
0.132367439627834 0.131065028619194 -0.296452265558259
0.141711681384637 0.131065028619194 -0.302712149899390
0.151409237567961 0.131065028619194 -0.308238105037119
0.161393660548707 0.131065028619194 -0.312992997747228
0.171645276133287 0.131065028619194 -0.316971277739872
0.182144172486436 0.131065028619194 -0.320168876786398
0.192844768070681 0.131065028619194 -0.322571681355083
0.203657180029258 0.131065028619194 -0.324167498339751
0.214490437805827 0.131065028619194 -0.324953607103199
0.225339323482948 0.131065028619194 -0.324934942509172
0.236199572913032 0.131065028619194 -0.324105637750835
0.246894069100355 0.131065028619194 -0.322498709657167
0.257242929332009 0.131065028619194 -0.320179778948197
0.267334932898837 0.131065028619194 -0.317151327602167
0.277262127344365 0.131065028619194 -0.313385839992809
0.286978041563892 0.131065028619194 -0.308883091635538
0.296584914157471 0.131065028619194 -0.303542627892736
0.306137156435313 0.131065028619194 -0.297227802989770
0.315345126487456 0.131065028619194 -0.289988557146489
0.323963726362159 0.131065028619194 -0.281956141456180
0.331961223969429 0.131065028619194 -0.273232879139877
0.339470732290893 0.131065028619194 -0.263615759539806
0.346598470711599 0.131065028619194 -0.252888191447765
0.353169527848091 0.131065028619194 -0.241393864486237
0.359077528190248 0.131065028619194 -0.229463412204291
0.364383856567792 0.131065028619194 -0.217142921024470
0.369196636618918 0.131065028619194 -0.204132272601384
0.373596735504777 0.131065028619194 -0.190138247648177
0.377532870892934 0.131065028619194 -0.175528405719596
0.380959836830062 0.131065028619194 -0.160784725614939
0.383901564436132 0.131065028619194 -0.146081779208841
0.397715969353236 0.152863784977318 -0.137039074917725
0.400653656185108 0.152863784977318 -0.121096782140344
0.403410025633282 0.152863784977318 -0.105087677346706
0.405896601158951 0.152863784977318 -0.088940150276562
0.407972064224655 0.152863784977318 -0.072825610134673
0.409388497978264 0.152863784977318 -0.057260793197519
0.409955200805472 0.152863784977318 -0.042618180329795
0.409673848912589 0.152863784977318 -0.028474333950521
0.408505132540243 0.152863784977318 -0.014400354976164
0.406266083890236 0.152863784977318 -0.000404816847922
0.402930797080136 0.152863784977318 0.012991897241690
0.398658403650424 0.152863784977318 0.025190515377396
0.393511225094433 0.152863784977318 0.036513391099435
0.387501554108325 0.152863784977318 0.047336841182952
0.380820118342903 0.152863784977318 0.057460185916559
0.373689233825063 0.152863784977318 0.066719472560638
0.366104669044602 0.152863784977318 0.075252895716934
0.358020348964827 0.152863784977318 0.083190467277785
0.349477195229119 0.152863784977318 0.090505462874054
0.340443197649477 0.152863784977318 0.097209864916744
0.330880895754692 0.152863784977318 0.103302386415535
0.320885985128829 0.152863784977318 0.108689267580122
0.310562151327555 0.152863784977318 0.113287456346988
0.299955336806913 0.152863784977318 0.117067591800011
0.289115844850426 0.152863784977318 0.120007943577515
0.278002202672181 0.152863784977318 0.122099259941377
0.266576161251606 0.152863784977318 0.123325686650349
0.254988993483576 0.152863784977318 0.123657357970327
0.243390519632785 0.152863784977318 0.123089296320402
0.231746727063587 0.152863784977318 0.121619064504441
0.220023616366387 0.152863784977318 0.119237352143887
0.208361209598877 0.152863784977318 0.115976004168299
0.196891190703028 0.152863784977318 0.111882855903631
0.185650901924627 0.152863784977318 0.106995042080321
0.174674585465869 0.152863784977318 0.101349142369177
0.163689857520452 0.152863784977318 0.094752050084250
0.152465038661314 0.152863784977318 0.086989827102394
0.141383150509913 0.152863784977318 0.078270127401907
0.130782563449877 0.152863784977318 0.068829003274287
0.120688087357473 0.152863784977318 0.058716292498152
0.111124183015729 0.152863784977318 0.047979228841108
0.102115118537999 0.152863784977318 0.036663374029060
0.093684995319376 0.152863784977318 0.024813289597309
0.085857725111313 0.152863784977318 0.012473016694415
0.078657007596733 0.152863784977318 -0.000313577333774
0.072087557898187 0.152863784977318 -0.013547253870615
0.066158551385076 0.152863784977318 -0.027230023476045
0.060921058714475 0.152863784977318 -0.041275679047950
0.056422225441196 0.152863784977318 -0.055595228616332
0.052695158232799 0.152863784977318 -0.070093582935466
0.049765021855844 0.152863784977318 -0.084672528114310
0.047627992507380 0.152863784977318 -0.099325983190330
0.046279325849742 0.152863784977318 -0.114048010063457
0.045724922572804 0.152863784977318 -0.128785559718007
0.045968907082408 0.152863784977318 -0.143485296514518
0.047013992492421 0.152863784977318 -0.158093577361519
0.048861617260183 0.152863784977318 -0.172556311013585
0.051512055671497 0.152863784977318 -0.186818752166516
0.054964479315814 0.152863784977318 -0.200825218674363
0.059144874539250 0.152863784977318 -0.214338972463984
0.063953459224772 0.152863784977318 -0.227126986288450
0.069410975512338 0.152863784977318 -0.239331712194085
0.075559298287360 0.152863784977318 -0.251094205557937
0.082386586179856 0.152863784977318 -0.262362369673583
0.089769710562715 0.152863784977318 -0.272953502952628
0.097561746214980 0.152863784977318 -0.282696444368042
0.105814189388344 0.152863784977318 -0.291700901943253
0.114595680107912 0.152863784977318 -0.300069996341119
0.123877978107159 0.152863784977318 -0.307761802579376
0.133628900358524 0.152863784977318 -0.314736267547540
0.143780506354004 0.152863784977318 -0.320940545065237
0.154258301605013 0.152863784977318 -0.326330141769892
0.165045145347799 0.152863784977318 -0.330901094227960
0.176123765326016 0.152863784977318 -0.334650721676227
0.187445467931128 0.152863784977318 -0.337562314285628
0.198906452321704 0.152863784977318 -0.339619322198111
0.210401364177876 0.152863784977318 -0.340816348183768
0.221931454058183 0.152863784977318 -0.341160127653396
0.233499563360710 0.152863784977318 -0.340643410107161
0.244892158356902 0.152863784977318 -0.339300189448199
0.255891471264079 0.152863784977318 -0.337204134296596
0.266615693119774 0.152863784977318 -0.334360042466865
0.277187701800576 0.152863784977318 -0.330735211999094
0.287557411711832 0.152863784977318 -0.326325037880328
0.297862784187549 0.152863784977318 -0.321005600952908
0.308183940437208 0.152863784977318 -0.314605115379355
0.318166928905614 0.152863784977318 -0.307169843698589
0.327509868405992 0.152863784977318 -0.298848523411829
0.336176717337731 0.152863784977318 -0.289761445986339
0.344345706196482 0.152863784977318 -0.279651931586183
0.352161222812511 0.152863784977318 -0.268243886732630
0.359399021841921 0.152863784977318 -0.255954777402687
0.365920584550549 0.152863784977318 -0.243189800590608
0.371805460532085 0.152863784977318 -0.230002124559850
0.377202077878897 0.152863784977318 -0.216009684840125
0.382225195234578 0.152863784977318 -0.200836822498676
0.386804426030408 0.152863784977318 -0.184936930171744
0.390872434619076 0.152863784977318 -0.168908301678401
0.394456941020111 0.152863784977318 -0.152961603407012
0.408339624267183 0.174649874584643 -0.143142308506508
0.412129673597769 0.174649874584643 -0.125987443446388
0.415794569056081 0.174649874584643 -0.108750239582761
0.419261631584895 0.174649874584643 -0.091333212770868
0.422350136359688 0.174649874584643 -0.073931392834704
0.424728998461503 0.174649874584643 -0.057163193060211
0.426144004654457 0.174649874584643 -0.041472359199269
0.426617656502507 0.174649874584643 -0.026332889777471
0.426123122453439 0.174649874584643 -0.011212065876010
0.424436170408130 0.174649874584643 0.003891575296519
0.421501375302129 0.174649874584643 0.018350305424598
0.417486626136370 0.174649874584643 0.031438191476298
0.412480524543200 0.174649874584643 0.043557469529356
0.406510390474337 0.174649874584643 0.055174836624637
0.399795976785415 0.174649874584643 0.066047925779444
0.392596380158237 0.174649874584643 0.075977494802672
0.384907058536839 0.174649874584643 0.085137251612738
0.376672215927590 0.174649874584643 0.093691611032782
0.367935284813310 0.174649874584643 0.101612125926670
0.358652553927374 0.174649874584643 0.108919316446541
0.348772853573573 0.174649874584643 0.115617493619243
0.338402587780810 0.174649874584643 0.121593944331508
0.327658077941874 0.174649874584643 0.126748053835759
0.316587445964391 0.174649874584643 0.131045725950664
0.305244193302318 0.174649874584643 0.134461444742125
0.293570774129954 0.174649874584643 0.136987450139574
0.281513079076574 0.174649874584643 0.138607290951089
0.269246439122819 0.174649874584643 0.139280473273217
0.256945399362479 0.174649874584643 0.138996251051171
0.244561276951932 0.174649874584643 0.137752629294092
0.232045117818232 0.174649874584643 0.135538707623985
0.219561013995157 0.174649874584643 0.132387273114978
0.207263588896062 0.174649874584643 0.128350348332153
0.195192431061347 0.174649874584643 0.123469578855862
0.183383414432353 0.174649874584643 0.117785514450605
0.171490930685787 0.174649874584643 0.111069079442934
0.159217113149231 0.174649874584643 0.103063222044959
0.147029216917728 0.174649874584643 0.094003434465593
0.135342528931775 0.174649874584643 0.084161634338887
0.124182698614460 0.174649874584643 0.073592527352518
0.113575119007341 0.174649874584643 0.062347179233678
0.103545181296714 0.174649874584643 0.050474179484367
0.094118358576410 0.174649874584643 0.038020493912923
0.085320220137996 0.174649874584643 0.025032085525622
0.077176438531595 0.174649874584643 0.011554373330958
0.069688201136826 0.174649874584643 -0.002421335189110
0.062862479791810 0.174649874584643 -0.016905691268328
0.056761186898608 0.174649874584643 -0.031803351551107
0.051441995781491 0.174649874584643 -0.047015631468000
0.046946094310155 0.174649874584643 -0.062436092591715
0.043305522191682 0.174649874584643 -0.077954365881757
0.040513856932189 0.174649874584643 -0.093571643976029
0.038564018447601 0.174649874584643 -0.109289325141792
0.037464194083665 0.174649874584643 -0.125051731377628
0.037220890971029 0.174649874584643 -0.140802783285561
0.037839385140696 0.174649874584643 -0.156485951865242
0.039323894461507 0.174649874584643 -0.172044056211140
0.041677720555394 0.174649874584643 -0.187418980773910
0.044903332323700 0.174649874584643 -0.202551297322189
0.048921105172113 0.174649874584643 -0.217157740953515
0.053620373371900 0.174649874584643 -0.230958788628796
0.059023863882027 0.174649874584643 -0.244136994518350
0.065180473674184 0.174649874584643 -0.256873376152994
0.072081292930055 0.174649874584643 -0.269111355915168
0.079587178253975 0.174649874584643 -0.280630985817822
0.087530139216515 0.174649874584643 -0.291225390160268
0.095973487753572 0.174649874584643 -0.301036192686286
0.105001821268183 0.174649874584643 -0.310197016516281
0.114587703176407 0.174649874584643 -0.318661272389702
0.124699144495535 0.174649874584643 -0.326384068623291
0.135261455955024 0.174649874584643 -0.333303201915866
0.146191934633635 0.174649874584643 -0.339365912173498
0.157476321483845 0.174649874584643 -0.344570316020766
0.169100368158962 0.174649874584643 -0.348915585586668
0.181012350880205 0.174649874584643 -0.352382178667639
0.193093740041506 0.174649874584643 -0.354948178743687
0.205223873467536 0.174649874584643 -0.356604610210116
0.217411230878020 0.174649874584643 -0.357360647098676
0.229666740484733 0.174649874584643 -0.357208021267023
0.241737416915153 0.174649874584643 -0.356179840793699
0.253364209281129 0.174649874584643 -0.354356443728195
0.264697501797437 0.174649874584643 -0.351746803174159
0.275894174138442 0.174649874584643 -0.348314355794546
0.286900719235220 0.174649874584643 -0.344049567326153
0.297895413385703 0.174649874584643 -0.338805047834045
0.308988598762699 0.174649874584643 -0.332372069781965
0.319757067082358 0.174649874584643 -0.324789067921367
0.329836666832592 0.174649874584643 -0.316220474319092
0.339186099742639 0.174649874584643 -0.306805684021641
0.348035532295211 0.174649874584643 -0.296230675596614
0.356573848171919 0.174649874584643 -0.284154887938359
0.364519279059501 0.174649874584643 -0.271074523597490
0.371694604162275 0.174649874584643 -0.257475956167149
0.378199007510578 0.174649874584643 -0.243421293190305
0.384229034069102 0.174649874584643 -0.228439393106342
0.389940921316782 0.174649874584643 -0.212064329833808
0.395239981945518 0.174649874584643 -0.194844131039319
0.400029544387329 0.174649874584643 -0.177505661729618
0.404340075858693 0.174649874584643 -0.160299417212794
0.418321733859998 0.196423413310876 -0.149632106118997
0.423071807997678 0.196423413310876 -0.131266747477909
0.427763645956006 0.196423413310876 -0.112805264053135
0.432345324483613 0.196423413310876 -0.094121782327040
0.436591259555744 0.196423413310876 -0.075434714536946
0.440070979122115 0.196423413310876 -0.057470433534623
0.442454473421734 0.196423413310876 -0.040748224069466
0.443794155431369 0.196423413310876 -0.024630654823427
0.444084311861772 0.196423413310876 -0.008472204045999
0.443056220517342 0.196423413310876 0.007741036512821
0.440615607803355 0.196423413310876 0.023265255697557
0.436932824501261 0.196423413310876 0.037236798166160
0.432130817017479 0.196423413310876 0.050145069585077
0.426258827719037 0.196423413310876 0.062555166114228
0.419565579978008 0.196423413310876 0.074178587856712
0.412347889435838 0.196423413310876 0.084776476523400
0.404602738290112 0.196423413310876 0.094561164633866
0.396265625737964 0.196423413310876 0.103734827868095
0.387382480884026 0.196423413310876 0.112267233768340
0.377897304145322 0.196423413310876 0.120188918108814
0.367744266239213 0.196423413310876 0.127511161051128
0.357040121531669 0.196423413310876 0.134100437843869
0.345913714192274 0.196423413310876 0.139836673367023
0.334415077624707 0.196423413310876 0.144680688856275
0.322600769572643 0.196423413310876 0.148602842470600
0.310395689382801 0.196423413310876 0.151597920984203
0.297728247766767 0.196423413310876 0.153649718319833
0.284799049884337 0.196423413310876 0.154705076353910
0.271808943320089 0.196423413310876 0.154745811938036
0.258693098077765 0.196423413310876 0.153771170764271
0.245385981105054 0.196423413310876 0.151769280211407
0.232077676766844 0.196423413310876 0.148772788527102
0.218947758285416 0.196423413310876 0.144837163014650
0.206038264147325 0.196423413310876 0.140008844813639
0.193386810396529 0.196423413310876 0.134332603251800
0.180565792592233 0.196423413310876 0.127543750414624
0.167202254041115 0.196423413310876 0.119341273003001
0.153856541399409 0.196423413310876 0.109986768288325
0.141029853870165 0.196423413310876 0.099787572986694
0.128748732183187 0.196423413310876 0.088803581787460
0.117039508982270 0.196423413310876 0.077089883031964
0.105928685997898 0.196423413310876 0.064698174147256
0.095443093288313 0.196423413310876 0.051677812134543
0.085609953830259 0.196423413310876 0.038076590058505
0.076456930346470 0.196423413310876 0.023941320044191
0.067980664720995 0.196423413310876 0.009254586194087
0.060185002133677 0.196423413310876 -0.006003843163493
0.053144018383948 0.196423413310876 -0.021729406686922
0.046927255880286 0.196423413310876 -0.037813583114549
0.041585191701886 0.196423413310876 -0.054138169400875
0.037157885144184 0.196423413310876 -0.070580101605100
0.033635488738439 0.196423413310876 -0.087148679593967
0.031007797988291 0.196423413310876 -0.103853494322766
0.029285506473298 0.196423413310876 -0.120636393945753
0.028477754810966 0.196423413310876 -0.137438710846561
0.028592674056750 0.196423413310876 -0.154201186565040
0.029637602352370 0.196423413310876 -0.170863702746786
0.031619266076147 0.196423413310876 -0.187364914673782
0.034543893386126 0.196423413310876 -0.203641768820820
0.038328220838338 0.196423413310876 -0.219360052633187
0.042852209559568 0.196423413310876 -0.234189157093830
0.048138558185997 0.196423413310876 -0.248355945403423
0.054241645364415 0.196423413310876 -0.262085748445027
0.061156033592971 0.196423413310876 -0.275317533576798
0.068727207155907 0.196423413310876 -0.287790147310221
0.076766277070605 0.196423413310876 -0.299256979651182
0.085347760691561 0.196423413310876 -0.309895337706448
0.094572016677876 0.196423413310876 -0.319873129541073
0.104412842012617 0.196423413310876 -0.329138974469011
0.114838843312471 0.196423413310876 -0.337642957806247
0.125768642959150 0.196423413310876 -0.345312555097704
0.137111217896764 0.196423413310876 -0.352085783060170
0.148855489931660 0.196423413310876 -0.357963375451957
0.160990573463362 0.196423413310876 -0.362946870010067
0.173461799354937 0.196423413310876 -0.367013655120193
0.186135137351195 0.196423413310876 -0.370135338231303
0.198873721547085 0.196423413310876 -0.372298359679588
0.211693974183768 0.196423413310876 -0.373515058821194
0.224615870728993 0.196423413310876 -0.373776615147632
0.237343996447346 0.196423413310876 -0.373113078660395
0.249574647715168 0.196423413310876 -0.371609749406534
0.261493085740032 0.196423413310876 -0.369281934791898
0.273293299810513 0.196423413310876 -0.366090861930942
0.284918588208553 0.196423413310876 -0.362021535843458
0.296592220232878 0.196423413310876 -0.356903510789890
0.308459533923288 0.196423413310876 -0.350489656297369
0.320023366216669 0.196423413310876 -0.342805875153718
0.330851829773276 0.196423413310876 -0.334029975638689
0.340897299853146 0.196423413310876 -0.324321536185525
0.350449118635637 0.196423413310876 -0.313305824521208
0.359747493337928 0.196423413310876 -0.300573026715400
0.368444282320292 0.196423413310876 -0.286702696094879
0.376316280705564 0.196423413310876 -0.272268934195204
0.383483677916204 0.196423413310876 -0.257344918149793
0.390199724175598 0.196423413310876 -0.241363524940093
0.396670602220837 0.196423413310876 -0.223760882206750
0.402771362031605 0.196423413310876 -0.205188631763386
0.408367634806088 0.196423413310876 -0.186514689655805
0.413491272454637 0.196423413310876 -0.168033226828735
0.427606001117409 0.218184517025725 -0.156445888086646
0.433426766635085 0.218184517025725 -0.136874822188515
0.439267353925919 0.218184517025725 -0.117196419109258
0.445102095738542 0.218184517025725 -0.097254087732082
0.450654872213997 0.218184517025725 -0.077288991384190
0.455378052621663 0.218184517025725 -0.058140956940089
0.458852303762433 0.218184517025725 -0.040408461972570
0.461170214393153 0.218184517025725 -0.023334079445306
0.462357023278895 0.218184517025725 -0.006150832340485
0.462096250304130 0.218184517025725 0.011170239279230
0.460244299396849 0.218184517025725 0.027760718608455
0.456966655621173 0.218184517025725 0.042608230123505
0.452429799778935 0.218184517025725 0.056296431243724
0.446712799665962 0.218184517025725 0.069496669775644
0.440092946393142 0.218184517025725 0.081869757827489
0.432905405968064 0.218184517025725 0.093132712563429
0.425150839829307 0.218184517025725 0.103539536603168
0.416757374803429 0.218184517025725 0.113333511240150
0.407773431786745 0.218184517025725 0.122482545567681
0.398130254428511 0.218184517025725 0.131028744505865
0.387746499617185 0.218184517025725 0.138991835288310
0.376748766775209 0.218184517025725 0.146215599091675
0.365278169819788 0.218184517025725 0.152558554415371
0.353386365151971 0.218184517025725 0.157976099194336
0.341132809312527 0.218184517025725 0.162434123361389
0.328423410038931 0.218184517025725 0.165931154295573
0.315167497481372 0.218184517025725 0.168452214960256
0.301592067929468 0.218184517025725 0.169929294138585
0.287925798025072 0.218184517025725 0.170334937954414
0.274086254483504 0.218184517025725 0.169670562305873
0.259989700698272 0.218184517025725 0.167924076322950
0.245854149146571 0.218184517025725 0.165126747048579
0.231886177333893 0.218184517025725 0.161336592264007
0.218130524492346 0.218184517025725 0.156605142626475
0.204626697890049 0.218184517025725 0.150981651888832
0.190855991671817 0.218184517025725 0.144166787811779
0.176360978720736 0.218184517025725 0.135815286474909
0.161804222560921 0.218184517025725 0.126212473195131
0.147782244539224 0.218184517025725 0.115700073976588
0.134322561461249 0.218184517025725 0.104343525574140
0.121452472735852 0.218184517025725 0.092202157925142
0.109199587620390 0.218184517025725 0.079330880661512
0.097592079916954 0.218184517025725 0.065781448642728
0.086658817779136 0.218184517025725 0.051603408534631
0.076429462045458 0.218184517025725 0.036844817997237
0.066894984615847 0.218184517025725 0.021478795497807
0.058055066618180 0.218184517025725 0.005474626174454
0.049997338508470 0.218184517025725 -0.011053891739775
0.042804627941114 0.218184517025725 -0.027988316966826
0.036537995574650 0.218184517025725 -0.045198305360011
0.031246755239103 0.218184517025725 -0.062547587571691
0.026916700295571 0.218184517025725 -0.080054367853882
0.023533604494539 0.218184517025725 -0.097737253152941
0.021110877683901 0.218184517025725 -0.115535774501062
0.019660535514374 0.218184517025725 -0.133388835857080
0.019193847794428 0.218184517025725 -0.151234613448320
0.019721607035324 0.218184517025725 -0.169010215148695
0.021254357569623 0.218184517025725 -0.186651223643832
0.023802548179674 0.218184517025725 -0.204091100599341
0.027281648620878 0.218184517025725 -0.220940168806630
0.031564146867348 0.218184517025725 -0.236812020926243
0.036670282217842 0.218184517025725 -0.251982086992696
0.042657967019354 0.218184517025725 -0.266724440984847
0.049525781134825 0.218184517025725 -0.280973646958132
0.057104784446911 0.218184517025725 -0.294423246668060
0.065185649530780 0.218184517025725 -0.306782711474135
0.073853163074801 0.218184517025725 -0.318268911429082
0.083222934155058 0.218184517025725 -0.329087955391379
0.093270430322439 0.218184517025725 -0.339183563089937
0.103965265362771 0.218184517025725 -0.348500628526297
0.115219490250088 0.218184517025725 -0.356955303592424
0.126933699544050 0.218184517025725 -0.364475376579503
0.139100245775631 0.218184517025725 -0.371064778532879
0.151711899220442 0.218184517025725 -0.376727972003212
0.164711132768865 0.218184517025725 -0.381439038224723
0.177947683050793 0.218184517025725 -0.385161902082301
0.191267613744889 0.218184517025725 -0.387877312863209
0.204695955102527 0.218184517025725 -0.389601588933474
0.218262667980944 0.218184517025725 -0.390325919689746
0.231626992644978 0.218184517025725 -0.390074824389188
0.244437239493097 0.218184517025725 -0.388936541284298
0.256916129918994 0.218184517025725 -0.386935162296373
0.269297799911490 0.218184517025725 -0.384031671607261
0.281522611336715 0.218184517025725 -0.380205099505109
0.293863575174631 0.218184517025725 -0.375262768131622
0.306506050415460 0.218184517025725 -0.368918018992273
0.318874480815893 0.218184517025725 -0.361178989152707
0.330463813399003 0.218184517025725 -0.352234035661785
0.341218911304541 0.218184517025725 -0.342263944251900
0.351495957936047 0.218184517025725 -0.330830186006573
0.361593825612459 0.218184517025725 -0.317449071333355
0.371088486225779 0.218184517025725 -0.302787780356906
0.379702729340401 0.218184517025725 -0.287514639826226
0.387579016540135 0.218184517025725 -0.271716299705134
0.395036684726443 0.218184517025725 -0.254722968924885
0.402341230326348 0.218184517025725 -0.235865298232768
0.409330682918834 0.218184517025725 -0.215907715904231
0.415823415077520 0.218184517025725 -0.195871899742286
0.421850972553355 0.218184517025725 -0.176099654804222
0.436136219932706 0.239933301598898 -0.163519752571892
0.443141194587341 0.239933301598898 -0.142750506779584
0.450255593909457 0.239933301598898 -0.121866161867187
0.457486078285187 0.239933301598898 -0.100677305403072
0.464500106966860 0.239933301598898 -0.079446823358523
0.470613554363487 0.239933301598898 -0.059132624957100
0.475302974266020 0.239933301598898 -0.040415335786397
0.478712555287992 0.239933301598898 -0.022409298017162
0.480909484598520 0.239933301598898 -0.004217796484179
0.481526179655619 0.239933301598898 0.014205991817078
0.480358097522419 0.239933301598898 0.031860761621310
0.477557533450350 0.239933301598898 0.047574490026269
0.473344839055449 0.239933301598898 0.062031918821181
0.467837819566280 0.239933301598898 0.076018307700780
0.461341598979248 0.239933301598898 0.089139129708676
0.454230030977698 0.239933301598898 0.101062601603073
0.446509919045641 0.239933301598898 0.112087371714870
0.438103651884126 0.239933301598898 0.122501151681419
0.429062146443625 0.239933301598898 0.132269909237470
0.419303536608155 0.239933301598898 0.141448942776612
0.408730205778775 0.239933301598898 0.150068006791327
0.397477951941954 0.239933301598898 0.157946287138078
0.385699770333599 0.239933301598898 0.164918906777185
0.373448631927796 0.239933301598898 0.170935507110647
0.360786719224666 0.239933301598898 0.175957166530498
0.347599555104327 0.239933301598898 0.179987481588593
0.333775806100665 0.239933301598898 0.183013827153399
0.319569879091481 0.239933301598898 0.184951003062990
0.305239756266871 0.239933301598898 0.185760290675435
0.290683963793328 0.239933301598898 0.185446333673865
0.275798934956990 0.239933301598898 0.183997710460533
0.260832560397348 0.239933301598898 0.181442906174332
0.246020521349085 0.239933301598898 0.177841445572050
0.231410555228628 0.239933301598898 0.173250251748627
0.217044247860448 0.239933301598898 0.167723342931458
0.202302349927803 0.239933301598898 0.160928314729867
0.186633099193378 0.239933301598898 0.152475923979116
0.170810671926209 0.239933301598898 0.142672209422146
0.155536743127405 0.239933301598898 0.131891670890683
0.140839923668867 0.239933301598898 0.120205672665019
0.126748526585698 0.239933301598898 0.107678034025012
0.113291274787595 0.239933301598898 0.094367005623733
0.100497673575080 0.239933301598898 0.080326766933632
0.088398222477643 0.239933301598898 0.065608557369441
0.077024578351435 0.239933301598898 0.050261543680857
0.066360810416116 0.239933301598898 0.034248686864264
0.056401282630851 0.239933301598898 0.017527923550554
0.047248641357776 0.239933301598898 0.000222244383503
0.039000491054149 0.239933301598898 -0.017539967518629
0.031729857288594 0.239933301598898 -0.035615889975949
0.025496634210262 0.239933301598898 -0.053855567418289
0.020281212821983 0.239933301598898 -0.072286868759586
0.016064338133198 0.239933301598898 -0.090938206855451
0.012862336528669 0.239933301598898 -0.109746953937349
0.010690330805631 0.239933301598898 -0.128649749611621
0.009563004670175 0.239933301598898 -0.147582376674125
0.009494932146519 0.239933301598898 -0.166479344416650
0.010500864329176 0.239933301598898 -0.185273335055114
0.012595931270307 0.239933301598898 -0.203894485696655
0.015697110705753 0.239933301598898 -0.221893041639428
0.019671707442053 0.239933301598898 -0.238821963528240
0.024534649829551 0.239933301598898 -0.255009556535303
0.030345027943674 0.239933301598898 -0.270783144995292
0.037105988166027 0.239933301598898 -0.286072966964175
0.044635418600763 0.239933301598898 -0.300523021976975
0.052704304753134 0.239933301598898 -0.313794517099729
0.061406441896989 0.239933301598898 -0.326147875147901
0.070871866451897 0.239933301598898 -0.337831451699063
0.081078160231586 0.239933301598898 -0.348783977330279
0.091996365304518 0.239933301598898 -0.358945002202866
0.103532134122807 0.239933301598898 -0.368218314503858
0.115577665647669 0.239933301598898 -0.376520421228581
0.128128943676378 0.239933301598898 -0.383859073013593
0.141182641620797 0.239933301598898 -0.390242261980856
0.154678464038789 0.239933301598898 -0.395640523978111
0.168449221933990 0.239933301598898 -0.400008800081489
0.182323072065518 0.239933301598898 -0.403320943002478
0.196334269796666 0.239933301598898 -0.405598148907630
0.210523675703345 0.239933301598898 -0.406832273861620
0.224502336481610 0.239933301598898 -0.407039542870134
0.237867287847704 0.239933301598898 -0.406308805561610
0.250881190914632 0.239933301598898 -0.404675670724594
0.263821287517511 0.239933301598898 -0.402103148119786
0.276625290258636 0.239933301598898 -0.398563796832470
0.289620755401932 0.239933301598898 -0.393843925706806
0.303038323569683 0.239933301598898 -0.387616554143357
0.316219877042163 0.239933301598898 -0.379866315819153
0.328581817722722 0.239933301598898 -0.370788798396218
0.340060202424013 0.239933301598898 -0.360586962242806
0.351086150605149 0.239933301598898 -0.348755658061630
0.362025067361915 0.239933301598898 -0.334732841299747
0.372366862102059 0.239933301598898 -0.319277265923243
0.381771542694362 0.239933301598898 -0.303157936032411
0.390404999466781 0.239933301598898 -0.286477651111530
0.398662845216063 0.239933301598898 -0.268457474036402
0.406880180913676 0.239933301598898 -0.248315196264207
0.414850433872803 0.239933301598898 -0.226937414500017
0.422333914866100 0.239933301598898 -0.205512517162242
0.429359838057146 0.239933301598898 -0.184434012510541
0.443856317412785 0.261669882900104 -0.170788613239146
0.452161718187511 0.261669882900104 -0.148831479941597
0.460678113308770 0.261669882900104 -0.126755855722844
0.469451160970747 0.261669882900104 -0.104337665906427
0.478085820725358 0.261669882900104 -0.081860091990832
0.485740563450969 0.261669882900104 -0.060402812301933
0.491771762378642 0.261669882900104 -0.040730778946043
0.496387769217721 0.261669882900104 -0.021822226410262
0.499709844429630 0.261669882900104 -0.002642823189750
0.501315847774031 0.261669882900104 0.016875143781120
0.500927511146279 0.261669882900104 0.035589462421512
0.498674656160030 0.261669882900104 0.052157611077380
0.494843007067861 0.261669882900104 0.067371953072314
0.489599026249147 0.261669882900104 0.082139101409590
0.483274620431475 0.261669882900104 0.096004456575104
0.476282387521423 0.261669882900104 0.108582606422693
0.468638030447574 0.261669882900104 0.120219746680602
0.460260120588674 0.261669882900104 0.131251317101976
0.451202083969040 0.261669882900104 0.141641252121136
0.441368703614785 0.261669882900104 0.151459733697711
0.430645422681959 0.261669882900104 0.160748221217121
0.419176456293553 0.261669882900104 0.169299390486044
0.407126162035822 0.261669882900104 0.176922941852475
0.394548497774893 0.261669882900104 0.183562435283658
0.381508184090683 0.261669882900104 0.189173794279429
0.367869007754905 0.261669882900104 0.193767143956232
0.353497404851276 0.261669882900104 0.197333469772116
0.338676116622732 0.261669882900104 0.199767905811764
0.323693858347541 0.261669882900104 0.201018318997720
0.308428695293425 0.261669882900104 0.201093763258042
0.292755600396889 0.261669882900104 0.199984504432523
0.276954307687934 0.261669882900104 0.197714689953918
0.261291747428712 0.261669882900104 0.194344161438673
0.245818998809124 0.261669882900104 0.189935545966210
0.230579951229230 0.261669882900104 0.184547921223960
0.214845030250252 0.261669882900104 0.177817979752189
0.197957783051096 0.261669882900104 0.169313332380405
0.180813668391213 0.261669882900104 0.159357085791768
0.164229775458701 0.261669882900104 0.148354310816935
0.148235960636106 0.261669882900104 0.136382717502142
0.132861617048428 0.261669882900104 0.123510891386165
0.118136596185700 0.261669882900104 0.109800577877103
0.104091723069500 0.261669882900104 0.095308428230992
0.090759108906464 0.261669882900104 0.080087329617405
0.078172393787790 0.261669882900104 0.064187432736286
0.066307401946119 0.261669882900104 0.047560900122119
0.055151909945209 0.261669882900104 0.030153492446211
0.044825111684584 0.261669882900104 0.012097284378010
0.035440955931424 0.261669882900104 -0.006469439494860
0.027085902056082 0.261669882900104 -0.025391082156091
0.019831841688166 0.261669882900104 -0.044503551123216
0.013652610274595 0.261669882900104 -0.063845102953437
0.008522806542417 0.261669882900104 -0.083454712564270
0.004461863724555 0.261669882900104 -0.103267753307691
0.001488234258648 0.261669882900104 -0.123218768793599
-0.000379717865439 0.261669882900104 -0.143241328013273
-0.001123317078258 0.261669882900104 -0.163267528397446
-0.000723221242863 0.261669882900104 -0.183227339399975
0.000840840771744 0.261669882900104 -0.203047753621775
0.003490534812971 0.261669882900104 -0.222214230659283
0.007090662795017 0.261669882900104 -0.240214145088771
0.011647567381387 0.261669882900104 -0.257433035484028
0.017218752179157 0.261669882900104 -0.274256060086860
0.023812483192292 0.261669882900104 -0.290609233540632
0.031235033156642 0.261669882900104 -0.306082639639223
0.039238740789281 0.261669882900104 -0.320284717919790
0.047924825876391 0.261669882900104 -0.333523542082100
0.057436619542410 0.261669882900104 -0.346093886870342
0.067754267846827 0.261669882900104 -0.357929422305931
0.078850671339899 0.261669882900104 -0.368964217610332
0.090625312184414 0.261669882900104 -0.379088620626042
