ply
format ascii 1.0
element vertex 866
property double x
property double y
property double z
end_header
-0.184996126263827 0.025603478068260 0.093016570134316
-0.185697640974024 0.025603478068260 0.102857682774138
-0.187018307870522 0.025603478068260 0.112637929867777
-0.189152392574919 0.025603478068260 0.122313672054152
-0.192081284046690 0.025603478068260 0.131851147473823
-0.195817257216998 0.025603478068260 0.141255529645611
-0.200373468718547 0.025603478068260 0.150525176093893
-0.205703841712234 0.025603478068260 0.159581276481001
-0.211774909758855 0.025603478068260 0.168367837075093
-0.218578433947657 0.025603478068260 0.176867047657974
-0.226072512973665 0.025603478068260 0.185031249189962
-0.234211692843990 0.025603478068260 0.192815124950084
-0.242963550770041 0.025603478068260 0.200189312255753
-0.252348849760744 0.025603478068260 0.207151999011580
-0.262384632431006 0.025603478068260 0.213695575426598
-0.272980022569467 0.025603478068260 0.219758912325166
-0.284043225312250 0.025603478068260 0.225291079312944
-0.295530688105024 0.025603478068260 0.230272909029671
-0.307415413915179 0.025603478068260 0.234691099334167
-0.319669220716735 0.025603478068260 0.238532796846306
-0.332227114651019 0.025603478068260 0.241778407232613
-0.345066538427759 0.025603478068260 0.244416099363862
-0.358180047707318 0.025603478068260 0.246437778286472
-0.371474003198845 0.025603478068260 0.247827395175231
-0.384855693919676 0.025603478068260 0.248574926970214
-0.398273767219225 0.025603478068260 0.248678976093676
-0.411676737298424 0.025603478068260 0.248140283142429
-0.425013156997025 0.025603478068260 0.246961771083246
-0.438231795146886 0.025603478068260 0.245148564912086
-0.451281819052607 0.025603478068260 0.242707985919321
-0.464072618157248 0.025603478068260 0.239659537587940
-0.476513444443803 0.025603478068260 0.236028271520065
-0.488597897990250 0.025603478068260 0.231822812295222
-0.500305078249110 0.025603478068260 0.227056676910334
-0.511573015255166 0.025603478068260 0.221755341102758
-0.522375424788250 0.025603478068260 0.215934659499996
-0.532687401571322 0.025603478068260 0.209610987913305
-0.542468568660471 0.025603478068260 0.202807623916036
-0.551638271404989 0.025603478068260 0.195576095660986
-0.560118146004391 0.025603478068260 0.187974779884047
-0.567921183010918 0.025603478068260 0.180010989284797
-0.575062785826548 0.025603478068260 0.171687273401551
-0.581513553186866 0.025603478068260 0.163031054022272
-0.587244330207319 0.025603478068260 0.154066508044993
-0.592187795103127 0.025603478068260 0.144874398647672
-0.596278262269400 0.025603478068260 0.135554259358601
-0.599540007793217 0.025603478068260 0.126097517058704
-0.601997683545412 0.025603478068260 0.116484463120746
-0.603629993118297 0.025603478068260 0.106754888247158
-0.604429382558182 0.025603478068260 0.096985998913819
-0.604404492677294 0.025603478068260 0.087260516990599
-0.603570804969904 0.025603478068260 0.077591462014451
-0.601939265471794 0.025603478068260 0.067986334961350
-0.599499884501096 0.025603478068260 0.058457504738685
-0.596242162595468 0.025603478068260 0.049023294741202
-0.592188675829426 0.025603478068260 0.039763333371017
-0.587372875293794 0.025603478068260 0.030746094091844
-0.581822780851259 0.025603478068260 0.022000327276417
-0.575509561679576 0.025603478068260 0.013508026002643
-0.568405902119738 0.025603478068260 0.005268350480966
-0.560591104824421 0.025603478068260 -0.002628582526781
-0.552145739532381 0.025603478068260 -0.010114595912238
-0.543104788057838 0.025603478068260 -0.017172301249440
-0.533442405720642 0.025603478068260 -0.023802764589408
-0.523136713358394 0.025603478068260 -0.029999442077616
-0.512285466285253 0.025603478068260 -0.035711168054763
-0.500986149633311 0.025603478068260 -0.040894743691027
-0.489229864361703 0.025603478068260 -0.045542940739035
-0.477010871361160 0.025603478068260 -0.049645920771591
-0.464426843754540 0.025603478068260 -0.053173063896864
-0.451575440246017 0.025603478068260 -0.056099782046314
-0.438506170335918 0.025603478068260 -0.058415486409231
-0.425269437967965 0.025603478068260 -0.060111612303861
-0.411916328284328 0.025603478068260 -0.061181781999942
-0.398498397022336 0.025603478068260 -0.061621902799487
-0.385067461851078 0.025603478068260 -0.061430222806958
-0.371675393801874 0.025603478068260 -0.060607355847388
-0.358373908430756 0.025603478068260 -0.059156279748632
-0.345214357488803 0.025603478068260 -0.057082308580488
-0.332247521434583 0.025603478068260 -0.054393036166787
-0.319523401228579 0.025603478068260 -0.051098242149475
-0.307091008078543 0.025603478068260 -0.047209743861446
-0.295053424513539 0.025603478068260 -0.042757139197625
-0.283514317018691 0.025603478068260 -0.037776990435882
-0.272460948102525 0.025603478068260 -0.032277731685682
-0.261876670114558 0.025603478068260 -0.026264774659804
-0.251802298395587 0.025603478068260 -0.019759188794431
-0.242320738162362 0.025603478068260 -0.012806662432293
-0.233513152966494 0.025603478068260 -0.005459431475590
-0.225366474242921 0.025603478068260 0.002274335074431
-0.217865141351736 0.025603478068260 0.010392045598733
-0.211040226128899 0.025603478068260 0.018872946041628
-0.204925522392030 0.025603478068260 0.027703261793394
-0.199621340304332 0.025603478068260 0.036765106560744
-0.195235214064138 0.025603478068260 0.045877486140109
-0.191695458654652 0.025603478068260 0.055067987043907
-0.188911294425029 0.025603478068260 0.064413930156130
-0.186894296706509 0.025603478068260 0.073878899111740
-0.185653078626033 0.025603478068260 0.083426086448321
-0.181232867329773 0.051111844172356 0.096728350948766
-0.182042662405078 0.051111844172356 0.106858781088788
-0.183487784625020 0.051111844172356 0.116903795059702
-0.185759682844507 0.051111844172356 0.126813948004592
-0.188829026438783 0.051111844172356 0.136560044504062
-0.192733360270346 0.051111844172356 0.146193715273044
-0.197515386771588 0.051111844172356 0.155751812281150
-0.203098499553229 0.051111844172356 0.165108902007230
-0.209435223560018 0.051111844172356 0.174186280965555
-0.216533538188937 0.051111844172356 0.182984147028563
-0.224334668254181 0.051111844172356 0.191438899061573
-0.232775464547598 0.051111844172356 0.199490474432186
-0.241822647826303 0.051111844172356 0.207110689905248
-0.251555494398905 0.051111844172356 0.214327185751878
-0.262048400382861 0.051111844172356 0.221153653833348
-0.273154638760858 0.051111844172356 0.227489741161825
-0.284727484401951 0.051111844172356 0.233254351641546
-0.296722407564879 0.051111844172356 0.238430895582053
-0.309131030897997 0.051111844172356 0.243012679935151
-0.321944163376924 0.051111844172356 0.246991556751530
-0.335077737105087 0.051111844172356 0.250342986625265
-0.348537042419887 0.051111844172356 0.253055869066255
-0.362359948483497 0.051111844172356 0.255124265975904
-0.376405976506942 0.051111844172356 0.256523526254313
-0.390537018001461 0.051111844172356 0.257239033696950
-0.404701476090001 0.051111844172356 0.257271365648712
-0.418847654930936 0.051111844172356 0.256622877208323
-0.432923893263858 0.051111844172356 0.255297791216022
-0.446878709393682 0.051111844172356 0.253302246866730
-0.460660957434032 0.051111844172356 0.250644305155803
-0.474136025290734 0.051111844172356 0.247355418502712
-0.487168276614661 0.051111844172356 0.243476029883292
-0.499796128124044 0.051111844172356 0.239008686078591
-0.512026393309452 0.051111844172356 0.233963886815629
-0.523779126577909 0.051111844172356 0.228375157772034
-0.535046551428753 0.051111844172356 0.222253211392437
-0.545821807423150 0.051111844172356 0.215607567845225
-0.556063863672106 0.051111844172356 0.208460279986515
-0.565645794501326 0.051111844172356 0.200891002736512
-0.574443155125840 0.051111844172356 0.192991786171083
-0.582518021218788 0.051111844172356 0.184745128774042
-0.589934504075210 0.051111844172356 0.176121994672411
-0.596661272714105 0.051111844172356 0.167144340334810
-0.602664541772310 0.051111844172356 0.157826105805484
-0.607828619074268 0.051111844172356 0.148299254187430
-0.612038943099155 0.051111844172356 0.138733657821593
-0.615362930253454 0.051111844172356 0.129071016518992
-0.617864923411318 0.051111844172356 0.119229253175554
-0.619511888087265 0.051111844172356 0.109250283652202
-0.620295477659548 0.051111844172356 0.099253287236821
-0.620236888138554 0.051111844172356 0.089368399432403
-0.619367359637328 0.051111844172356 0.079580803671926
-0.617705483378006 0.051111844172356 0.069864584761390
-0.615224264244659 0.051111844172356 0.060204245342029
-0.611892231789343 0.051111844172356 0.050596942493285
-0.607742105561287 0.051111844172356 0.041167726380095
-0.602825548509913 0.051111844172356 0.032019387437368
-0.597179778814089 0.051111844172356 0.023173191532654
-0.590722381544428 0.051111844172356 0.014554409378206
-0.583370588864451 0.051111844172356 0.006124976641263
-0.575258211451533 0.051111844172356 -0.001962597215441
-0.566519467763314 0.051111844172356 -0.009599817103820
-0.557191699941330 0.051111844172356 -0.016782497235678
-0.547183812766177 0.051111844172356 -0.023542798251761
-0.536410070027155 0.051111844172356 -0.029895170769458
-0.525030588698960 0.051111844172356 -0.035759750769830
-0.513203172892681 0.051111844172356 -0.041071240291833
-0.500862288191225 0.051111844172356 -0.045836467557885
-0.487946961691712 0.051111844172356 -0.050054504359711
-0.474610232006995 0.051111844172356 -0.053679463499812
-0.461003923605216 0.051111844172356 -0.056675587801793
-0.447178079111669 0.051111844172356 -0.059033473284467
-0.433183640999629 0.051111844172356 -0.060745335462067
-0.419072231450248 0.051111844172356 -0.061805311683162
-0.404895939088908 0.051111844172356 -0.062209637990094
-0.390707110819380 0.051111844172356 -0.061956747641000
-0.376558144450511 0.051111844172356 -0.061047315365649
-0.362501280835132 0.051111844172356 -0.059484256178286
-0.348588396593081 0.051111844172356 -0.057272679984400
-0.334870797581952 0.051111844172356 -0.054419796347556
-0.321399009398202 0.051111844172356 -0.050934751044953
-0.308222561779087 0.051111844172356 -0.046828359189821
-0.295505150774786 0.051111844172356 -0.042146463217358
-0.283412853426809 0.051111844172356 -0.036947008116660
-0.271870980160925 0.051111844172356 -0.031226176678397
-0.260798918884858 0.051111844172356 -0.024971581037522
-0.250237581309261 0.051111844172356 -0.018201608387867
-0.240317678710758 0.051111844172356 -0.010984438117687
-0.231168495583458 0.051111844172356 -0.003400069866248
-0.222726290527209 0.051111844172356 0.004566063413264
-0.214925054948513 0.051111844172356 0.012941885536433
-0.207798181996302 0.051111844172356 0.021718551633358
-0.201387590464364 0.051111844172356 0.030903076533390
-0.195875312422239 0.051111844172356 0.040284827445086
-0.191458170060896 0.051111844172356 0.049524634823864
-0.187970144593993 0.051111844172356 0.058721042219307
-0.185212249307979 0.051111844172356 0.068075311128900
-0.183196346048030 0.051111844172356 0.077552276252526
-0.181931558756419 0.051111844172356 0.087116455787515
-0.178314809508643 0.076530362971784 0.101031101768412
-0.179239988926121 0.076530362971784 0.111412760794868
-0.180815790401862 0.076530362971784 0.121682817482397
-0.183230467382085 0.076530362971784 0.131785804646731
-0.186443846811728 0.076530362971784 0.141697523603934
-0.190520590235228 0.076530362971784 0.151519547958120
-0.195535029010621 0.076530362971784 0.161330239412932
-0.201378005302375 0.076530362971784 0.170954035272081
-0.207986951578545 0.076530362971784 0.180287831439673
-0.215387146712812 0.076530362971784 0.189351428742877
-0.223501684395881 0.076530362971784 0.198064239241036
-0.232248479596079 0.076530362971784 0.206350582055888
-0.241593393595582 0.076530362971784 0.214183866443713
-0.251677949612118 0.076530362971784 0.221623550205573
-0.262637851260771 0.076530362971784 0.228706372271491
-0.274266868318693 0.076530362971784 0.235289899170869
-0.286359480027107 0.076530362971784 0.241260702704527
-0.298870226879464 0.076530362971784 0.246605280081782
-0.311810740556480 0.076530362971784 0.251324198749797
-0.325192230558563 0.076530362971784 0.255414462412681
-0.338910336788766 0.076530362971784 0.258846509104925
-0.353000336936747 0.076530362971784 0.261609873998235
-0.367548965299711 0.076530362971784 0.263700624021218
-0.382365654409203 0.076530362971784 0.265085292036169
-0.397263593150514 0.076530362971784 0.265744818059921
-0.412191121456824 0.076530362971784 0.265682080385798
-0.427096526341612 0.076530362971784 0.264901303326523
-0.441928132900386 0.076530362971784 0.263408197262609
-0.456634412717435 0.076530362971784 0.261210038293451
-0.471164109607518 0.076530362971784 0.258315684714505
-0.485335552347769 0.076530362971784 0.254770137917132
-0.498965292487271 0.076530362971784 0.250631045578935
-0.512140066293861 0.076530362971784 0.245893680003757
-0.524896540798164 0.076530362971784 0.240564796916841
-0.537135755649467 0.076530362971784 0.234686649132444
-0.548869803894492 0.076530362971784 0.228263947975487
-0.560111183005595 0.076530362971784 0.221298359834465
-0.570818263053604 0.076530362971784 0.213810293983327
-0.580814704929202 0.076530362971784 0.205910134538511
-0.589927027282600 0.076530362971784 0.197726591361026
-0.598269591896907 0.076530362971784 0.189214517294742
-0.605958154367617 0.076530362971784 0.180310017194189
-0.612959260453645 0.076530362971784 0.171028959820548
-0.619234111242445 0.076530362971784 0.161374200043382
-0.624615652729183 0.076530362971784 0.151533900866173
-0.628938400200155 0.076530362971784 0.141754472737079
-0.632315766636530 0.076530362971784 0.131923307442524
-0.634853874799673 0.076530362971784 0.121890689922549
-0.636507887517111 0.076530362971784 0.111700659001415
-0.637269040778622 0.076530362971784 0.101516812445801
-0.637171796849521 0.076530362971784 0.091519178261721
-0.636263303012408 0.076530362971784 0.081662728044815
-0.634569618882185 0.076530362971784 0.071885734417079
-0.632046189069976 0.076530362971784 0.062142909649149
-0.628639770668013 0.076530362971784 0.052408615945905
-0.624393641975761 0.076530362971784 0.042855807956568
-0.619378369041888 0.076530362971784 0.033623545431349
-0.613640485615012 0.076530362971784 0.024725035016550
-0.607041174048005 0.076530362971784 0.016025396819448
-0.599438884939917 0.076530362971784 0.007446946508894
-0.591024793335539 0.076530362971784 -0.000791498095610
-0.581990200049961 0.076530362971784 -0.008538548776490
-0.572375029717742 0.076530362971784 -0.015804375355083
-0.562018762992291 0.076530362971784 -0.022654030353452
-0.550767321228464 0.076530362971784 -0.029124083393059
-0.538847502147936 0.076530362971784 -0.035104734138125
-0.526481945900716 0.076530362971784 -0.040507860854229
-0.513544104576379 0.076530362971784 -0.045355109983369
-0.499913249247250 0.076530362971784 -0.049654837442564
-0.485802005176688 0.076530362971784 -0.053345655498950
-0.471420656569378 0.076530362971784 -0.056380672526081
-0.456819575762767 0.076530362971784 -0.058752061826883
-0.442050017054653 0.076530362971784 -0.060453123342774
-0.427163896196953 0.076530362971784 -0.061478739069674
-0.412213579754525 0.076530362971784 -0.061825636574468
-0.397251681997072 0.076530362971784 -0.061492534641957
-0.382330862819893 0.076530362971784 -0.060480208821346
-0.367503624805915 0.076530362971784 -0.058791490665985
-0.352822111184972 0.076530362971784 -0.056431202614009
-0.338337905054026 0.076530362971784 -0.053406019711433
-0.324101824287157 0.076530362971784 -0.049724229309060
-0.310163707687276 0.076530362971784 -0.045395333424830
-0.296752550092641 0.076530362971784 -0.040482934901109
-0.284101363260145 0.076530362971784 -0.035068217997977
-0.272068525355434 0.076530362971784 -0.029133444406299
-0.260504700820883 0.076530362971784 -0.022646343900282
-0.249450852582841 0.076530362971784 -0.015622055596936
-0.239089025903482 0.076530362971784 -0.008153113260417
-0.229600002001972 0.076530362971784 -0.000349624013278
-0.220865880264534 0.076530362971784 0.007828069375661
-0.212766977045061 0.076530362971784 0.016441338346611
-0.205339300288035 0.076530362971784 0.025494276638662
-0.198633582123246 0.076530362971784 0.035016219543715
-0.192918251531498 0.076530362971784 0.044695033295841
-0.188481086671942 0.076530362971784 0.054022027390521
-0.185056770888202 0.076530362971784 0.063173991416644
-0.182335650503880 0.076530362971784 0.072485222186883
-0.180329858851565 0.076530362971784 0.081922063796217
-0.179049016789306 0.076530362971784 0.091450621048852
-0.176039189519372 0.101864299126041 0.105836799372816
-0.177084373731901 0.101864299126041 0.116431806419384
-0.178794555428030 0.101864299126041 0.126887694463607
-0.181354446023647 0.101864299126041 0.137142834968571
-0.184712955012072 0.101864299126041 0.147178395624542
-0.188963773480569 0.101864299126041 0.157148963041862
-0.194214996921732 0.101864299126041 0.167177078741289
-0.200322828883227 0.101864299126041 0.177033872556151
-0.207208481729555 0.101864299126041 0.186590291999444
-0.214915633969170 0.101864299126041 0.195887184736471
-0.223347963468459 0.101864299126041 0.204826057207665
-0.232403194818618 0.101864299126041 0.213314865353377
-0.242046341336045 0.101864299126041 0.221329024315469
-0.252484930801863 0.101864299126041 0.228961857113187
-0.263919964778458 0.101864299126041 0.236274633091427
-0.276082029879335 0.101864299126041 0.243080310620638
-0.288702903328892 0.101864299126041 0.249231235266773
-0.301736256043213 0.101864299126041 0.254717497979791
-0.315215135686091 0.101864299126041 0.259547491270027
-0.329172576213538 0.101864299126041 0.263723734103883
-0.343482706710074 0.101864299126041 0.267211643997491
-0.358212950657493 0.101864299126041 0.270001189376615
-0.373502496215789 0.101864299126041 0.272090118622881
-0.389107418908790 0.101864299126041 0.273436114666117
-0.404788871930315 0.101864299126041 0.274015988222622
-0.420495324714401 0.101864299126041 0.273835239462060
-0.436175251040960 0.101864299126041 0.272900209595546
-0.451777173156674 0.101864299126041 0.271218275481315
-0.467249729364464 0.101864299126041 0.268797962536829
-0.482541764948604 0.101864299126041 0.265648972146845
-0.497421486944572 0.101864299126041 0.261831561301228
-0.511654722789947 0.101864299126041 0.257422475144971
-0.525380052500586 0.101864299126041 0.252408363508516
-0.538666144533098 0.101864299126041 0.246791413033434
-0.551393994542502 0.101864299126041 0.240623280268075
-0.563596922825556 0.101864299126041 0.233901761070777
-0.575308092255245 0.101864299126041 0.226619605286699
-0.586485327541624 0.101864299126041 0.218795161290399
-0.596899738555014 0.101864299126041 0.210572124619192
-0.606325865208371 0.101864299126041 0.202118779591011
-0.614933525415418 0.101864299126041 0.193359466375881
-0.622893007046962 0.101864299126041 0.184192186078729
-0.630168510407838 0.101864299126041 0.174626120141598
-0.636715788913741 0.101864299126041 0.164652260375427
-0.642313429493433 0.101864299126041 0.154519890546590
-0.646743069686367 0.101864299126041 0.144557930213979
-0.650166947984681 0.101864299126041 0.134595075646795
-0.652734989386213 0.101864299126041 0.124409034142001
-0.654390543931430 0.101864299126041 0.114045989015738
-0.655124864228937 0.101864299126041 0.103716055359126
-0.654986395669501 0.101864299126041 0.093651168024596
-0.654038237930687 0.101864299126041 0.083773880541721
-0.652313656692685 0.101864299126041 0.073984541489510
-0.649750002012219 0.101864299126041 0.064206437162821
-0.646271479048397 0.101864299126041 0.054389727328580
-0.641932321999973 0.101864299126041 0.044757343392391
-0.636822653823203 0.101864299126041 0.035486266107831
-0.630998400846745 0.101864299126041 0.026581151338991
-0.624261553076702 0.101864299126041 0.017844210375132
-0.616408454519702 0.101864299126041 0.009156229406719
-0.607690477705351 0.101864299126041 0.000805652858554
-0.598359464751606 0.101864299126041 -0.007011091876280
-0.588458157277535 0.101864299126041 -0.014319614081573
-0.577752446327639 0.101864299126041 -0.021219181866773
-0.566015411508121 0.101864299126041 -0.027769218919141
-0.553544870917614 0.101864299126041 -0.033829208764383
-0.540632848562122 0.101864299126041 -0.039287882179742
-0.527087365937946 0.101864299126041 -0.044182166008903
-0.512723365761230 0.101864299126041 -0.048529816742294
-0.497817305133867 0.101864299126041 -0.052254039174451
-0.482642254309694 0.101864299126041 -0.055297125719001
-0.467248690610642 0.101864299126041 -0.057653219666206
-0.451687933354609 0.101864299126041 -0.059317006628978
-0.436011929708016 0.101864299126041 -0.060284337194112
-0.420273051951381 0.101864299126041 -0.060552585412454
-0.404523903892756 0.101864299126041 -0.060120846253391
-0.388817128043092 0.101864299126041 -0.058990024590488
-0.373205211411584 0.101864299126041 -0.057162834856323
-0.357740292787404 0.101864299126041 -0.054643714099754
-0.342473972488686 0.101864299126041 -0.051438636269237
-0.327457117530635 0.101864299126041 -0.047554787499362
-0.312739657049968 0.101864299126041 -0.043000025388331
-0.298620588004908 0.101864299126041 -0.037857274590955
-0.285404375423465 0.101864299126041 -0.032232810513973
-0.272877465472429 0.101864299126041 -0.026093185826056
-0.260817048738589 0.101864299126041 -0.019384098349805
-0.249264098290465 0.101864299126041 -0.012116854679118
-0.238455530734854 0.101864299126041 -0.004410147467936
-0.228627004880424 0.101864299126041 0.003593561365705
-0.219603008003455 0.101864299126041 0.011961355103746
-0.211207007813719 0.101864299126041 0.020790902530888
-0.203477975039258 0.101864299126041 0.030100201874992
-0.196476234389404 0.101864299126041 0.039942297234030
-0.190561180845819 0.101864299126041 0.049895035027749
-0.186112747618572 0.101864299126041 0.059269893192001
-0.182761520070675 0.101864299126041 0.068329053646714
-0.180085193246835 0.101864299126041 0.077548085808383
-0.178096165089460 0.101864299126041 0.086895075899904
-0.176804546147674 0.101864299126041 0.096337948458654
-0.174203598364731 0.127118917294622 0.111065435206586
-0.175371639099403 0.127118917294622 0.121836214238517
-0.177218106891348 0.127118917294622 0.132439307329105
-0.179923857598043 0.127118917294622 0.142806849195130
-0.183426848620538 0.127118917294622 0.152925677003780
-0.187851752540420 0.127118917294622 0.163006036717578
-0.193342591632280 0.127118917294622 0.173216970310741
-0.199718794334492 0.127118917294622 0.183273460060171
-0.206884188057802 0.127118917294622 0.193019108048836
-0.214901957178710 0.127118917294622 0.202517103328962
-0.223655057498128 0.127118917294622 0.211650258839377
-0.233019760993925 0.127118917294622 0.220309552645887
-0.242960256780149 0.127118917294622 0.228472820030903
-0.253753837460656 0.127118917294622 0.236268983882308
-0.265670811214471 0.127118917294622 0.243785070477362
-0.278374895155942 0.127118917294622 0.250787231882491
-0.291531234783396 0.127118917294622 0.257091965642549
-0.305092701860893 0.127118917294622 0.262693461981015
-0.319115177736487 0.127118917294622 0.267608419636389
-0.333654953147202 0.127118917294622 0.271845157849968
-0.348563430795509 0.127118917294622 0.275364155035896
-0.363942351377431 0.127118917294622 0.278155508912574
-0.379986973839099 0.127118917294622 0.280218161633757
-0.396396738811191 0.127118917294622 0.281501088922553
-0.412877411046566 0.127118917294622 0.281977448730537
-0.429377792805474 0.127118917294622 0.281655680324208
-0.445846758813173 0.127118917294622 0.280544483987893
-0.462233249124702 0.127118917294622 0.278653074931158
-0.478486291624794 0.127118917294622 0.275991331843750
-0.494555053774260 0.127118917294622 0.272569835201574
-0.510154556238892 0.127118917294622 0.268465904589556
-0.524997003691665 0.127118917294622 0.263777347062363
-0.539276361556039 0.127118917294622 0.258480701291592
-0.553095454085391 0.127118917294622 0.252572669614084
-0.566314214388630 0.127118917294622 0.246114986887128
-0.578988544576435 0.127118917294622 0.239097571741183
-0.591173576832947 0.127118917294622 0.231503158449262
-0.602826645591612 0.127118917294622 0.223347602315557
-0.613663175230621 0.127118917294622 0.214810461282847
-0.623402793675006 0.127118917294622 0.206102422201884
-0.632273920156982 0.127118917294622 0.197114427559810
-0.640504224178176 0.127118917294622 0.187703179832467
-0.648055314605195 0.127118917294622 0.177870596131329
-0.654877017339482 0.127118917294622 0.167595094343669
-0.660690542998441 0.127118917294622 0.157191894172338
-0.665222764148624 0.127118917294622 0.147078136475364
-0.668687563984568 0.127118917294622 0.137019651896303
-0.671280653829917 0.127118917294622 0.126716989018514
-0.672933619724686 0.127118917294622 0.116218518461724
-0.673638209982273 0.127118917294622 0.105782618280702
-0.673457556513348 0.127118917294622 0.095694676490067
-0.672470667474726 0.127118917294622 0.085842804495531
-0.670717685002998 0.127118917294622 0.076087609779465
-0.668117367924959 0.127118917294622 0.066319605548744
-0.664570625624670 0.127118917294622 0.056463561898460
-0.660143007007008 0.127118917294622 0.046794047256906
-0.654944793865901 0.127118917294622 0.037527315999945
-0.649041350292253 0.127118917294622 0.028659067746972
-0.642172750603259 0.127118917294622 0.019926517043883
-0.634069940580772 0.127118917294622 0.011167497076315
-0.625047269772714 0.127118917294622 0.002742796288099
-0.615420583851527 0.127118917294622 -0.005104409974051
-0.605235697527758 0.127118917294622 -0.012416193389823
-0.594180783064949 0.127118917294622 -0.019326893616439
-0.581951588858377 0.127118917294622 -0.025919140005974
-0.568921289895997 0.127118917294622 -0.032021382793598
-0.555455850943440 0.127118917294622 -0.037499283449800
-0.541293426040928 0.127118917294622 -0.042405216193141
-0.526180024018555 0.127118917294622 -0.046766201728451
-0.510460185254763 0.127118917294622 -0.050490453995099
-0.494474108853074 0.127118917294622 -0.053510048149316
-0.478272132542312 0.127118917294622 -0.055821489535679
-0.461905375013129 0.127118917294622 -0.057421147158860
-0.445425535062990 0.127118917294622 -0.058306058433025
-0.428884702056002 0.127118917294622 -0.058474391455263
-0.412335176221822 0.127118917294622 -0.057925699284852
-0.395829288902730 0.127118917294622 -0.056661034720781
-0.379419220747320 0.127118917294622 -0.054682950451416
-0.363156822291210 0.127118917294622 -0.051995388180868
-0.347093438984085 0.127118917294622 -0.048603440964764
-0.331279732584177 0.127118917294622 -0.044512936307633
-0.315765493763363 0.127118917294622 -0.039729739669837
-0.300924436216807 0.127118917294622 -0.034357697032162
-0.287136986540134 0.127118917294622 -0.028530010890836
-0.274112645563218 0.127118917294622 -0.022195634848496
-0.261550391255439 0.127118917294622 -0.015276038524072
-0.249491166829650 0.127118917294622 -0.007778097525731
-0.238230304129132 0.127118917294622 0.000151603585909
-0.228061725320436 0.127118917294622 0.008336115672266
-0.218748883383005 0.127118917294622 0.016872246901584
-0.210055270796402 0.127118917294622 0.025896708695054
-0.202023217661812 0.127118917294622 0.035442308873140
-0.194723503712293 0.127118917294622 0.045587052771016
-0.188610976110509 0.127118917294622 0.055790531031800
-0.184158513467293 0.127118917294622 0.065175180301546
-0.180887946981227 0.127118917294622 0.074095522905289
-0.178262756978110 0.127118917294622 0.083175701518094
-0.176295603332758 0.127118917294622 0.092385750417415
-0.174997081715914 0.127118917294622 0.101695618288802
-0.172605915124680 0.152299482137025 0.116641446847222
-0.173898313504466 0.152299482137025 0.127550827551075
-0.175881607428069 0.152299482137025 0.138263171307754
-0.178732518312859 0.152299482137025 0.148704354604954
-0.182378051620434 0.152299482137025 0.158867116214498
-0.186975833249770 0.152299482137025 0.169019573876482
-0.192707984241673 0.152299482137025 0.179379234719882
-0.199354983017389 0.152299482137025 0.189602444801055
-0.206802074892877 0.152299482137025 0.199504222979088
-0.215133053294329 0.152299482137025 0.209171244882592
-0.224208829241949 0.152299482137025 0.218466978736063
-0.233882957569788 0.152299482137025 0.227264943761956
-0.244118838086100 0.152299482137025 0.235545810274462
-0.255267274711133 0.152299482137025 0.243475521014418
-0.267671894716259 0.152299482137025 0.251167828157011
-0.280925869630439 0.152299482137025 0.258340213188586
-0.294623774601635 0.152299482137025 0.264771979935468
-0.308717761405884 0.152299482137025 0.270461922308582
-0.323287968225411 0.152299482137025 0.275435443810054
-0.338415378504221 0.152299482137025 0.279706871642696
-0.353927459324485 0.152299482137025 0.283231906328053
-0.369962447812428 0.152299482137025 0.286000371681372
-0.386775310578636 0.152299482137025 0.288011754428425
-0.404005574510862 0.152299482137025 0.289206642144574
-0.421300251227746 0.152299482137025 0.289555178333433
-0.438608689049055 0.152299482137025 0.289069055153259
-0.455880387515565 0.152299482137025 0.287759569038153
-0.473064934586722 0.152299482137025 0.285637938924728
-0.490111979751225 0.152299482137025 0.282715493014910
-0.506971242191849 0.152299482137025 0.279003718037561
-0.523301493780232 0.152299482137025 0.274598900102639
-0.538758434362468 0.152299482137025 0.269621939547497
-0.553594968836629 0.152299482137025 0.264037640137125
-0.567950235304991 0.152299482137025 0.257836219247472
-0.581662097767902 0.152299482137025 0.251090161890396
-0.594810391209385 0.152299482137025 0.243780505587790
-0.607473517791192 0.152299482137025 0.235878839444125
-0.619608379820647 0.152299482137025 0.227398081417127
-0.630871586217697 0.152299482137025 0.218556164478526
-0.640924928054533 0.152299482137025 0.209608908947739
-0.650058547911485 0.152299482137025 0.200410968642167
-0.658560311839161 0.152299482137025 0.190774616424594
-0.666388970395377 0.152299482137025 0.180693949873558
-0.673487898960249 0.152299482137025 0.170134165189150
-0.679517886496851 0.152299482137025 0.159481105551416
-0.684149203842546 0.152299482137025 0.149245560904400
-0.687650196803875 0.152299482137025 0.139126562024429
-0.690264326406542 0.152299482137025 0.128743300326577
-0.691911525691010 0.152299482137025 0.118146396681828
-0.692584554537925 0.152299482137025 0.107643879053001
-0.692361908304194 0.152299482137025 0.097575663048240
-0.691338379321952 0.152299482137025 0.087793586597840
-0.689560601023236 0.152299482137025 0.078117003065558
-0.686928293099867 0.152299482137025 0.068402595451586
-0.683318369860769 0.152299482137025 0.058548778848390
-0.678808001000592 0.152299482137025 0.048883005964562
-0.673528166851533 0.152299482137025 0.039661859374579
-0.667553688723534 0.152299482137025 0.030871764983942
-0.660560095788622 0.152299482137025 0.022183527315380
-0.652209699973583 0.152299482137025 0.013391093297779
-0.642882531486656 0.152299482137025 0.004929704994086
-0.632961887351841 0.152299482137025 -0.002909454286603
-0.622496939015447 0.152299482137025 -0.010185888972812
-0.611094069699712 0.152299482137025 -0.017069399106801
-0.598367236707050 0.152299482137025 -0.023665788441530
-0.584769284777992 0.152299482137025 -0.029772626862069
-0.570744666235114 0.152299482137025 -0.035232990234386
-0.555957227628782 0.152299482137025 -0.040114571123263
-0.540079420303271 0.152299482137025 -0.044453264724511
-0.523528109732632 0.152299482137025 -0.048143034203385
-0.506714968675537 0.152299482137025 -0.051106615508192
-0.489689931954116 0.152299482137025 -0.053343265625763
-0.472503634156819 0.152299482137025 -0.054851329650836
-0.455207229211829 0.152299482137025 -0.055629243300714
-0.437852219324036 0.152299482137025 -0.055676108325209
-0.420490293415480 0.152299482137025 -0.054992008986326
-0.403173164110089 0.152299482137025 -0.053578155193554
-0.385952401837616 0.152299482137025 -0.051436883320101
-0.368879272570692 0.152299482137025 -0.048571519275205
-0.352004582836624 0.152299482137025 -0.044986084260881
-0.335378523407431 0.152299482137025 -0.040684777652157
-0.319050507350299 0.152299482137025 -0.035671111646744
-0.303473682222273 0.152299482137025 -0.030071488012942
-0.289108926922311 0.152299482137025 -0.024047850035081
-0.275583778478859 0.152299482137025 -0.017529569736835
-0.262514281486476 0.152299482137025 -0.010411658773710
-0.249941308530787 0.152299482137025 -0.002695952923355
-0.238222151653449 0.152299482137025 0.005441418163745
-0.227712383506910 0.152299482137025 0.013787014266050
-0.218111032902442 0.152299482137025 0.022469617630915
-0.209118536716779 0.152299482137025 0.031667607779267
-0.200781026615075 0.152299482137025 0.041429450081426
-0.193180679607220 0.152299482137025 0.051859234793755
-0.186872209281600 0.152299482137025 0.062290382467913
-0.182421859739485 0.152299482137025 0.071648233642337
-0.179238186949713 0.152299482137025 0.080386355989871
-0.176669278381468 0.152299482137025 0.089283764381117
-0.174728055000358 0.152299482137025 0.098312619379776
-0.173425593289595 0.152299482137025 0.107445068842924
-0.171044747522649 0.177411258312747 0.122492022539932
-0.172461920131723 0.177411258312747 0.133503343290124
-0.174581490520309 0.177411258312747 0.144287747985783
-0.177575803046825 0.177411258312747 0.154764879404876
-0.181360941330192 0.177411258312747 0.164933535785877
-0.186129460920693 0.177411258312747 0.175121474328031
-0.192103748046122 0.177411258312747 0.185596268827937
-0.199023126049634 0.177411258312747 0.195953506845129
-0.206753032859149 0.177411258312747 0.205978554564721
-0.215398963905460 0.177411258312747 0.215782569330725
-0.224798450935507 0.177411258312747 0.225209166300181
-0.234781069796698 0.177411258312747 0.234114062472365
-0.245309476497325 0.177411258312747 0.242481178177657
-0.256811705032038 0.177411258312747 0.250514576404948
-0.269708705333352 0.177411258312747 0.258355442632782
-0.283519451913782 0.177411258312747 0.265671063893703
-0.297764014947783 0.177411258312747 0.272202486615861
-0.312393913215455 0.177411258312747 0.277953611500230
-0.327514965768670 0.177411258312747 0.282958862111076
-0.343234284045675 0.177411258312747 0.287238703808233
-0.359354199890692 0.177411258312747 0.290744301080729
-0.376051628783296 0.177411258312747 0.293464701838899
-0.393644893613778 0.177411258312747 0.295399126503480
-0.411710336148477 0.177411258312747 0.296480271411973
-0.429832846099478 0.177411258312747 0.296676067138433
-0.447962540475935 0.177411258312747 0.296001768853190
-0.466049776768854 0.177411258312747 0.294471500998372
-0.484045030042173 0.177411258312747 0.292098645151573
-0.501898812334794 0.177411258312747 0.288896067771135
-0.519561632809017 0.177411258312747 0.284876180586649
-0.536632959670862 0.177411258312747 0.280156235271301
-0.552709127072397 0.177411258312747 0.274882320735790
-0.568105539807825 0.177411258312747 0.269005749920876
-0.582999808094718 0.177411258312747 0.262509171950535
-0.597206734072973 0.177411258312747 0.255476490861021
-0.610831431954989 0.177411258312747 0.247878820897948
-0.623976870624274 0.177411258312747 0.239675450072851
-0.636599582674116 0.177411258312747 0.230875904921764
-0.648294239750519 0.177411258312747 0.221738962952399
-0.658661881823417 0.177411258312747 0.212568203868613
-0.668057472520745 0.177411258312747 0.203179104653813
-0.676831855566001 0.177411258312747 0.193336452295936
-0.684940637351724 0.177411258312747 0.183025990266066
-0.692320177692272 0.177411258312747 0.172199104081220
-0.698567766511788 0.177411258312747 0.161316801036624
-0.703295275006425 0.177411258312747 0.150988640541671
-0.706828330844514 0.177411258312747 0.140843170081760
-0.709460098375166 0.177411258312747 0.130414429178519
-0.711099033578661 0.177411258312747 0.119755371564372
-0.711739455351862 0.177411258312747 0.109224698640714
-0.711475863574211 0.177411258312747 0.099217452501278
-0.710418635661528 0.177411258312747 0.089547568267952
-0.708620463589171 0.177411258312747 0.079991944481148
-0.705961636401064 0.177411258312747 0.070372668912894
-0.702294424584488 0.177411258312747 0.060561060946758
-0.697707860936122 0.177411258312747 0.050938291826250
-0.692354093894669 0.177411258312747 0.041802030161349
-0.686317400681437 0.177411258312747 0.033129199828974
-0.679206251746265 0.177411258312747 0.024523462315208
-0.670611164316394 0.177411258312747 0.015734441158928
-0.660980459502620 0.177411258312747 0.007273325696457
-0.650768303840844 0.177411258312747 -0.000519894212172
-0.640027540664431 0.177411258312747 -0.007723082247729
-0.628278771845459 0.177411258312747 -0.014541419126026
-0.615049750309812 0.177411258312747 -0.021103467000349
-0.600877261426251 0.177411258312747 -0.027176546539870
-0.586288764484022 0.177411258312747 -0.032582041622718
-0.570869370125876 0.177411258312747 -0.037402534810677
-0.554213344366142 0.177411258312747 -0.041682149444511
-0.536814095696271 0.177411258312747 -0.045301662495593
-0.519159104121174 0.177411258312747 -0.048175628594236
-0.501297620519389 0.177411258312747 -0.050306441198928
-0.483279495045707 0.177411258312747 -0.051694707236329
-0.465155024453995 0.177411258312747 -0.052340463944661
-0.446974804776430 0.177411258312747 -0.052243877364205
-0.428789592043310 0.177411258312747 -0.051405626773550
-0.410650159511938 0.177411258312747 -0.049827078969723
-0.392607151032219 0.177411258312747 -0.047510290014895
-0.374710939670709 0.177411258312747 -0.044457840110526
-0.357011497362184 0.177411258312747 -0.040672478008364
-0.339558267053021 0.177411258312747 -0.036156495375618
-0.322400034800134 0.177411258312747 -0.030910679063098
-0.306074092242160 0.177411258312747 -0.025085655671407
-0.291126235477218 0.177411258312747 -0.018873897766395
-0.277097023600502 0.177411258312747 -0.012183126749263
-0.263514872902522 0.177411258312747 -0.004879641955722
-0.250420542638632 0.177411258312747 0.003040376735317
-0.238236824503587 0.177411258312747 0.011369686312761
-0.227384324924061 0.177411258312747 0.019856490129252
-0.217494294680163 0.177411258312747 0.028663735385259
-0.208201082986192 0.177411258312747 0.038013964360704
-0.199555109449871 0.177411258312747 0.047972094971119
-0.191650969375761 0.177411258312747 0.058669304852268
-0.185147589551574 0.177411258312747 0.069305284250296
-0.180704656578865 0.177411258312747 0.078601422921965
-0.177613062144412 0.177411258312747 0.087116757863754
-0.175104681926971 0.177411258312747 0.095790417879351
-0.173192697414229 0.177411258312747 0.104596839621353
-0.171888660277128 0.177411258312747 0.113510515169799
-0.169318473898938 0.202459510481283 0.128545581556262
-0.170859918801859 0.202459510481283 0.139622791889681
-0.173114302430283 0.202459510481283 0.150442929621785
-0.176249387789594 0.202459510481283 0.160919468038772
-0.180170392410703 0.202459510481283 0.171057345535462
-0.185106768938681 0.202459510481283 0.181245271448781
-0.191323316506350 0.202459510481283 0.191802118019204
-0.198515975676042 0.202459510481283 0.202260973284677
-0.206529127747595 0.202459510481283 0.212376658355446
-0.215491046932014 0.202459510481283 0.222285656679126
-0.225214544131534 0.202459510481283 0.231811370413662
-0.235503961896518 0.202459510481283 0.240791511719468
-0.246321268369685 0.202459510481283 0.249213664994666
-0.258175406433257 0.202459510481283 0.257320788831385
-0.271568632098533 0.202459510481283 0.265281943181497
-0.285942109040409 0.202459510481283 0.272713042954763
-0.300737483556323 0.202459510481283 0.279316100873443
-0.315905735553160 0.202459510481283 0.285100625555144
-0.331579785825357 0.202459510481283 0.290110291521226
-0.347894304649064 0.202459510481283 0.294371754229812
-0.364625301627181 0.202459510481283 0.297831965066388
-0.381990550487762 0.202459510481283 0.300478594953860
-0.400375383065439 0.202459510481283 0.302309624494396
-0.419289699736524 0.202459510481283 0.303250534824842
-0.438252902636275 0.202459510481283 0.303268009526593
-0.457216108905686 0.202459510481283 0.302381172533208
-0.476130775850341 0.202459510481283 0.300607202379504
-0.494948513466042 0.202459510481283 0.297961795347380
-0.513620945803268 0.202459510481283 0.294459437204007
-0.532099618642393 0.202459510481283 0.290113475034839
-0.549921654176644 0.202459510481283 0.285064218493103
-0.566621185487895 0.202459510481283 0.279485101486982
-0.582579678020447 0.202459510481283 0.273312060131915
-0.598015369041755 0.202459510481283 0.266519011548971
-0.612719021446681 0.202459510481283 0.259201944443152
-0.626822368843832 0.202459510481283 0.251320972585419
-0.640454238613057 0.202459510481283 0.242821904276078
-0.653570861080783 0.202459510481283 0.233710412779018
-0.665701860662889 0.202459510481283 0.224288542831706
-0.676384625170558 0.202459510481283 0.214910148006791
-0.686042010820566 0.202459510481283 0.205348650663411
-0.695090585981343 0.202459510481283 0.195318379576284
-0.703482509325920 0.202459510481283 0.184796208743529
-0.711146518372019 0.202459510481283 0.173719178076133
-0.717613291829940 0.202459510481283 0.162627835220354
-0.722434532000314 0.202459510481283 0.152235300741285
-0.725995969334719 0.202459510481283 0.142096219017792
-0.728642423915402 0.202459510481283 0.131656106153903
-0.730271118016739 0.202459510481283 0.120970351146067
-0.730878504949148 0.202459510481283 0.110448985415105
-0.730575686768339 0.202459510481283 0.100542298179255
-0.729488356697066 0.202459510481283 0.091024902939984
-0.727674791497989 0.202459510481283 0.081630362447709
-0.724995520649978 0.202459510481283 0.072145698286921
-0.721277577558598 0.202459510481283 0.062414621013335
-0.716622027096955 0.202459510481283 0.052872442993637
-0.711202578405616 0.202459510481283 0.043858382038912
-0.705112947112275 0.202459510481283 0.035339721215137
-0.697892167643863 0.202459510481283 0.026852930454390
-0.689055894399710 0.202459510481283 0.018103373577749
-0.679123239975389 0.202459510481283 0.009679057482122
-0.668622613816848 0.202459510481283 0.001969103838194
-0.657610880525439 0.202459510481283 -0.005123602204416
-0.645518964426523 0.202459510481283 -0.011839073301462
-0.631784063886370 0.202459510481283 -0.018327827821210
-0.617031115319291 0.202459510481283 -0.024328053002799
-0.601875059577203 0.202459510481283 -0.029640747234610
-0.585817869242342 0.202459510481283 -0.034362652162638
-0.568371006835228 0.202459510481283 -0.038545212914234
-0.550108603411646 0.202459510481283 -0.042057409464724
-0.531598255021271 0.202459510481283 -0.044807052662393
-0.512888230673093 0.202459510481283 -0.046800049932551
-0.494027279718094 0.202459510481283 -0.048039546578639
-0.475064514405746 0.202459510481283 -0.048527374499737
-0.456049291538164 0.202459510481283 -0.048264884340437
-0.437031099478547 0.202459510481283 -0.047253404040969
-0.418059438963592 0.202459510481283 -0.045494447277975
-0.399183698915637 0.202459510481283 -0.042989716497855
-0.380453039551752 0.202459510481283 -0.039740907422443
-0.361916291271692 0.202459510481283 -0.035749287201621
-0.343621861492010 0.202459510481283 -0.031014951676912
-0.325617649721200 0.202459510481283 -0.025535581274340
-0.308529784304926 0.202459510481283 -0.019487730582288
-0.292993407906843 0.202459510481283 -0.013096162025021
-0.278457102662348 0.202459510481283 -0.006244795997149
-0.264356996816521 0.202459510481283 0.001231051629829
-0.250733690788148 0.202459510481283 0.009341477476444
-0.238079002058735 0.202459510481283 0.017846646166654
-0.226881943541907 0.202459510481283 0.026454686646372
-0.216702675503337 0.202459510481283 0.035364836346716
-0.207106479949302 0.202459510481283 0.044846155048616
-0.198148594242263 0.202459510481283 0.054980760108407
-0.189937131596205 0.202459510481283 0.065927806049150
-0.183239511868991 0.202459510481283 0.076746077955164
-0.178808620078285 0.202459510481283 0.085947403033738
-0.175813427516666 0.202459510481283 0.094202394703089
-0.173369117390533 0.202459510481283 0.102614427754037
-0.171489130507707 0.202459510481283 0.111160335900267
-0.170185485913792 0.202459510481283 0.119817070220224
-0.167226105782070 0.227449503302130 0.134731521835334
-0.168890527901618 0.227449503302130 0.145839285389480
-0.171277483112541 0.227449503302130 0.156659785871926
-0.174549988874294 0.227449503302130 0.167100424411018
-0.178602473604575 0.227449503302130 0.177172281160912
-0.183703233003588 0.227449503302130 0.187325865541096
-0.190161595664063 0.227449503302130 0.197932204305024
-0.197627875754778 0.227449503302130 0.208460541962046
-0.205924128793076 0.227449503302130 0.218634448205303
-0.215202462985031 0.227449503302130 0.228616425660003
-0.225249624399676 0.227449503302130 0.238209457729032
-0.235843480268792 0.227449503302130 0.247233193214053
-0.246945377213332 0.227449503302130 0.255679292690752
-0.259148794079023 0.227449503302130 0.263830054083465
-0.273041245104928 0.227449503302130 0.271882580856748
-0.287982519362978 0.227449503302130 0.279400591076637
-0.303331947645890 0.227449503302130 0.286046581223573
-0.319040071794817 0.227449503302130 0.291836166337610
-0.335268328148475 0.227449503302130 0.296822416827753
-0.352180368481675 0.227449503302130 0.301038150749364
-0.369524708974517 0.227449503302130 0.304426511148669
-0.387562154522300 0.227449503302130 0.306973090909459
-0.406748694503957 0.227449503302130 0.308673492727043
-0.426524554839486 0.227449503302130 0.309446839908135
-0.446340295292211 0.227449503302130 0.309259701492605
-0.466148272969775 0.227449503302130 0.308135370782402
-0.485901295193340 0.227449503302130 0.306094300075407
-0.505552362990721 0.227449503302130 0.303154645092762
-0.525054470095676 0.227449503302130 0.299332583982234
-0.544360453681863 0.227449503302130 0.294642401072216
-0.562942066133005 0.227449503302130 0.289249648794754
-0.580268435025986 0.227449503302130 0.283357321605140
-0.596790640728722 0.227449503302130 0.276883963782053
-0.612769695161194 0.227449503302130 0.269793517719285
-0.627971362034132 0.227449503302130 0.262194719229458
-0.642555326428834 0.227449503302130 0.254035572104825
-0.656677559483087 0.227449503302130 0.245247206701584
-0.670294062436841 0.227449503302130 0.235830975267390
-0.682866319680706 0.227449503302130 0.226134563143428
-0.693865183436067 0.227449503302130 0.216564495889783
-0.703784444464207 0.227449503302130 0.206849280001945
-0.713109106305343 0.227449503302130 0.196649905143067
-0.721787559674246 0.227449503302130 0.185933878041917
-0.729740271339077 0.227449503302130 0.174623407131925
-0.736428161783919 0.227449503302130 0.163342776105768
-0.741341016457650 0.227449503302130 0.152913109300595
-0.744927488097325 0.227449503302130 0.142812002269766
-0.747586008665829 0.227449503302130 0.132393517290152
-0.749202879711731 0.227449503302130 0.121715601220691
-0.749777290137524 0.227449503302130 0.111239902320347
-0.749437492447439 0.227449503302130 0.101471597224548
-0.748324159374175 0.227449503302130 0.092144777459858
-0.746500642592450 0.227449503302130 0.082949115589519
-0.743807450100960 0.227449503302130 0.073636392051847
-0.740045843854295 0.227449503302130 0.064022426396865
-0.735329008335486 0.227449503302130 0.054596685812230
-0.729852523401676 0.227449503302130 0.045740108839698
-0.723719513718117 0.227449503302130 0.037410288268631
-0.716397354611964 0.227449503302130 0.029077141448688
-0.707323878276663 0.227449503302130 0.020402340780437
-0.697091365743045 0.227449503302130 0.012050951090374
-0.686305784224058 0.227449503302130 0.004461066619075
-0.675028405009716 0.227449503302130 -0.002484545777139
-0.662596690866161 0.227449503302130 -0.009059712886586
-0.648353013286599 0.227449503302130 -0.015435719207454
-0.633014592806475 0.227449503302130 -0.021323224338493
-0.617288265761553 0.227449503302130 -0.026504562871192
-0.600588504225371 0.227449503302130 -0.031089598285418
-0.582339371700559 0.227449503302130 -0.035135926947568
-0.563199849892623 0.227449503302130 -0.038502445779444
-0.543821922539143 0.227449503302130 -0.041091939157395
-0.524252562890434 0.227449503302130 -0.042914196024494
-0.504539088012151 0.227449503302130 -0.043975165135959
-0.484729084196155 0.227449503302130 -0.044278654257765
